# .PCD v0.7 - Point Cloud Data file format
VERSION 0.7
FIELDS x y z
SIZE 4 4 4
TYPE F F F
COUNT 1 1 1
WIDTH 1613
HEIGHT 1
VIEWPOINT 0 0 0 1 0 0 0
POINTS 1613
DATA ascii
10.581415 55.584015 12.465917
10.587602 55.575039 11.843936
10.568324 55.523205 10.598908
10.524758 55.613987 22.064468
10.532366 55.590279 20.750153
10.563639 55.561005 18.163734
10.528113 55.491848 16.870609
10.523116 55.455727 15.59817
10.608589 55.532078 14.989195
10.519571 55.406212 13.70813
10.529263 55.38636 12.461049
10.575709 55.421036 11.848487
10.638788 55.473522 11.239558
10.630445 55.449589 10.617979
9.8716564 54.579006 8.0573158
9.9460726 54.643902 7.4619002
9.9419575 54.624901 6.8577886
9.9956188 54.667614 6.2596593
10.516865 55.561695 26.801971
10.513949 55.52676 25.43107
10.512325 55.493607 24.077631
10.537453 55.504974 23.418411
10.462379 55.378353 21.397869
10.487226 55.374588 20.099533
10.599492 55.479641 19.490784
10.595195 55.459999 18.841322
10.593419 55.443127 18.195713
10.556918 55.359577 16.266153
10.592558 55.382927 15.642097
10.617646 55.395042 15.016585
10.585012 55.34557 14.377889
10.609075 55.356674 13.755886
10.588795 55.320503 13.125099
10.550049 55.250263 11.871073
10.579144 55.266888 11.256604
9.7930822 54.38665 9.2859516
9.935956 54.524757 8.70121
9.9185362 54.492168 8.0938931
9.9520454 54.513817 7.4938316
9.9477968 54.495296 6.8901401
9.9604187 54.494743 6.2889161
10.432263 55.375519 28.847
10.507138 55.393024 26.116804
10.520654 55.376747 24.763611
10.461413 55.253155 22.066221
10.507641 55.272789 20.771023
10.570946 55.32555 20.142502
10.539454 55.262695 18.83441
10.62414 55.338367 18.219049
10.541179 55.2211 16.911888
10.580651 55.248753 16.28772
10.59611 55.250885 15.658163
10.627872 55.270405 15.034894
10.682797 55.314587 14.418912
10.526875 55.106461 12.50527
10.634346 55.2066 11.906187
10.573232 55.113724 10.655744
9.8554287 54.324272 9.3151112
9.9234457 54.382767 8.719698
9.960577 54.408497 8.1198359
9.9804268 54.415905 7.5181556
9.9692669 54.390461 6.9138575
9.9818535 54.390202 6.3128066
10.503999 55.24847 25.41267
10.527827 55.243324 24.073347
10.579014 55.28265 23.426521
10.560436 55.173756 19.472534
10.602469 55.203777 18.84075
10.613826 55.201283 18.200453
10.510316 55.062576 16.888296
10.603509 55.147057 16.280817
10.632421 55.163395 15.65522
10.61022 55.125595 15.017483
10.604282 55.105095 14.386683
10.668907 55.159382 13.775192
10.562916 55.018951 12.502334
10.616152 55.061272 11.892223
10.597592 55.027637 11.268809
10.670664 55.090969 10.663648
9.9720392 54.324577 9.3245897
10.006036 54.346828 8.7234087
10.029562 54.358021 8.1212215
10.035745 54.350906 7.5175648
10.051993 54.354439 6.915741
10.064612 54.354153 6.3140802
10.494796 55.09116 24.011541
10.533484 55.101425 22.694838
10.54296 55.065945 20.723768
10.672862 55.188419 20.120581
10.559157 55.008656 17.500225
10.649621 55.089577 16.890388
10.603486 55.011578 15.607438
10.635179 55.030506 14.985013
10.656259 55.038261 14.361271
10.653129 55.020504 13.733253
10.625701 54.977161 13.101783
10.635155 54.972778 12.48083
10.627154 54.950027 11.857902
10.581178 54.887283 11.229704
10.585945 54.878086 10.613193
10.056801 54.292397 9.3033628
10.10458 54.328735 8.7034426
10.107578 54.317932 8.0979061
10.100028 54.296055 7.4921985
10.130033 54.313713 6.8913827
10.122026 54.291393 6.2874222
10.561179 55.082268 25.332266
10.511491 54.96624 22.627508
10.633363 55.079258 22.017031
10.579111 55.006393 21.33634
10.613379 55.027046 20.694641
10.60358 55.001266 20.038845
10.596204 54.978123 19.387299
10.651583 55.02121 18.760601
10.551795 54.87059 16.807304
10.631669 54.939667 16.196196
10.613138 54.905174 15.557985
10.597337 54.873623 14.923298
10.638624 54.902184 14.305631
10.669323 54.919636 13.686447
10.648548 54.883003 13.056811
10.608847 54.811848 11.805089
10.665213 54.856403 11.196852
10.11231 54.232376 9.2650881
10.180742 54.289814 8.6676798
10.224971 54.32185 8.0667152
10.18988 54.270714 7.4569387
10.213031 54.280674 6.8547378
10.218758 54.272385 6.251358
10.527212 54.931747 25.264061
10.523994 54.895714 23.915154
10.573515 54.836292 19.332237
10.628821 54.878761 18.706276
10.67351 54.910114 18.078194
10.60934 54.811802 16.779984
10.635246 54.823608 16.152851
10.664015 54.838459 15.528248
10.654952 54.813683 14.895204
10.590807 54.716084 13.625366
10.699409 54.814747 13.026399
10.604837 54.685616 11.763472
10.640662 54.708134 11.151895
10.652178 54.705235 10.536759
10.216961 54.220383 9.2421904
10.285555 54.27737 8.6438761
10.302335 54.280201 8.0386496
10.267168 54.228779 7.4283838
10.331758 54.281586 6.8296671
10.30989 54.244106 6.2229199
10.58784 54.976563 29.404428
10.562023 54.81517 23.896421
10.553938 54.774155 22.561197
10.592066 54.750057 19.954391
10.542802 54.651268 18.003983
10.63724 54.734451 17.395411
10.646809 54.728897 16.761274
10.63203 54.697948 16.12236
10.681088 54.733776 15.503897
10.651498 54.687469 14.865743
10.679174 54.701038 14.244893
10.696179 54.703503 13.622882
10.634121 54.623489 12.984686
10.634932 54.594017 11.743442
10.650157 54.594799 11.12812
10.661598 54.591663 10.513331
10.376745 54.250008 8.6327667
10.386644 54.245468 8.0260029
10.406657 54.251476 7.4211726
10.429907 54.260864 6.8171334
10.387223 54.201672 6.2078776
10.596449 54.741352 24.560146
10.638119 54.704121 21.25621
10.619403 54.605862 18.010612
10.63961 54.611389 17.378057
10.676153 54.63398 16.752537
10.668035 54.610104 16.115673
10.723904 54.652905 15.49908
10.646463 54.556984 14.848311
10.701348 54.598843 14.234792
10.649882 54.530102 13.596766
10.662837 54.528423 12.976468
10.706238 54.558434 12.364133
10.670324 54.506039 11.736757
10.651099 54.471043 11.115069
10.577124 54.349434 9.2596045
10.590852 54.348824 8.6502037
10.545524 54.286976 8.0344639
10.54483 54.271465 7.4258089
10.554265 54.266483 6.8191304
10.566933 54.264862 6.2133756
10.524869 54.668434 30.013981
10.637072 54.573746 21.230871
10.566422 54.469097 19.901138
10.609755 54.452618 17.347237
10.652838 54.482113 16.724607
10.658009 54.472309 16.092436
10.638718 54.437191 15.455806
10.63585 54.419167 14.826276
10.649528 54.418346 14.203128
10.610291 54.347847 12.947048
10.701577 54.427536 12.34594
10.590719 54.283173 11.087747
10.684583 54.36557 10.488823
10.615174 54.235176 8.0291557
10.61433 54.219727 7.4200644
10.552825 54.12714 6.1998305
10.574748 54.426586 23.138666
10.600288 54.406273 21.172434
10.680796 54.474228 20.550741
10.66318 54.440598 19.894119
10.662361 54.409206 18.603123
10.667327 54.369022 16.689646
10.665366 54.352013 16.055859
10.645095 54.242306 12.298965
10.62991 54.197426 11.061013
10.630206 54.154179 9.2203388
10.618391 54.113136 7.99825
10.693692 54.17625 7.3978181
10.716692 54.18552 6.7914982
10.652487 54.105091 6.1782985
10.604124 54.49308 29.237265
10.617369 54.343952 22.4384
10.656302 54.337112 20.487207
10.699018 54.365658 19.853525
10.683611 54.334293 19.201344
10.657156 54.291615 18.548794
10.60504 54.207333 17.254454
10.695399 54.285255 16.647057
10.713729 54.288994 16.019218
10.707556 54.267548 15.386615
10.683638 54.227894 14.751847
10.710606 54.240673 14.132422
10.658031 54.171658 13.49578
10.62096 54.089081 11.628863
10.669973 54.12471 11.02183
10.729125 54.170761 10.416822
10.635033 54.044819 9.1759081
10.717664 54.115021 8.5762587
10.699294 54.081577 7.9636555
10.691055 54.058563 7.3536611
10.706923 54.060295 6.7471108
10.611344 54.399731 29.185959
10.59418 54.330887 27.091278
10.613005 54.300194 25.05599
10.590612 54.227917 23.038351
10.621772 54.211613 21.076778
10.594362 54.120037 18.480082
10.677979 54.174667 17.230522
10.693384 54.174931 16.600208
10.656864 54.121944 15.957227
10.725888 54.177341 15.346215
10.660625 54.095001 14.701
10.694373 54.114288 14.083941
10.669135 54.073135 13.454361
10.64121 54.014122 12.207583
10.673266 54.03183 11.596342
10.729272 54.074078 10.99028
10.621716 53.933903 9.744195
10.735924 54.035763 9.1493578
10.735171 54.020016 8.5378637
10.751542 54.021801 7.929575
10.736274 53.991272 7.3185992
10.731186 53.971176 6.7099252
10.635678 54.297585 28.451788
10.597281 54.223515 27.046719
10.569411 54.110462 23.650612
10.686353 54.213928 23.036558
10.596625 54.072609 21.025537
10.604568 54.048363 19.730221
10.595586 54.00708 18.441067
10.66659 54.063843 17.825319
10.66705 54.032608 16.554331
10.657723 54.007309 15.919916
10.713022 54.048157 15.30559
10.709444 54.028839 14.676956
10.674286 53.977314 14.042867
10.6972 53.98518 13.425188
10.681667 53.953823 12.80047
10.624869 53.865009 11.552711
10.729435 53.956348 10.956437
10.691108 53.886635 9.7220945
10.784612 53.96669 9.1237879
10.646588 53.795616 7.8856363
10.701002 53.835876 7.283742
10.716783 53.836796 6.6778851
10.707846 53.812569 6.0705347
10.634182 54.112652 25.656622
10.624412 54.085751 24.975489
10.637662 54.065826 23.640696
10.660999 54.073097 22.985992
10.66992 53.984394 19.072002
10.61134 53.892643 17.772097
10.726192 53.993908 17.171858
10.720826 53.972595 16.535723
10.697617 53.933159 15.897182
10.752871 53.973743 15.282747
10.721553 53.926174 14.646966
10.713761 53.902634 14.019881
10.750404 53.924377 13.405301
10.624848 53.765671 12.138313
10.712291 53.839207 11.538778
10.761304 53.873665 10.931765
10.722988 53.819374 10.310473
10.722589 53.803665 9.6974506
10.711386 53.777023 9.0842552
10.710334 53.760723 8.4739037
10.698497 53.733505 7.8634758
10.710869 53.730888 7.2569232
10.747522 53.752918 6.6532497
10.672515 54.031902 25.630751
10.748908 54.093136 24.990137
10.67967 53.908241 20.32914
10.742269 53.955952 19.704157
10.63027 53.810287 18.379187
10.687352 53.852562 17.759415
10.685676 53.835159 17.122803
10.776068 53.91135 16.515903
10.711285 53.829956 15.86551
10.745649 53.849323 15.245756
10.650432 53.721813 13.970525
10.742176 53.799522 13.369865
10.629641 53.654854 12.106822
10.716949 53.728123 11.507589
10.793638 53.790623 10.905883
10.720097 53.700977 10.278816
10.679901 53.630104 9.0495319
10.741538 53.677425 8.4480581
10.778476 53.699757 7.8433237
10.755587 53.661602 7.232532
10.600486 53.905838 28.29661
10.667455 53.89053 24.910633
10.619113 53.808746 23.550148
10.749289 53.924759 22.942406
10.690091 53.784916 19.648952
10.672722 53.73597 18.358068
10.743378 53.791969 17.742563
10.686524 53.718884 17.088875
10.749227 53.766914 16.474291
10.780499 53.783161 15.851748
10.718005 53.704594 15.205705
10.727395 53.698814 14.581809
10.760549 53.717106 13.965557
10.727336 53.668354 13.335319
10.710934 53.636654 12.711495
10.697523 53.608032 12.09053
10.784787 53.681114 11.490826
10.763646 53.644756 10.871252
10.738585 53.604492 10.253097
10.690782 53.526455 9.0231991
10.710179 53.531158 8.4165831
10.725818 53.532089 7.8101892
10.716622 53.508015 7.2018986
10.650803 53.787228 25.553799
10.597884 53.700703 24.183868
10.678486 53.766006 23.552912
10.634566 53.657188 20.903086
10.661008 53.652229 19.617466
10.677481 53.637466 18.339304
10.656672 53.585335 17.06012
10.684826 53.598278 16.436127
10.750453 53.649052 15.824342
10.777658 53.661106 15.202981
10.745456 53.613323 14.568105
10.743861 53.596455 13.94357
10.717412 53.5546 13.315446
10.721761 53.543819 12.696562
10.669813 53.461357 11.452328
10.760312 53.537388 10.85435
10.791138 53.553383 10.245786
10.748065 53.495098 9.6266241
10.743178 53.47525 9.0152121
10.734466 53.451595 8.4046707
10.714903 53.417072 7.79424
10.712635 53.399956 7.1871095
10.734763 53.407352 6.5831757
10.628871 53.771454 29.672115
10.631412 53.63863 24.187992
10.685324 53.67659 23.545088
10.721531 53.696747 22.897005
10.627767 53.553619 20.890724
10.735117 53.645771 20.281723
10.674704 53.568958 19.613108
10.684396 53.547043 18.332848
10.70016 53.547176 17.700264
10.718725 53.550179 17.070816
10.65375 53.453701 15.789627
10.715489 53.500275 15.178945
10.697021 53.466282 14.548618
10.751 53.505119 13.938325
10.738463 53.477188 13.313549
10.784731 53.508335 12.703668
10.757313 53.465565 12.079539
10.718904 53.411831 11.45575
10.721323 53.38398 10.228893
10.762397 53.410057 9.6236734
10.694262 53.326736 9.0035248
10.713656 53.33115 8.3974295
10.743372 53.345909 7.7931714
10.727048 53.314598 7.1845164
10.742194 53.314812 6.5800385
10.638199 53.612865 26.899191
10.673197 53.598255 24.879704
10.751803 53.660942 24.244413
10.705027 53.597534 23.556078
10.72777 53.604164 22.902275
10.64734 53.475147 20.90169
10.612211 53.408195 19.59477
10.678462 53.427715 17.698107
10.7729 53.506882 17.092295
10.74599 53.464409 16.451233
10.67487 53.347076 14.549011
10.756725 53.413784 13.945938
10.786008 53.427879 13.330855
10.741522 53.368195 12.701116
10.776953 53.388515 12.090492
10.717448 53.313931 11.462706
10.698721 53.265202 10.232897
10.732766 53.284264 9.6271343
10.748962 53.285511 9.0193615
10.768414 53.290031 8.4128332
10.727649 53.234467 7.8000607
10.746565 53.238499 7.1954417
10.825317 53.302227 6.596673
10.642069 53.462372 24.890457
10.713891 53.51849 24.252756
10.696202 53.469162 22.91478
10.714449 53.471783 22.262829
10.649261 53.375423 20.928949
10.641353 53.336784 19.632111
10.727115 53.407326 19.019306
10.719521 53.384521 18.376299
10.742188 53.392044 17.745909
10.699095 53.318886 16.465521
10.764952 53.369717 15.854293
10.757436 53.347301 15.224207
10.738876 53.313919 14.593765
10.765079 53.325264 13.976707
10.731457 53.276966 13.347388
10.707761 53.238628 12.722989
10.79221 53.308174 12.122923
10.732578 53.234104 11.495087
10.732144 53.21909 10.880877
10.7419 53.214268 10.269887
10.775995 53.233707 9.6637888
10.742845 53.186214 9.0487623
10.734033 53.162994 8.4388981
10.799111 53.213322 7.838892
10.727108 53.112919 6.6188211
10.602894 53.393059 28.327877
10.679397 53.407333 25.627228
10.666316 53.363682 24.276384
10.720384 53.402557 23.63372
10.716008 53.38311 22.968599
10.720706 53.372807 22.310987
10.693727 53.330959 21.644201
10.67487 53.267891 19.690283
10.70497 53.268749 18.418024
10.720697 53.269936 17.785782
10.666806 53.173176 15.874053
10.742642 53.234413 15.267603
10.724003 53.201653 14.637471
10.722239 53.185741 14.014026
10.779468 53.228539 13.40614
10.727745 53.163036 12.775218
10.749142 53.170273 12.162293
10.808849 53.215603 11.557863
10.766258 53.159321 10.935336
10.712624 53.092136 10.313574
10.753773 53.119106 9.7090979
10.748782 53.100296 9.0984325
10.718738 53.056656 8.4859104
10.790958 53.114491 7.8871241
10.767429 53.07737 7.277678
10.768417 53.064583 6.6719961
10.620003 53.352673 30.482395
10.656438 53.298321 26.337309
10.68397 53.281704 24.327454
10.629603 53.184296 22.317066
10.745584 53.28545 21.708475
10.727798 53.25354 21.048782
10.678874 53.176685 19.735756
10.723567 53.207119 19.108671
10.743498 53.212986 18.475122
10.674347 53.102859 16.549973
10.768134 53.182251 15.947244
10.685998 53.073486 14.672896
10.706322 53.066582 13.434765
10.766711 53.112968 12.829136
10.6785 52.985386 10.965519
10.779924 53.072487 10.370738
10.792928 53.072048 9.7612448
10.745519 53.011852 9.1442099
10.772049 53.024853 8.5391312
10.759372 52.999088 7.929956
10.771229 52.997608 7.3246961
10.758013 52.971363 6.7177835
10.748092 52.948399 6.1123118
10.725687 53.211433 23.04435
10.665021 53.109165 21.05302
10.766235 53.19566 20.442133
10.787898 53.203304 19.803251
10.777767 53.179497 19.15588
10.661454 53.036942 17.839949
10.76327 53.124207 17.237291
10.697756 53.032368 15.956291
10.752935 53.073559 15.344165
10.783261 53.090183 14.726547
10.710067 52.977974 12.845923
10.794887 53.048588 12.246387
10.735019 52.976276 11.618707
10.755774 52.98365 11.008604
10.793884 53.008175 10.402406
10.785752 52.987076 9.7895508
10.752492 52.941212 9.1746645
10.764943 52.940483 8.5677586
10.787777 52.950016 7.9629002
10.771324 52.920822 7.3544025
10.772361 52.908897 6.748877
10.704876 53.12986 23.043615
10.665156 53.047543 21.06094
10.773572 53.140591 20.452621
10.788588 53.141296 19.811197
10.757923 53.096905 19.156681
10.695161 53.020874 18.495249
10.65349 52.951923 17.211226
10.786493 53.069447 16.619011
10.741398 53.011154 15.975965
10.680453 52.923645 14.707753
10.734961 52.963799 14.098642
10.722383 52.937824 13.474808
10.685159 52.874123 12.231331
10.691367 52.840023 10.392688
10.754134 52.888466 9.7920656
10.749349 52.87043 9.1816349
10.747802 52.85561 8.5729809
10.747422 52.828712 7.3594065
10.791324 52.858635 6.7581825
10.679564 53.108063 25.018206
10.680192 53.032452 21.703897
10.668242 52.990738 20.398481
10.745367 53.051991 19.7805
10.728652 53.020706 19.131271
10.763033 53.039883 18.502327
10.674315 52.908661 16.570536
10.782925 53.00116 15.971848
10.824831 53.027981 15.354962
10.679084 52.85582 14.069275
10.75811 52.919296 13.467067
10.791106 52.937504 12.854861
10.675865 52.795872 11.598752
10.789007 52.892941 11.005872
10.778084 52.868122 10.39109
10.777427 52.853424 9.7796001
10.765795 52.82798 9.1679163
10.75028 52.798763 8.5572653
10.766464 52.800682 7.9518456
10.75037 52.770954 7.3437104
10.787436 52.793385 6.741827
10.849269 52.840092 6.1418743
10.711452 53.197826 29.131804
10.707888 53.160686 27.739059
10.687832 53.058781 24.332333
10.698534 53.037197 23.006989
10.758648 53.080517 22.372101
10.708309 52.999275 21.04282
10.776237 53.05048 20.418583
10.66444 52.893818 18.449627
10.757377 52.969833 17.842354
10.853469 53.048958 17.236351
10.677472 52.84547 15.922013
10.80357 52.954185 15.328781
10.735388 52.857059 14.062312
10.807782 52.913097 13.457788
10.798783 52.889294 12.835855
10.771643 52.847752 12.212313
10.744106 52.776253 10.364742
10.814645 52.830589 9.7645769
10.796145 52.797729 9.151475
10.795092 52.781986 8.5423231
10.790185 52.762505 7.9339042
10.802821 52.760212 7.3284883
10.840191 52.782124 6.7259912
10.679256 53.02792 25.665688
10.763899 53.09454 25.030001
10.697961 52.963684 22.338768
10.763807 52.979858 20.405348
10.765652 52.965645 19.759104
10.763178 52.947262 19.114399
10.798089 52.965645 18.485027
10.764915 52.901543 17.200665
10.787372 52.907883 16.574444
10.763734 52.869099 15.937313
10.79203 52.881268 15.316954
10.788214 52.862022 14.690027
10.801447 52.859528 14.069458
10.789523 52.832455 13.444888
10.787679 52.8153 12.82474
10.767691 52.780441 12.202814
10.800359 52.797131 11.593145
10.772419 52.754597 10.973544
10.797307 52.763741 10.364914
10.811238 52.762203 9.7554426
10.78572 52.72216 9.1414356
10.827534 52.747906 8.5379429
10.765722 52.672512 7.9225731
10.785619 52.676907 7.3182483
10.801721 52.677612 6.714056
10.778288 52.639782 6.1072164
10.686912 52.913746 23.668159
10.716281 52.909946 22.357805
10.793044 52.969025 21.731964
10.796845 52.956635 21.079676
10.715105 52.844593 19.752859
10.701484 52.783924 17.827808
10.846766 52.910378 17.23744
10.712696 52.748158 15.935136
10.804204 52.822113 15.332254
10.779314 52.782372 14.699901
10.745337 52.718521 13.447062
10.771746 52.729031 12.8336
10.815493 52.756489 12.22484
10.819923 52.745621 11.609264
10.770693 52.682472 10.985694
10.781417 52.677826 10.374804
10.795378 52.676365 9.7655935
10.791222 52.65728 9.1548433
10.790318 52.641396 8.5458679
10.792693 52.628735 7.9384546
10.819817 52.640179 7.3346133
10.778775 52.585323 6.7248402
10.733706 52.932114 25.72613
10.73739 52.887043 23.713387
10.763889 52.802433 19.149897
10.798908 52.821129 18.520628
10.780952 52.788185 17.876511
10.835639 52.826172 17.257643
10.809247 52.785133 16.616381
10.806678 52.767391 15.984915
10.785892 52.73196 15.351057
10.810268 52.740585 14.731422
10.809471 52.724739 14.107287
10.776334 52.67746 13.477865
10.802815 52.688267 12.864063
10.804098 52.674587 12.246342
10.801407 52.657085 11.629581
10.705824 52.534531 10.386174
10.722596 52.52137 9.1691179
10.814484 52.595917 8.5729485
10.802577 52.569675 7.9636045
10.779643 52.532764 7.3544683
10.755576 52.906925 27.12739
10.719919 52.82375 25.070692
10.740422 52.812027 23.741179
10.728951 52.76947 22.412825
10.734881 52.713509 19.809948
10.795274 52.741859 18.546095
10.727015 52.645283 17.251347
10.798647 52.699951 16.640043
10.753884 52.641499 15.996988
10.76822 52.640556 15.37316
10.78474 52.627007 14.128203
10.794028 52.6213 13.50879
10.736699 52.536358 12.259612
10.861949 52.643257 11.668118
10.812662 52.580891 11.044049
10.78783 52.542294 10.426807
10.830402 52.569065 9.8219833
10.811998 52.53677 9.208849
10.749112 52.44706 7.9845634
10.804947 52.48674 7.3843408
10.806832 52.474213 6.7787428
10.725048 52.78569 26.4487
10.730426 52.758991 25.096209
10.77721 52.788712 24.44585
10.785398 52.780933 23.78141
10.739927 52.705502 22.437996
10.824037 52.771797 21.814808
10.74502 52.6796 21.130568
10.785989 52.70409 20.495949
10.801916 52.704311 19.854548
10.77873 52.666626 19.2024
10.775111 52.63298 17.922186
10.801973 52.644066 17.295002
10.810684 52.637596 16.66445
10.773371 52.571781 15.395498
10.819087 52.60133 14.781505
10.783011 52.551697 14.148837
10.856197 52.60791 13.544073
10.797761 52.536739 12.911041
10.841808 52.564804 12.302157
10.810781 52.520267 11.679601
10.775704 52.471874 11.058743
10.786572 52.467949 10.447937
10.807835 52.474102 9.8399162
10.803773 52.455807 9.2291422
10.795813 52.433777 8.6192217
10.841312 52.463394 8.0169153
10.818457 52.427036 7.4073977
10.870698 52.463173 6.806365
10.71612 52.760822 28.527527
10.712261 52.740669 27.832333
10.691368 52.671837 25.77051
10.680513 52.629463 24.419771
10.711658 52.612625 22.443512
10.767003 52.604645 19.858948
10.799644 52.621025 19.226332
10.7263 52.519791 17.923407
10.781307 52.557995 17.305365
10.804185 52.565155 16.679169
10.787724 52.534328 16.043928
10.823551 52.554104 15.425399
10.791711 52.508533 14.791101
10.812366 52.513741 14.172417
10.807727 52.494556 13.549505
10.813252 52.485237 12.930865
10.83614 52.49271 12.317477
10.826577 52.46891 11.69908
10.72399 52.340973 10.453985
10.809736 52.40918 9.8566675
10.812956 52.397858 9.2469053
10.805115 52.375908 8.6368942
10.800556 52.357151 8.0286245
10.82086 52.362358 7.4241467
10.815774 52.34314 6.81779
10.871589 52.382534 6.2173505
10.717714 52.593956 24.448362
10.760223 52.619377 23.79957
10.818991 52.660591 23.160322
10.768718 52.565529 21.168539
10.810021 52.590126 20.533689
10.82622 52.590523 19.892038
10.817173 52.566605 19.244404
10.789756 52.525028 18.593906
10.749837 52.456512 17.307957
10.727985 52.405712 16.039509
10.76018 52.407238 14.795398
10.816331 52.446648 14.185687
10.861489 52.475487 13.574129
10.824434 52.425205 12.945668
10.847409 52.432755 12.332197
10.830752 52.40221 11.712345
10.845817 52.402218 11.100229
10.771072 52.315907 10.474361
10.828363 52.356586 9.8721285
10.78861 52.304012 9.2560892
10.787958 52.289055 8.6473513
10.812169 52.298 8.0427113
10.825358 52.296375 7.4373927
10.813115 52.270355 6.8303633
10.734834 52.656029 29.957634
10.794609 52.697533 29.286987
10.697226 52.523399 25.792864
10.754803 52.547733 24.472916
10.838618 52.613113 23.841684
10.756935 52.458065 20.522921
10.800872 52.485371 19.891941
10.770706 52.441376 19.237541
10.848235 52.501129 18.622337
10.816431 52.455696 17.973381
10.801351 52.42643 17.333042
10.866636 52.474522 16.719082
10.800758 52.396538 16.069458
10.815445 52.396072 15.445294
10.804771 52.371292 14.816619
10.811276 52.363064 14.194517
10.892019 52.426163 13.591259
10.833521 52.355606 12.957912
10.856486 52.363297 12.344442
10.789725 52.284939 11.715026
10.811862 52.291916 11.104794
10.822928 52.288303 10.49373
10.880305 52.329102 9.8909864
10.826139 52.263027 9.2723751
10.818285 52.241371 8.6623535
10.864099 52.271137 8.0599909
10.877302 52.269688 7.4541492
10.800161 52.181789 6.8405509
10.841683 52.207485 6.2393131
10.713237 52.55751 29.956167
10.727925 52.491745 26.49785
10.685799 52.31353 20.508102
10.827455 52.434696 19.912777
10.737736 52.304249 17.96007
10.78593 52.33585 17.340006
10.85835 52.390709 16.728373
10.841926 52.36042 16.092684
10.82127 52.326138 15.458674
10.853228 52.342327 14.840782
10.776866 52.240486 13.577009
10.832335 52.279308 12.969747
10.862494 52.293926 12.357821
10.852937 52.270569 11.739321
10.817863 52.222858 11.118154
10.814615 52.205627 10.504702
10.80023 52.177788 9.8910694
10.832234 52.194313 9.2857313
10.838794 52.186546 8.6775723
10.812644 52.147564 8.0665751
10.738111 52.401901 25.145864
10.744188 52.39212 24.477316
10.766271 52.397789 23.819508
10.756214 52.3727 23.151451
10.726089 52.298023 21.170589
10.80234 52.355976 20.549335
10.846561 52.383286 19.917944
10.781922 52.2915 18.61054
10.84152 52.333694 17.991438
10.826513 52.30455 17.350922
10.785988 52.251072 16.705986
10.840315 52.288357 16.090933
10.798375 52.233662 15.451361
10.844606 52.263283 14.837408
10.872633 52.275543 14.2201
10.796754 52.188622 13.580487
10.866669 52.240955 12.976134
10.818229 52.180351 12.347875
10.815812 52.163723 11.731348
10.838107 52.1707 11.120948
10.8493 52.167118 10.509713
10.856567 52.159821 9.8990583
10.881521 52.169403 9.2920942
10.816095 52.092915 8.674077
10.826018 52.088238 8.0676641
10.839294 52.086773 7.4624338
10.819808 52.054142 6.8548074
10.747552 52.414104 27.858025
10.799939 52.447956 27.195595
10.713341 52.332516 25.789486
10.724659 52.295486 23.781677
10.762898 52.316307 23.134499
10.819283 52.338924 21.8402
10.802256 52.291645 20.529833
10.804525 52.278431 19.883656
10.858594 52.314758 19.258146
10.735782 52.167107 17.938948
10.890187 52.299339 17.351112
10.878091 52.272732 16.713724
10.81206 52.194767 16.064196
10.862458 52.227879 15.449529
10.830548 52.182583 14.81513
10.887149 52.221672 14.204916
10.824021 52.132034 12.948493
10.88299 52.17347 12.342629
10.844802 52.122475 11.718596
10.874377 52.135998 11.109213
10.828095 52.077412 10.488101
10.849783 52.083492 9.8800068
10.896425 52.113308 9.276269
10.838176 52.043488 8.6591253
10.833712 52.024803 8.0508528
10.83981 52.016174 7.4448676
10.856515 52.017635 6.840694
10.833165 51.981102 6.2337723
10.75833 52.442093 30.65167
10.779107 52.309475 24.456886
10.87055 52.380383 23.828535
10.834424 52.24921 19.877892
10.839549 52.238266 19.235302
10.847386 52.229973 18.596434
10.829753 52.197495 17.952202
10.864375 52.214828 17.326916
10.859432 52.194565 16.691933
10.892881 52.210876 16.070196
10.843967 52.148922 15.428273
10.862029 52.150707 14.806705
10.826022 52.10117 14.173942
10.8645 52.122448 13.561025
10.85603 52.099174 12.939064
10.87219 52.099331 12.324151
10.819692 52.03437 11.697586
10.885378 52.081593 11.09493
10.84638 52.029545 10.474944
10.853817 52.021572 9.8644733
10.835662 51.98938 9.251585
10.835226 51.974014 8.642684
10.895992 52.016644 8.0420895
10.858831 51.966545 7.4308825
10.853959 51.947052 6.8245335
10.726921 52.308132 28.528122
10.749496 52.277416 26.473217
10.776865 52.269222 25.130192
10.824842 52.297951 24.479618
10.806178 52.263264 23.803032
10.83126 52.270344 23.149065
10.872715 52.293087 22.504778
10.85406 52.258698 21.839466
10.768589 52.111805 19.212746
10.84 52.163441 18.595482
10.801346 52.110588 17.944677
10.817196 52.093567 16.681004
10.850827 52.109528 16.059786
10.816252 52.060852 15.422141
10.870206 52.096176 14.80989
10.827237 52.039677 14.175338
10.830167 52.026737 13.554319
10.886424 52.064346 12.946614
10.764217 51.917465 11.688105
10.851744 51.98476 11.089976
10.820085 51.93932 10.471618
10.842159 51.94474 9.8637056
10.860333 51.946495 9.2560778
10.90356 51.971939 8.6524973
10.827044 51.884289 8.035121
10.756248 51.786831 6.8166423
10.708126 52.209236 27.844685
10.802047 52.281067 27.203053
10.775441 52.238277 26.505009
10.761494 52.139324 23.138653
10.851702 52.20813 22.514917
10.847108 52.186996 21.85531
10.79198 52.084934 19.882931
10.797427 52.073677 19.240858
10.752837 51.998829 17.947664
10.85872 52.082886 17.344717
10.766993 51.963863 16.054745
10.8751 52.05011 15.45575
10.87221 52.031403 14.828462
10.858006 52.00206 14.200735
10.861157 51.989182 13.579373
10.917701 52.026775 12.971343
10.848049 51.945232 12.338331
10.903833 51.982174 11.732576
10.833118 51.899765 11.104702
10.852122 51.902065 10.494937
10.896121 51.927963 9.8900023
10.834914 51.854698 9.270565
10.849349 51.852779 8.66362
10.888901 51.874546 8.0604315
10.844762 51.817501 7.4486318
10.847508 51.804649 6.8432183
10.897267 51.83606 6.2424102
10.778328 52.157196 25.838009
10.736588 52.066696 23.803888
10.747509 52.043594 22.48481
10.811764 52.02224 19.257748
10.869471 52.060566 18.635395
10.802181 51.964806 17.339703
10.847305 51.991413 16.719868
10.809936 51.940212 16.078634
10.868239 51.979343 15.465963
10.829541 51.927025 14.829768
10.746511 51.817318 13.565443
10.753864 51.761997 11.102678
10.859563 51.845982 10.508194
10.867419 51.837917 9.8976431
10.84234 51.79892 9.283638
10.842283 51.783485 8.6747379
10.896395 51.818977 8.0733366
10.732213 52.153336 29.964649
10.806704 52.206306 29.301479
10.750351 52.083565 26.505615
10.835312 52.146896 25.865589
10.76406 52.045708 24.484446
10.804931 52.034382 22.509052
10.790744 51.98814 21.19286
10.811972 51.991871 20.550434
10.857038 52.01815 19.91906
10.855513 52.000557 19.273825
10.849597 51.978897 18.630171
10.839311 51.953201 17.988153
10.860228 51.956963 17.358524
10.782416 51.852043 16.072454
10.765987 51.805191 14.815282
10.916588 51.931179 14.228211
10.782052 51.773609 12.955871
10.820133 51.793915 12.346278
10.832616 51.790203 11.732676
10.85557 51.796352 11.122291
10.88906 51.812416 10.514654
10.853406 51.763638 9.89711
10.835475 51.731533 9.284297
10.886197 51.763828 8.6820202
10.845836 51.710766 8.0690851
10.770508 52.057358 26.49461
10.763571 51.999161 24.463522
10.811216 51.959946 21.179897
10.818419 51.950161 20.532095
10.870584 51.982761 19.903101
10.792261 51.87635 18.590818
10.852855 51.917061 17.971714
10.895158 51.940613 17.348326
10.833482 51.866539 16.696592
10.831645 51.848755 16.06538
10.825589 51.827076 15.435509
10.887068 51.868828 14.824979
10.844 51.812531 14.190247
10.883036 51.833302 13.577173
10.882048 51.816582 12.956583
10.86976 51.789322 12.33562
10.853382 51.758286 11.715957
10.847409 51.737041 11.100199
10.866406 51.73922 10.490259
10.852433 51.710567 9.8763103
10.819928 51.664623 9.2614765
10.84158 51.66938 8.6556349
10.859338 51.670513 8.0499973
10.844065 51.640793 7.4415817
10.854021 51.634678 6.8368392
10.889278 51.65221 6.2347722
10.724453 52.083023 29.900377
10.846605 52.179604 29.262543
10.771068 52.071186 27.828981
10.750161 51.97876 25.0888
10.738173 51.931805 23.744246
10.751304 51.891418 21.769251
10.78424 51.887669 20.478304
10.843551 51.926136 19.852062
10.806636 51.806477 16.646782
10.784495 51.752235 15.382438
10.831705 51.779789 14.768693
10.76382 51.650204 12.271583
10.834226 51.699631 11.669427
10.811692 51.629642 9.8269577
10.866472 51.664543 9.2247095
10.859167 51.64151 8.6145267
10.949923 51.70998 8.0169783
10.86187 51.611694 7.3999176
10.87924 51.611759 6.7955542
10.907341 51.621834 6.1925168
10.771344 52.114845 29.875614
10.786024 51.937893 23.048567
10.835029 51.965443 22.407484
10.814468 51.909546 21.087757
10.850208 51.924889 20.45001
10.853358 51.90976 19.803202
10.775356 51.800819 18.491268
10.886176 51.886734 17.887676
10.821898 51.80883 17.231846
10.88891 51.853832 16.617748
10.887455 51.83485 15.985802
10.888943 51.818687 15.35707
10.857476 51.771801 14.722425
10.864947 51.76136 14.099936
10.853876 51.733665 13.475204
10.860333 51.722385 12.856432
10.877195 51.720863 12.24145
10.904534 51.729149 11.629791
10.862597 51.67289 11.007046
10.874654 51.667011 10.395669
10.904558 51.677792 9.7881613
10.872293 51.630703 9.1727114
10.887017 51.627407 8.5652533
10.883227 51.606911 7.956512
10.92661 51.630322 7.3537731
10.90037 51.588997 6.7447052
10.75188 52.014103 28.47142
10.829391 51.952297 23.739506
10.820346 51.92506 23.070612
10.883658 51.965687 22.434645
10.758442 51.793137 20.424133
10.881857 51.890274 19.820286
10.909174 51.897598 19.184122
10.836924 51.793953 17.879164
10.858324 51.795986 17.249372
10.918459 51.834225 16.632732
10.881339 51.781773 15.990579
10.890136 51.772232 15.363722
10.930748 51.7924 14.746846
10.844754 51.694645 14.101322
10.884322 51.713951 13.488061
10.898196 51.709366 12.870389
10.85731 51.653862 12.243368
10.892031 51.668774 11.633245
10.864688 51.625992 11.01312
10.949613 51.687641 10.413478
10.85598 51.583344 9.7864113
10.918511 51.624214 9.1845865
10.882344 51.573429 8.5700788
10.856759 51.532528 7.958837
10.849118 51.508324 7.3511367
10.888751 51.528 6.7488832
10.902565 51.523739 6.1445618
10.817265 51.42762 5.5341406
10.753569 51.867199 25.765539
10.807926 51.844738 23.107357
10.878276 51.892368 22.474318
10.816464 51.781025 20.486677
10.862189 51.805965 19.85495
10.932096 51.8535 19.23329
10.831299 51.724567 17.918692
10.841219 51.699116 16.651815
10.918757 51.754017 16.04187
10.87727 51.698231 15.401355
10.917887 51.718872 14.784581
10.947248 51.72908 14.166344
10.842415 51.614666 13.519425
10.870704 51.623997 12.905247
10.844218 51.582516 12.281331
10.937036 51.65181 11.682188
10.88789 51.589397 11.057601
10.863708 51.550209 10.439856
10.88648 51.554607 9.8312645
10.898014 51.548611 9.2219439
10.883681 51.518681 8.6103468
10.814124 51.792774 23.820047
10.895868 51.851715 23.188873
10.945305 51.880611 22.546341
10.805182 51.716194 21.17848
10.848058 51.739239 20.543247
10.915029 51.784744 19.918552
10.801349 51.645771 18.593006
10.905402 51.725906 17.986847
10.840918 51.649548 17.330444
10.849186 51.624496 16.067852
10.922568 51.6763 15.45818
10.891018 51.630814 14.822848
10.92743 51.648399 14.206586
10.923618 51.628746 13.582484
10.93016 51.618736 12.962659
10.976171 51.645321 12.352454
10.909181 51.567322 11.721667
10.998095 51.633671 11.121599
10.922848 51.548153 10.494074
10.909072 51.519566 9.8791685
10.92779 51.521057 9.2705116
10.891377 51.471626 8.6556492
10.938759 51.499657 8.0525351
10.930995 51.476761 7.4436584
10.941273 51.470551 6.837615
10.890366 51.840145 25.216314
10.879859 51.68119 19.280569
10.870784 51.624523 17.358948
10.938034 51.670853 16.744101
10.887502 51.592342 15.468433
10.935177 51.620678 14.853224
10.957129 51.625252 14.232937
10.91703 51.572498 13.600256
10.937973 51.576233 12.983507
10.918533 51.542694 12.360039
10.945889 51.552429 11.747622
10.932821 51.524872 11.129101
10.952154 51.527264 10.517782
10.938292 51.499054 9.9024305
10.956952 51.500885 9.2933378
10.913106 51.445103 8.6770849
10.967774 51.480183 8.074481
10.915923 51.417107 7.4605865
11.006812 51.485569 6.8620496
10.855789 51.762089 24.524372
10.856263 51.72818 23.189091
10.926837 51.776588 22.555265
10.859103 51.696854 21.869638
10.909529 51.676651 19.286013
10.865312 51.602764 17.989073
10.86795 51.572521 16.718742
10.967249 51.648018 16.11417
10.925589 51.59333 15.472733
10.951826 51.601414 14.851524
10.916036 51.552292 14.217195
10.926722 51.546127 13.596258
10.9333 51.536217 12.976173
10.957603 51.54269 12.361353
10.934175 51.505207 11.738759
10.928494 51.484131 11.121528
10.984476 51.519894 10.5161
10.909077 51.418976 9.2793913
10.967831 51.457348 8.6766701
10.971384 51.444942 8.0673475
10.992998 51.449169 7.4609008
10.981313 51.422802 6.8518796
10.8529 51.760765 25.180252
10.930321 51.814445 24.540302
10.947379 51.812263 23.876631
10.917645 51.766853 23.197092
10.925297 51.756165 22.537006
10.878907 51.695572 21.859444
10.962185 51.755028 21.235016
10.92776 51.705696 20.56933
10.86626 51.614155 19.252636
10.886704 51.598667 17.976423
10.944274 51.634716 17.356218
10.881362 51.542725 16.070736
10.962465 51.600616 15.462164
10.988992 51.608227 14.840357
10.967921 51.572033 14.208875
11.01519 51.598839 13.595288
11.007565 51.575138 12.970934
10.987162 51.523163 11.72738
10.981732 51.50164 11.109386
11.067259 51.56377 10.507932
10.987941 51.474415 9.8810186
10.999666 51.468777 9.2700481
10.978078 51.432575 8.6558552
11.033209 51.466843 8.0521917
11.025687 51.443611 7.4418497
11.028898 51.43026 6.8336649
10.991375 51.379578 6.2230806
10.852624 51.75975 25.849586
10.879975 51.747898 24.509098
10.946109 51.79063 23.866695
10.937579 51.764408 23.195692
10.906269 51.699131 21.859966
10.879679 51.550308 17.325472
10.903274 51.537224 16.064795
10.948473 51.561508 15.446385
10.881593 51.465561 14.176042
10.994265 51.552002 13.577899
10.953149 51.480095 12.326286
10.951686 51.427937 10.475543
11.01877 51.472607 9.8719263
11.015982 51.453217 9.2584085
11.038538 51.457088 8.649456
11.01306 51.416973 8.0356541
10.998264 51.386684 7.4246545
11.060434 51.426899 6.8219957
11.030366 51.382683 6.2114897
10.90803 51.797779 26.576027
10.869005 51.72419 25.195484
10.946894 51.777512 24.554953
10.95028 51.762135 23.884747
10.882531 51.644806 21.866341
10.921603 51.626842 19.921686
10.913455 51.566147 17.987499
10.931604 51.547749 16.719097
10.988406 51.582493 16.10141
10.973875 51.534439 14.837276
11.003783 51.544624 14.217591
11.036872 51.557766 13.599988
11.036766 51.540501 12.976576
10.938506 51.399303 11.100212
10.974355 51.398273 9.8766212
11.008305 51.41246 9.2685347
11.089742 51.470097 8.6669416
11.049669 51.416615 8.0506649
11.115944 51.460388 7.4473739
11.075224 51.406391 6.8337879
10.877776 51.751945 27.264654
10.882474 51.699833 25.216324
10.946563 51.740299 24.569344
10.978125 51.750874 23.910894
10.941721 51.698967 23.227545
10.939121 51.660114 21.901886
10.973433 51.673584 21.257685
10.935546 51.585052 19.292437
10.964184 51.575958 18.015745
10.993591 51.585354 17.385551
10.997131 51.571079 16.749916
11.032765 51.551571 14.863476
11.0452 51.528473 13.613111
11.037882 51.504616 12.987901
10.98904 51.391857 10.503595
11.034427 51.416401 9.8959045
10.967003 51.705345 23.907654
10.963586 51.646751 21.912306
11.047822 51.705769 21.286207
11.054264 51.621445 18.043655
11.038982 51.536697 15.494396
11.044333 51.524071 14.865671
11.052741 51.514294 14.239748
11.020552 51.450153 12.983185
11.039681 51.415905 11.127004
11.140604 51.49078 10.526643
11.120173 51.455017 9.9071045
11.161825 51.475876 9.2980471
11.125919 51.426102 8.6794834
11.137501 51.419624 8.0684185
11.130352 51.396118 7.4562602
11.185625 51.42944 6.8509498
11.229615 51.452488 6.2443519
10.921812 51.647072 23.872179
11.033576 51.730431 23.249969
10.961043 51.625896 21.894236
11.025703 51.591717 18.659134
11.021435 51.532784 16.737631
11.10782 51.593475 16.126253
11.037362 51.474953 14.216343
11.04917 51.449898 12.969023
11.17149 51.507927 11.129162
11.199355 51.51556 10.515156
11.20115 51.499504 9.898077
11.167833 51.398857 7.4382377
11.149191 51.346954 6.2158136
10.966272 51.619385 21.860689
11.031449 51.582184 18.624361
11.012965 51.508286 16.698065
11.077581 51.455002 12.936668
11.140092 51.438156 10.466492
11.102763 51.367695 9.229167
11.162767 51.403919 8.6230106
11.211478 51.429897 8.0153542
11.21932 51.418823 7.4035134
11.178808 51.363949 6.7881784
11.30442 51.459625 6.1876078
11.056639 51.655704 21.20228
11.069093 51.529842 16.679451
11.213782 51.642231 16.082739
11.143815 51.521118 14.168398
11.214096 51.565945 13.556415
11.16777 51.373596 8.5879593
11.235472 51.379169 6.7572241
11.243083 51.583317 14.195704
11.225893 51.548615 13.563039
11.219079 51.523392 12.934963
11.281398 51.560863 12.322501
11.254341 51.498512 11.072336
11.276988 51.481358 9.8372345
11.282215 51.467319 9.2206068
11.169985 51.309898 7.3645883
11.307098 51.415089 6.7652946
10.981321 51.773075 29.411196
11.062921 51.562935 19.96339
11.150431 51.526546 16.129322
11.218103 51.49324 12.991787
11.350658 51.482647 8.6679506
11.325871 51.441822 8.0491581
11.271462 51.355968 6.8161588
11.316058 51.377781 6.207634
11.273297 51.619087 16.875475
11.27379 51.601009 16.236521
11.269937 51.579071 15.598891
11.261747 51.51672 13.700975
11.274179 51.491608 12.44988
11.303559 51.500027 11.83119
11.321497 51.498154 11.211522
11.320339 51.407482 8.1186171
11.288407 51.343159 6.8871751
11.088656 51.675262 26.118673
11.247924 51.525852 15.645445
11.227131 51.471806 14.374312
11.342177 51.557968 13.770315
11.237232 51.428421 12.493424
11.372901 51.515804 11.27086
11.396584 51.467953 8.7934532
11.466534 51.462112 6.337018
11.255546 51.63192 20.1838
11.364581 51.712521 19.566761
11.316987 51.598866 16.963383
11.291828 51.541298 15.679012
11.335978 51.460739 11.284803
11.394114 51.495968 10.672172
11.470443 51.547539 10.062415
11.42439 51.48925 9.4352446
11.252577 51.589554 18.848093
11.365687 51.528782 13.130954
11.328634 51.38982 9.381937
11.419216 51.453392 8.7750044
11.335905 51.344002 7.5311699
11.429652 51.393021 6.3093371
11.247631 51.62608 20.139034
11.302711 51.619148 18.20207
11.343596 51.581638 15.64349
11.29397 51.500439 14.36094
11.352329 51.408161 9.3669519
11.381249 51.398281 8.1335306
11.5012 51.48756 7.5288014
11.153916 51.632473 23.427149
11.420738 51.465561 9.3743954
11.437251 51.462471 8.7563705
11.42739 51.435879 8.136178
11.495294 51.478664 7.5252604
11.499651 51.464794 6.9080467
11.354801 51.579319 15.651923
11.33257 51.488834 13.110988
11.413383 51.508591 11.244052
11.355181 51.421947 9.9877462
11.464568 51.502178 9.3817844
11.401484 51.622948 15.633962
11.342791 51.536694 14.345781
11.389731 51.494781 11.206119
11.369464 51.377613 7.4750695
11.439321 51.406837 6.2470155
11.27355 51.677299 20.766443
11.388324 51.655697 16.244884
11.340693 51.458221 10.543013
11.40906 51.502026 9.9297934
11.406503 51.482792 9.3067455
11.374096 51.420197 8.0615711
11.211327 51.638115 20.047878
11.203486 51.540039 16.796383
11.256618 51.515827 14.256148
11.288031 51.455559 11.114459
11.319672 51.469055 9.8125134
11.316922 51.431526 8.5685921
11.40258 51.489986 7.9580483
11.079421 51.672077 23.906958
11.182454 51.543362 16.053177
11.251813 51.516182 12.891628
11.269218 51.478931 11.010094
11.248994 51.40868 9.1365252
11.338291 51.470463 8.5265656
11.334115 51.449409 7.9055281
11.358279 51.436184 6.6696625
11.224494 51.633987 17.336691
11.221322 51.473698 11.609692
11.341391 51.56295 11.003272
11.346073 51.549881 10.377654
11.314691 51.436539 7.2626872
11.277765 51.369892 6.023479
11.11419 51.647446 20.584677
11.082444 51.5131 16.667072
11.14808 51.467758 12.864764
11.290965 51.577389 12.262493
11.303933 51.5718 11.635324
11.228451 51.453949 9.7451715
11.239076 51.429585 8.5023518
11.279279 51.448311 7.8863306
11.322917 51.470078 7.2707686
10.974888 51.597103 21.891148
11.123787 51.569645 16.061357
11.082243 51.463451 13.50441
11.148354 51.470642 11.62792
11.261092 51.553448 11.020029
11.258366 51.533985 10.393079
11.191894 51.458141 9.758503
11.232919 51.477489 9.1410446
11.251763 51.426613 6.6609554
11.220055 51.381786 6.0404353
10.967841 51.693928 23.920616
11.053419 51.642029 19.291592
11.036016 51.467514 13.501302
11.104166 51.49324 12.253432
11.088878 51.445194 10.995455
11.196449 51.437683 7.2751403
11.221254 51.442574 6.6581907
10.909246 51.772247 26.632395
10.984064 51.819782 25.9741
10.973969 51.715908 22.5667
10.904042 51.616413 21.206547
10.965914 51.616417 19.25182
11.074994 51.658997 17.332952
11.065131 51.490524 11.599284
11.093378 51.480621 10.351209
11.023035 51.383667 9.0947313
11.171843 51.497902 8.4916687
11.167416 51.476673 7.8697724
11.128966 51.42543 7.2457881
10.79137 51.710758 23.837114
10.918767 51.691483 19.223394
11.022584 51.765175 18.602011
10.918219 51.635384 17.270796
10.905179 51.587112 15.979151
10.987585 51.642006 15.359433
11.043818 51.673691 14.733806
11.025583 51.621277 13.457072
11.009967 51.589405 12.82075
10.990039 51.553783 12.185861
11.010346 51.553844 11.560363
11.008715 51.516697 10.306324
11.083557 51.565094 9.6923332
10.982895 51.458332 9.0550756
11.012242 51.466564 8.4368658
11.030051 51.464615 7.8179021
11.051258 51.465683 7.1999145
10.99163 51.377827 5.9579659
10.873182 51.883698 25.271759
10.93171 51.916229 24.611225
10.928561 51.893814 23.927814
10.874187 51.768051 21.217512
10.976803 51.840343 20.590004
10.871745 51.708969 19.236582
11.004849 51.808529 18.6241
10.995383 51.781361 17.968639
10.873679 51.617527 15.995335
10.894849 51.599548 14.721322
10.99118 51.666679 14.106626
10.846176 51.50174 12.808379
10.981879 51.603825 12.204219
10.965282 51.571037 11.571524
10.971395 51.540409 10.318287
11.0315 51.575603 9.70193
10.908216 51.430832 8.4400778
11.02324 51.514606 7.832027
11.044622 51.515652 7.2134352
10.839763 51.934944 25.973351
10.846493 51.921059 25.28635
10.869591 51.921894 24.6103
10.856421 51.832146 21.899727
10.83532 51.77499 20.561398
10.867929 51.76601 19.254452
10.838679 51.702354 17.939413
10.904897 51.742485 17.309774
10.833899 51.642242 16.000193
10.872446 51.65797 15.368873
10.870433 51.619404 14.092403
10.940521 51.663227 13.47258
10.984329 51.683773 12.847763
10.927639 51.615341 12.204721
10.970453 51.63509 11.582497
10.957133 51.605179 10.951616
10.939578 51.571579 10.321972
10.932698 51.547474 9.6957331
10.958927 51.552677 9.075345
10.95867 51.5345 8.4524698
10.984168 51.539101 7.8335271
10.983161 51.520317 7.2125397
10.868147 51.831932 19.239376
10.935844 51.873146 18.605131
10.868388 51.775448 17.282213
10.966891 51.844189 16.662172
10.877842 51.746429 15.993269
10.894341 51.74247 15.355237
10.803707 51.625084 14.056978
10.880219 51.656166 12.805017
10.828751 51.574055 11.534236
10.882035 51.603031 10.915377
10.91637 51.615253 10.293914
10.860408 51.511555 8.4143085
10.90064 51.529095 7.7973804
10.914394 51.523266 7.1780763
10.961484 51.546875 6.5621872
10.914692 51.487652 5.939394
10.800862 52.028133 25.21085
10.909084 52.104362 24.570112
10.854961 52.015541 23.184847
10.827929 51.892132 19.833269
10.843752 51.867168 18.524483
10.914177 51.910389 17.892704
10.929201 51.904404 17.246201
10.834917 51.72517 14.007693
10.86778 51.735416 13.378995
10.896447 51.741982 12.750648
10.883862 51.71204 12.115747
10.941219 51.744095 11.495213
10.857669 51.632797 10.224802
10.809178 51.552788 8.9687014
10.972713 51.678822 8.3653708
10.930689 51.623184 7.7377815
10.929338 51.603519 7.1160402
10.93136 51.586868 6.4955773
10.819068 51.93042 18.462177
10.819687 51.870796 16.511345
10.921043 51.940945 15.892404
10.871287 51.8769 15.236182
10.824512 51.795921 13.945865
10.916445 51.857838 13.328974
10.858459 51.767323 12.049355
10.893463 51.77887 11.424449
10.909465 51.773617 10.797287
10.861916 51.692837 9.5353661
10.917556 51.722771 8.9174347
10.872114 51.663345 8.2877951
10.912107 51.679482 7.6692395
10.948046 51.692039 7.0504384
10.912581 51.641563 6.4260397
10.834146 52.242188 25.149641
10.81843 52.184486 23.770567
10.814045 52.094746 21.070091
10.8339 52.070187 19.748022
10.84781 52.061596 19.092617
10.879023 52.068493 18.445164
10.836258 51.968288 16.478191
10.870612 51.937389 14.555074
10.87829 51.92387 13.917177
10.838457 51.827927 12.002818
10.895722 51.858593 11.38124
10.926607 51.865898 10.755704
10.849183 51.777344 10.114787
10.800558 51.694508 8.8561172
10.896823 51.759796 8.2433681
10.845668 51.674976 6.9923358
10.914868 51.716343 6.3767219
10.819803 52.30138 25.162371
10.768543 52.211929 23.767614
10.81274 52.123394 19.753664
10.862987 52.147194 19.109324
10.923415 52.180119 18.469852
10.840924 52.085861 17.789745
10.885145 52.104504 17.150124
10.806525 51.993412 15.832459
10.783246 51.931908 14.541168
10.908854 52.023132 13.929626
10.830031 51.912716 12.638597
10.876643 51.933922 12.013286
10.837489 51.879128 11.373773
10.927752 51.939075 10.75774
10.85778 51.857105 10.117169
10.86538 51.843903 9.4903994
10.861363 51.820457 8.863348
10.868106 51.806572 8.2388802
10.908067 51.822086 7.6188192
10.899107 51.794373 6.9944487
10.751242 52.292179 25.17378
10.87365 52.380615 24.536476
10.80519 52.277718 23.140749
10.801532 52.212776 21.116823
10.78409 52.13649 19.119024
10.775974 52.069363 17.152042
10.88158 52.104046 15.237277
10.797736 51.990425 13.934037
10.803991 51.88007 10.133494
10.807008 51.844494 8.8792925
10.895549 51.903763 8.2640314
10.920355 51.906639 7.6412997
10.881266 51.853046 7.0132332
10.9128 51.861916 6.3926425
10.81352 52.182911 17.850414
10.814098 52.127411 15.898866
10.918103 52.201321 15.278806
10.900247 52.166958 14.630038
10.863204 52.115627 13.97963
10.932517 52.158806 13.354484
10.901535 52.112988 12.709814
10.781921 51.970448 11.418149
10.864082 52.025154 10.799973
10.838094 51.98402 10.165158
10.795713 51.910427 8.9028263
10.89131 51.97707 8.2877302
10.863449 51.934456 7.6588168
10.906141 51.954285 7.0380478
10.744335 52.370277 24.565634
10.804576 52.405266 23.904287
10.798717 52.307301 20.524204
10.773075 52.229916 18.52939
10.837645 52.233547 16.586559
10.857691 52.233562 15.942683
10.895429 52.249352 15.305069
10.835299 52.143017 13.363647
10.88536 52.169937 12.735412
10.794993 52.054867 11.44764
10.824958 52.064079 10.820082
10.858209 52.076225 10.193849
10.879886 52.078136 9.5666666
10.830349 52.016994 8.931282
