# .PCD v0.7 - Point Cloud Data file format
VERSION 0.7
FIELDS x y z
SIZE 4 4 4
TYPE F F F
COUNT 1 1 1
WIDTH 1059
HEIGHT 1
VIEWPOINT 0 0 0 1 0 0 0
POINTS 1059
DATA ascii
22.361729 52.034756 34.234303
22.381289 52.025955 33.630478
22.410917 51.944351 31.23904
22.678873 51.581192 17.716106
20.402861 51.565556 24.468397
19.886507 51.54882 24.803041
17.773891 51.794407 34.576935
17.852331 51.70295 31.080837
17.246714 51.731503 34.917
17.32933 51.796406 34.388481
14.635769 51.606441 34.376804
15.00736 51.269985 19.169121
15.022537 51.24255 18.282509
15.061346 51.19989 16.547922
15.219309 50.746162 4.0585918
14.200617 51.591393 34.769043
14.264781 51.642403 34.235729
13.795326 51.584373 34.581291
13.414275 51.610088 34.42136
13.219848 51.24651 22.281054
13.253911 51.26675 21.839674
12.868829 50.958889 15.592439
12.873794 50.943417 15.17906
12.893722 50.947803 14.775278
12.917144 50.956894 14.374933
12.920784 50.94001 13.967261
12.933749 50.93552 13.565818
12.96201 50.951241 13.1726
12.95279 50.917759 12.765428
12.964776 50.912262 12.368849
12.974516 50.903896 11.973023
12.976094 50.884907 11.575855
13.022903 50.925323 11.196024
13.020078 50.900711 10.800187
13.056739 50.927906 10.41851
13.094715 50.854046 8.0959654
13.106118 50.808014 6.9479918
12.482561 50.942081 15.099341
12.484684 50.923065 14.688988
12.495945 50.916386 14.285295
12.499106 50.898994 13.879894
12.511524 50.894073 13.480721
12.510047 50.870716 13.077447
12.541224 50.890995 12.689652
12.576113 50.916267 12.30437
12.567892 50.884209 11.903696
12.592609 50.89608 11.517076
12.597549 50.881714 11.124648
12.61209 50.880184 10.736986
12.618583 50.868038 10.348003
12.634763 50.86882 9.9633369
12.642906 50.858997 9.5774117
12.648929 50.846432 9.1921282
12.652835 50.831127 8.8075171
12.666561 50.828884 8.426486
12.6603 50.800243 8.0417881
12.687824 50.816353 7.6656218
12.707353 50.821907 7.2882061
12.712859 50.808975 6.9087377
12.07853 50.920277 15.0202
12.080271 50.900795 14.611856
12.093872 50.8759 13.806789
12.105849 50.870625 13.409636
12.104062 50.846832 13.008391
12.123098 50.851295 12.617863
12.15735 50.876381 12.234775
12.177915 50.883041 11.847356
12.173075 50.855499 11.451902
12.183509 50.848652 11.063731
12.191804 50.839001 10.67625
12.203824 50.834438 10.29136
12.207872 50.819214 9.9052725
12.227445 50.82494 9.5250549
12.244969 50.827961 9.1451397
12.230938 50.788643 8.7579432
12.238416 50.778294 8.3777161
12.267528 50.797016 8.0034533
12.265007 50.773354 7.6227779
12.296062 50.794739 7.2499619
12.266562 50.654881 5.3639679
11.803521 50.798401 9.8564043
11.82246 50.782936 9.0953989
11.837632 50.783062 8.7180538
11.844934 50.772522 8.3396387
11.867816 50.78323 7.965837
11.882853 50.783298 7.5908527
11.884132 50.764713 7.2138
11.895187 50.75946 6.839581
11.898363 50.743546 6.4647012
11.875912 50.692924 6.0867047
11.854516 50.623772 5.3382487
11.275655 50.856445 14.463822
11.302655 50.806889 12.878655
11.309558 50.794975 12.487268
11.342738 50.819656 12.108237
11.3625 50.82576 11.724893
11.357335 50.797352 11.333538
11.367188 50.789871 10.949464
11.374962 50.779587 10.56609
11.392166 50.782436 10.187172
11.413113 50.790524 9.8104506
11.408964 50.76395 9.4272442
11.420096 50.758587 9.0498505
11.423426 50.742496 8.6714478
11.045923 50.582352 5.6553721
11.101269 50.639103 5.2942858
28.546824 51.471252 6.6668482
28.527105 51.4744 6.4566946
28.363987 51.459061 6.6426177
28.318748 51.446026 6.4316144
28.259687 51.463928 7.0389347
28.225912 51.457909 6.828208
28.190575 51.450848 6.6181998
28.136786 51.43214 6.4076204
28.207037 51.481258 7.6556759
28.097935 51.458111 7.0199208
28.055609 51.44651 6.8093448
28.037045 51.449795 6.6018643
27.925285 51.445412 7.0081091
27.882885 51.433594 6.7985873
27.855797 51.431389 6.591423
27.744801 51.42482 7.0019593
27.710768 51.418186 6.7943878
27.675203 51.410515 6.5875387
27.624207 51.424911 7.2096047
27.583277 51.413864 7.0012884
27.549213 51.40712 6.7946706
27.50522 51.393978 6.5880442
27.537928 51.432159 7.6266336
27.460691 51.412964 7.2093229
27.444935 51.417858 7.0046759
27.410877 51.411011 6.798748
27.375305 51.40313 6.5935431
27.336899 51.411488 7.4139533
27.297464 51.401218 7.2066746
27.273264 51.400646 7.0020752
27.247557 51.399052 6.7980103
27.22035 51.396446 6.5944953
26.602425 51.244343 3.2280245
26.5828 51.246037 3.03302
26.586714 51.263203 2.8354008
26.589142 51.279434 2.6374187
26.581785 51.289257 2.4401815
27.103445 51.383911 6.9971771
27.069288 51.376793 6.7933369
27.033638 51.368649 6.5902209
26.584555 51.252682 4.2116451
26.588758 51.270004 4.0156198
26.58316 51.280914 3.8197997
26.584463 51.296379 3.6233163
26.575975 51.305424 3.4272423
26.582697 51.324509 3.2296152
26.579622 51.337166 3.0324278
26.312611 51.219307 2.2759902
27.019415 51.394989 7.4055634
26.938898 51.372711 6.995512
26.913111 51.370831 6.7934432
26.877472 51.362514 6.5911922
26.58215 51.330856 4.413631
26.587746 51.349121 4.2171159
26.575199 51.355461 4.0211015
26.240944 51.265591 2.2842262
26.879501 51.39938 7.410902
26.85677 51.399422 7.2081146
26.849251 51.409294 7.0076675
26.848614 51.423622 6.8082318
26.83816 51.431541 6.6080899
26.709208 51.36219 6.3990684
26.378109 51.275566 4.6256633
26.842995 51.421646 8.0381327
26.841478 51.43557 7.8366609
26.830154 51.443096 7.6341372
26.825668 51.455032 7.4330158
26.811369 51.460552 7.2310476
26.672606 51.428886 6.4215374
26.217283 51.259705 4.6467419
26.836555 51.4454 8.8824844
26.841091 51.463589 8.6799173
26.827553 51.470013 8.4743528
26.80419 51.470005 8.267767
26.787596 51.474335 8.0631447
26.792173 51.473866 9.318264
26.775002 51.478245 9.1098442
26.748007 51.47617 8.9002581
26.752522 51.49453 8.6978798
26.722425 51.490307 8.4894247
26.70735 51.495808 8.2846279
26.770964 51.504051 9.9661913
26.742163 51.501099 9.7520666
26.719952 51.502342 9.5407362
26.696146 51.502468 9.330081
26.670753 51.501476 9.1201181
26.706079 51.513145 10.607535
26.698534 51.524071 10.396324
26.68939 51.53389 10.185546
26.670467 51.537273 9.9730797
26.675257 51.545712 11.264018
26.648378 51.544144 11.043578
26.652256 51.562508 10.833943
26.622023 51.558571 10.614953
26.589979 51.665112 14.246944
25.072409 51.438896 9.8287153
24.945942 51.367172 9.5990267
25.667366 51.647415 15.220358
25.494732 51.632488 15.132362
25.468599 51.632252 14.888049
25.42518 51.620258 14.636933
25.292524 51.613918 14.827889
22.874619 51.160328 2.8230247
22.862146 51.179848 3.7147942
22.975967 51.255619 6.394227
22.973843 51.28529 7.3024259
22.950968 51.281803 7.1199794
22.935551 51.422333 12.070942
22.925726 51.447979 13.102862
22.884361 51.475807 13.73842
22.769436 51.465492 14.147824
22.908888 51.532642 16.276621
22.906694 51.576607 17.045374
19.258177 51.189289 11.120131
19.265902 51.212772 12.047632
19.251911 51.221577 12.996615
19.254265 51.236706 12.811046
19.230816 51.227684 13.972762
19.233305 51.243267 13.780459
19.22821 51.261158 14.802929
19.209072 51.259647 14.590095
19.202213 51.267902 14.387039
19.165689 51.252075 14.167458
19.162607 51.26313 13.970394
19.248051 51.303974 15.685987
19.208601 51.286655 15.44998
19.158264 51.274475 15.005652
19.147694 51.279934 14.796615
19.121548 51.272663 14.579472
19.10063 51.26947 14.367874
19.071012 51.259083 14.152997
19.046703 51.25285 13.943557
19.248119 51.334702 16.385017
19.067249 51.26207 15.204596
19.072012 51.28009 15.004391
19.054457 51.279922 14.791039
19.014347 51.261314 14.565264
18.986328 51.252338 14.349741
18.956573 51.241798 14.135403
18.932121 51.23542 13.926509
19.231422 51.351292 17.105961
19.044668 51.305889 15.462707
18.975891 51.264538 15.209652
18.966866 51.271427 15.000431
18.935446 51.259987 14.778355
18.909145 51.252544 14.562043
18.888063 51.249191 14.351291
18.865301 51.244324 14.141565
18.840874 51.237953 13.932893
18.917379 51.283245 15.443495
18.869116 51.258347 15.205137
18.860064 51.26516 14.996299
18.821756 51.247993 14.770026
18.816214 51.257381 14.567607
18.774324 51.236954 14.343864
18.751539 51.231972 14.134595
18.727095 51.225483 13.926378
18.82605 51.291359 15.444976
18.791538 51.277473 15.216252
18.74827 51.256248 14.984281
18.723728 51.250145 14.767575
18.70435 51.248108 14.556492
18.662462 51.227474 14.33319
18.63965 51.222317 14.124376
18.622173 51.221397 13.920867
18.73148 51.300106 15.445946
18.703863 51.291676 15.222153
18.647018 51.259109 14.981015
18.629385 51.258507 14.769172
18.582445 51.233681 14.540347
18.554401 51.224197 14.326389
18.538549 51.224606 14.122288
18.514114 51.217808 13.914826
18.594194 51.275024 15.42124
18.546099 51.249516 15.183926
18.516508 51.239021 14.96227
18.491968 51.232517 14.746455
18.472576 51.230106 14.536277
18.451508 51.226166 14.327105
18.435722 51.226452 14.123303
18.398272 51.229401 14.958291
18.380669 51.228378 14.747495
18.354506 51.220127 14.533175
18.333521 51.216015 14.324446
18.290621 51.227802 14.966993
18.266342 51.221024 14.75189
18.247192 51.218349 14.542439
18.233263 51.219879 14.338432
18.203781 51.239586 14.993221
18.172947 51.22718 14.773555
18.147173 51.21883 14.559704
18.126554 51.214634 14.351463
18.104284 51.208916 14.14425
18.087301 51.207485 13.942379
18.457764 51.356514 17.848207
18.086584 51.219559 14.997837
18.356781 51.348228 17.866932
18.241446 51.331196 17.891825
17.939455 51.339878 17.805981
15.543015 50.72427 3.240783
15.532882 50.721394 3.0956542
15.536369 50.731049 2.9476116
15.531592 50.733124 2.8007801
15.525845 50.734322 2.6537998
15.533617 50.747986 2.5032513
15.525894 50.747406 2.3558376
15.545004 50.758106 4.1530342
15.533562 50.753712 4.0086918
15.535866 50.761932 3.8626254
15.53721 50.769291 3.7163272
15.530272 50.769051 3.5708969
15.454094 50.754704 2.2543232
15.60155 50.873993 8.3566885
15.610153 50.887482 8.208477
15.595881 50.88015 8.0554953
15.602531 50.891842 7.9074669
15.58626 50.882648 7.755209
15.583638 50.885868 7.6060944
15.59471 50.901562 7.4596162
15.590159 50.903004 7.3106923
15.591985 50.910252 7.1630244
15.600204 50.923332 7.0163641
15.592769 50.922112 6.8678126
15.591731 50.926727 6.7202916
15.58974 50.930466 6.5728421
15.588954 50.910103 9.3076725
15.589413 50.915974 9.1540813
15.574384 50.907738 8.9965124
15.580017 50.918278 8.8455667
15.591911 50.934505 8.6966295
15.588305 50.936607 8.5439224
15.583686 50.937767 8.391489
15.585345 50.944633 8.2410135
15.578725 50.943935 8.0890779
15.585709 50.955635 7.940454
15.132926 50.741634 2.2351761
15.580284 50.954922 10.444146
15.581412 50.961159 10.285398
15.574335 50.959904 10.124244
15.58042 50.970604 9.9688034
15.564004 50.960796 9.8059216
15.567959 50.969513 9.6510601
15.563695 50.970722 9.4940176
15.55837 50.97094 9.3373394
15.551989 50.970169 9.1810408
15.529871 50.984028 11.113224
15.521747 50.981453 10.946681
15.519485 50.984192 10.783749
15.516088 50.98587 10.621236
15.511563 50.986492 10.459159
15.506259 50.991077 10.139072
15.489431 50.985043 9.8180256
15.479364 50.980476 9.6582546
15.475373 50.981438 9.5013723
15.457021 50.973812 9.1865177
15.41174 50.976521 10.941219
15.416703 50.985355 10.781738
15.40648 50.98027 10.61659
15.409222 50.98703 10.4578
15.396717 50.979805 10.293704
15.396723 50.988205 9.9779263
15.380859 50.977825 9.8154345
15.374389 50.980164 9.5019798
15.356504 50.971947 9.1877832
15.328174 50.991676 11.114593
15.299534 50.96925 10.939211
15.318707 50.990704 10.786243
15.3017 50.978905 10.618368
15.299444 50.984425 10.298933
15.29313 50.982384 10.138422
15.285708 50.979305 9.9783897
15.284303 50.981743 9.8213959
15.274702 50.976616 9.6622791
15.264013 50.97047 9.5036821
15.26656 50.976494 9.3502054
15.253738 50.968346 9.192522
15.208299 50.974072 11.118742
15.200856 50.970715 10.953241
15.213245 50.985611 10.797491
15.210545 50.986584 10.635875
15.206722 50.986507 10.474692
15.19473 50.97887 10.31115
15.181594 50.970158 10.148237
15.18033 50.975758 9.8345957
15.170987 50.970486 9.6758003
15.167689 50.970783 9.5199137
15.156193 50.96349 9.3620872
15.151505 50.965775 9.0544901
15.088597 50.953869 10.973855
15.108191 50.975208 10.82163
15.105761 50.976173 10.660342
15.095187 50.969585 10.496575
15.083466 50.961918 10.333422
15.091774 50.972767 10.179129
15.084901 50.969547 10.019656
15.076931 50.965298 9.860673
15.074976 50.966602 9.7046852
15.057727 50.953724 9.5442324
15.060773 50.959633 9.3914461
15.048507 50.951336 9.2343922
15.042336 50.948673 9.0800486
15.376555 51.206596 16.770243
14.979786 50.942547 11.000964
15.006586 50.970402 10.852227
14.997466 50.964924 10.688169
14.980184 50.951859 10.521778
14.975771 50.95071 10.361859
14.977298 50.955063 10.205164
14.977758 50.958412 10.048775
14.970083 50.954193 9.8901091
14.961319 50.948944 9.731945
14.95858 50.94928 9.5767221
14.947674 50.942009 9.4195185
14.957101 50.953629 9.2696285
14.9441 50.944386 9.1132679
14.871792 50.935169 11.020235
14.891844 50.956516 10.868776
14.89694 50.963932 10.711175
14.886971 50.95731 10.547942
14.889881 50.962662 10.391045
14.877665 50.953915 10.228879
14.871363 50.950657 10.070048
14.86397 50.946373 9.9117031
14.869646 50.954254 9.7589111
14.853025 50.941338 9.5989685
14.849516 50.940632 9.444438
14.837845 50.932304 9.2880058
14.832248 50.929626 9.1343164
14.779249 50.947758 10.874661
14.78457 50.954956 10.71748
14.781837 50.954617 10.557605
14.777998 50.953232 10.398171
14.759029 50.937687 10.233618
14.759993 50.940765 10.077985
14.752853 50.936256 9.9200487
14.744632 50.930725 9.7626123
14.742413 50.930794 9.6081409
14.75334 50.943161 9.4587622
14.734856 50.92799 9.3002853
14.736649 50.931789 9.1491241
14.765982 50.961369 9.0066376
15.013975 51.208401 17.419233
14.668884 50.950016 10.879355
14.667541 50.950401 10.719463
14.665089 50.949734 10.559999
14.661534 50.948025 10.400977
14.649882 50.938705 10.239616
14.651138 50.941494 10.084318
14.658375 50.94989 9.9319639
14.643447 50.937466 9.7721424
14.641542 50.937267 9.6179199
14.631519 50.929432 9.4616814
14.620433 50.920589 9.3059826
14.622506 50.924103 9.1552467
14.644945 50.946754 9.0110931
14.551039 50.943806 10.886045
14.556957 50.950409 10.72962
14.540963 50.936356 10.564539
14.537727 50.934319 10.406012
14.547367 50.944416 10.253551
14.52798 50.927143 10.090341
14.535516 50.935246 9.9384995
14.535005 50.93576 9.7842674
14.526402 50.928638 9.6279106
14.509667 50.913845 9.469696
14.506003 50.911369 9.3167887
14.501312 50.907925 9.1642656
14.524032 50.930328 9.0206537
14.505621 50.992043 13.818477
14.434481 50.93346 10.900696
14.447639 50.9464 10.747767
14.438975 50.938683 10.585973
14.422225 50.923313 10.421883
14.439153 50.939812 10.27268
14.427155 50.928932 10.112501
14.442054 50.943508 9.9635801
14.420877 50.923939 9.8018131
14.412638 50.916611 9.6458607
14.417434 50.921619 9.4952297
14.414166 50.918995 9.3424854
14.409874 50.915398 9.1901217
14.411655 50.917545 9.0402975
14.388231 50.986084 13.836036
14.323429 50.925159 10.923559
14.330012 50.931454 10.767909
14.328617 50.930164 10.609514
14.326126 50.927841 10.451557
14.322544 50.924477 10.294053
14.317877 50.920086 10.137017
14.31213 50.914669 9.9804621
14.31932 50.921535 9.8295727
14.304442 50.907448 9.6713533
14.302545 50.905685 9.5186577
14.29962 50.90295 9.3663292
14.295673 50.899242 9.2143812
14.297791 50.901291 9.0649872
14.207792 50.907875 10.944021
14.221541 50.920647 10.791908
14.220467 50.9193 10.633842
14.218298 50.916916 10.476213
14.21504 50.913494 10.319035
14.2107 50.909042 10.162322
14.205282 50.903568 10.006089
14.212775 50.910393 9.8555555
14.198244 50.89624 9.6976366
14.203691 50.901119 9.5477085
14.208144 50.905056 9.3979769
14.190447 50.887894 9.2416601
14.185812 50.883179 9.0904331
14.100965 50.896473 10.96805
14.121861 50.915771 10.819427
14.128003 50.920971 10.664647
14.112372 50.905369 10.501266
14.116355 50.908516 10.347288
14.119292 50.910664 10.193605
14.114229 50.905174 10.037526
14.115071 50.905331 9.8845606
14.107888 50.897823 9.729393
14.106656 50.896004 9.5771971
14.097375 50.886497 9.4229965
14.101126 50.889446 9.2739077
14.096838 50.884716 9.122839
14.13395 50.919537 8.984848
11.638728 50.634007 5.5120025
11.633558 50.702232 5.6234951
23.103292 52.021355 32.395012
23.108118 52.007626 31.799238
22.936169 51.953197 30.546148
22.942665 51.907345 28.829824
22.792635 51.97784 31.086187
22.766235 51.884716 28.764551
22.612963 52.067947 34.641571
22.602558 51.984257 32.18277
22.606047 51.969414 31.590143
22.629501 51.920517 29.287556
22.436262 52.03376 33.921577
19.152061 51.746262 31.942768
19.059612 51.744591 31.90626
18.963709 51.707047 30.714544
18.8521 51.798248 34.192425
18.851679 51.778496 33.585999
18.848034 51.699806 31.229954
18.878328 51.693722 30.118767
18.781157 51.787823 33.568729
18.702431 51.856327 36.013901
18.627239 51.83176 35.361759
18.639984 51.787086 33.537472
17.769495 51.874508 38.143826
16.548288 51.498154 28.074671
16.501656 51.618526 31.932812
16.507641 51.572021 30.242556
16.450571 51.613392 31.912546
16.438602 51.548054 30.207443
16.437349 51.529579 29.654564
16.469252 51.480312 27.008755
16.44902 51.442825 26.474598
16.396082 51.624344 32.460224
16.404757 51.545971 29.645929
16.410486 51.48539 27.503071
16.510569 51.435307 22.554516
16.329191 51.604847 32.417786
16.345325 51.604134 31.856222
16.333965 51.574348 31.275229
16.352743 51.576843 30.728912
16.36587 51.556408 29.631907
16.371937 51.545937 29.091829
16.356043 51.512325 28.538858
16.359671 51.499626 28.008326
16.360817 51.468246 26.9585
16.458544 51.447197 23.017399
16.301893 51.574104 30.705812
16.291239 51.528481 29.588734
16.285223 51.505234 29.03907
16.286776 51.490219 28.501902
16.319942 51.50898 27.996601
16.295473 51.466656 27.448893
16.225395 51.614777 32.949371
16.249992 51.587723 31.24428
16.263418 51.533726 29.041992
16.235352 51.487228 28.47967
16.244518 51.48056 27.954906
16.25695 51.461433 26.91618
16.19261 51.597858 31.784872
16.209558 51.598434 31.231701
16.193247 51.56366 30.654009
16.207241 51.561462 30.110619
16.193224 51.512787 29.004553
16.279913 51.386765 21.991449
16.12167 51.612263 32.901726
16.128611 51.584061 31.751114
16.12808 51.565987 31.182219
16.125149 51.52845 30.062466
16.152182 51.54044 29.537277
16.134068 51.504349 28.978107
16.161951 51.501194 27.932352
16.236982 51.425621 22.939775
16.070158 51.610622 32.878151
16.076063 51.564022 31.159517
16.072811 51.526268 30.040354
16.087975 51.525658 29.505131
16.093163 51.514545 28.966772
16.076485 51.480221 28.415535
16.095934 51.468559 27.374676
16.01243 51.604752 32.847301
16.019911 51.525768 30.016577
16.040834 51.498302 28.407701
16.024361 51.448277 27.337814
15.955756 51.585514 32.23748
15.981102 51.57774 31.120853
15.96991 51.548481 30.549881
15.959988 51.520794 29.986864
15.956195 51.483257 28.89427
15.956802 51.467445 28.359058
15.981504 51.461521 27.324577
15.919378 51.573341 31.092651
15.906895 51.508583 29.420061
15.92919 51.515831 28.898096
15.92987 51.500011 28.36281
15.924917 51.462105 27.303867
15.86065 51.503845 28.867249
15.872956 51.500488 28.342443
15.845778 51.454811 27.789944
15.856258 51.433746 26.755945
15.780285 51.542297 31.022318
15.795746 51.507648 29.378439
15.78852 51.483112 28.831627
15.81824 51.498604 28.32239
15.728444 51.556751 31.57086
15.727671 51.504208 29.894526
15.746287 51.490818 28.824978
15.746684 51.442295 27.239014
15.668448 51.600338 33.28326
15.698405 51.510971 29.35504
15.679344 51.473721 28.798489
15.708791 51.489128 28.289858
15.681332 51.443165 27.738255
15.628588 51.543453 30.978289
15.634877 51.51609 29.874628
15.64901 51.514606 29.341789
15.629901 51.477268 28.785463
15.653388 51.486271 28.272043
15.643557 51.459351 27.735561
15.576555 51.475456 28.764116
15.576454 51.458893 28.230936
15.584076 51.450882 27.709879
15.570004 51.419521 27.176231
15.529838 51.547028 30.937363
15.514766 51.47963 29.271427
15.512754 51.460831 28.731348
15.530031 51.463165 28.213665
15.454473 51.570107 32.602219
15.484132 51.549736 30.921232
15.49551 51.527973 29.824291
15.474574 51.488373 29.261129
15.466681 51.463181 28.71611
15.483851 51.465446 28.198652
15.473612 51.438061 27.663231
15.412643 51.5401 31.443895
15.420935 51.464474 28.701803
15.413259 51.407501 27.11664
15.374282 51.635731 34.349846
15.377407 51.498539 29.767668
15.371114 51.45853 28.681486
15.382165 51.454288 28.159538
15.384471 51.639095 32.616451
15.334637 51.532257 30.859583
15.322007 51.50145 30.292286
15.316401 51.478535 29.738207
15.323821 51.470058 29.202137
15.327149 51.457287 28.668192
15.343936 51.459389 28.151485
15.283671 51.492493 29.732758
15.279503 51.471355 29.18643
15.294343 51.471207 28.662891
15.281898 51.441372 28.121181
15.288764 51.432838 27.601786
15.285841 51.413765 27.079536
15.238589 51.543835 31.378288
15.235761 51.473305 29.169035
15.22148 51.441269 28.620268
15.238849 51.428055 27.58013
15.17309 51.488384 30.225204
15.201512 51.502834 29.703457
15.174136 51.456169 29.136841
15.175978 51.42556 28.072947
15.179379 51.397339 27.032667
15.134962 51.49715 30.212858
15.123201 51.467411 29.654579
15.124369 51.452091 29.11446
15.127194 51.438774 28.581717
15.13762 51.433979 28.061197
15.077511 51.535046 31.864468
15.096472 51.50433 30.202435
15.119023 51.512356 29.675743
15.103067 51.478146 29.119831
15.100153 51.458488 28.581923
15.057371 51.495022 29.643822
15.058507 51.479626 29.103853
15.049729 51.453491 28.561077
14.971672 51.609535 34.74696
14.991272 51.576267 32.982948
14.979087 51.527245 31.817909
15.02188 51.539902 30.733936
15.020012 51.520782 30.17889
14.997635 51.462555 29.071058
14.93254 51.583126 33.53484
14.979266 51.598827 32.415741
14.990529 51.593555 31.853678
14.946889 51.527657 31.244722
14.977344 51.544067 30.714815
14.975404 51.524792 30.159992
14.958644 51.472588 29.057777
14.894932 51.710995 37.209507
14.880953 51.656071 35.930435
14.887465 51.644073 35.319401
14.916012 51.656857 34.740482
14.896493 51.616375 34.117043
14.893739 51.594803 33.51984
14.908206 51.592613 32.948097
14.912635 51.579483 32.373005
14.929249 51.580101 31.816982
14.930336 51.563686 31.252146
14.840705 51.722363 37.820808
14.831055 51.691475 37.164787
14.826475 51.66655 36.524208
14.859163 51.683502 35.934921
14.828196 51.629673 35.282101
14.829529 51.612156 34.674152
14.87482 51.643871 34.121323
14.872109 51.622314 33.524048
14.853593 51.583408 32.918179
14.83884 51.770214 37.853485
14.824162 51.733673 37.190952
14.830318 51.720737 36.562294
14.836626 51.708241 35.942444
14.816448 51.66642 35.301468
14.790949 51.618942 34.66386
14.830723 51.644581 34.10535
14.833389 51.629032 33.514038
14.791289 51.764565 37.830132
14.786948 51.739655 37.18021
14.793022 51.726692 36.551689
14.815193 51.732018 35.950066
14.789712 51.684284 35.303059
14.785779 51.660931 34.689007
14.809392 51.668606 34.112759
14.786158 51.804302 37.857246
14.78196 51.77961 37.207047
14.788166 51.766872 36.578247
14.789212 51.748623 35.952225
14.753043 51.688961 35.293293
14.781333 51.701752 34.714725
14.743525 51.805275 37.839569
14.745296 51.7677 36.560982
14.651522 51.673767 35.23975
14.599051 51.715862 35.235973
14.317904 51.690666 38.174316
14.241403 51.706764 38.135433
14.22185 51.732746 38.13958
14.191891 51.745743 38.132607
14.194694 50.83437 5.6857123
14.138145 50.824604 5.6802659
13.886977 50.827137 5.6790934
13.851152 50.828571 5.6789241
13.537432 51.63155 35.306252
13.363764 51.631744 35.224873
13.434817 50.803474 5.6515126
13.289701 50.801064 5.6386347
13.100124 50.783424 5.6179614
13.020053 50.781467 5.9815845
12.958303 51.274483 22.838854
12.942209 51.192944 19.655426
12.967428 50.796726 5.9761109
12.796968 51.392605 30.28087
12.874124 51.24897 22.800993
12.893964 51.215099 20.976097
12.889436 50.743706 5.9664211
12.872996 51.242496 21.426947
12.873543 51.215046 20.522858
12.783933 51.225109 21.844213
12.800415 51.23027 21.398586
12.733729 51.22377 21.376595
12.662351 51.246582 23.657495
12.61227 51.204334 20.880213
12.542211 51.240974 23.607887
12.371292 51.506481 34.624168
12.386024 51.205765 21.257471
12.065804 51.233921 23.911884
11.420202 50.714161 5.826642
11.268047 50.692451 5.7926373
11.249298 50.706547 5.7885675
10.860099 51.540565 38.703445
10.870337 51.49144 36.787704
10.955765 51.25956 26.334707
10.962502 51.236477 25.361246
10.830519 51.522976 38.047829
10.940846 51.348301 28.372238
10.941385 51.332504 27.858292
10.936847 51.294407 26.842159
10.770816 51.590458 39.338223
26.464766 51.200653 2.5742118
26.458376 51.210365 2.3737171
26.442148 51.21373 2.1741874
26.470245 51.240181 3.7889211
26.464382 51.250221 3.5893946
26.465425 51.264744 3.3891809
26.448235 51.267479 3.1901042
26.454676 51.285542 2.9888177
26.451252 51.297234 2.7880092
26.446329 51.30798 2.5870044
26.767792 51.35569 6.6180034
26.740553 51.352261 6.4130344
26.37821 51.257511 4.3974948
26.452288 51.319267 4.1962056
26.449347 51.331184 3.9962816
26.45331 51.347595 3.7958157
26.706636 51.383991 7.4381437
26.710594 51.40052 7.2348943
26.687927 51.399944 7.0287399
26.680498 51.409119 6.8248625
26.663187 51.411907 6.6203861
26.652758 51.419098 6.4169946
26.23234 51.284229 4.4026113
26.675318 51.41798 8.4805117
26.678566 51.434113 8.2750435
26.663631 51.438545 8.0668602
26.647146 51.441929 7.8591175
26.612431 51.433533 7.6493835
26.601208 51.440208 7.4438829
26.588467 51.445866 7.238699
26.565853 51.445114 7.0328846
26.620302 51.459282 9.1213531
26.595087 51.457203 8.9082565
26.568264 51.454018 8.6958761
26.556442 51.460434 8.4873734
26.559681 51.476528 8.2822504
26.536457 51.475494 8.0730066
25.486137 51.191055 2.104804
26.55962 51.482388 9.9778881
26.54908 51.48999 9.7647886
26.520462 51.48587 9.5481567
26.52317 51.501896 9.3400297
26.507813 51.50621 9.1284065
26.514029 51.513264 10.851957
26.52634 51.5359 10.641837
26.504406 51.536385 10.422395
26.131132 51.628967 14.264679
25.736135 51.603687 14.168347
25.702637 51.597565 13.924163
25.682674 51.600239 13.688438
25.161247 51.434368 10.896136
25.009211 51.417706 9.629981
25.533108 51.589989 14.117002
25.507025 51.588543 13.877714
25.330772 51.576977 14.062328
25.296595 51.569897 13.820571
22.835905 51.258133 6.6022525
22.827282 51.29673 7.705893
22.809107 51.393707 11.395255
22.80126 51.400902 11.195568
22.803925 51.427315 12.655375
22.79792 51.436207 12.44881
22.785721 51.540028 16.323927
22.448614 51.569321 17.720043
18.943567 50.936943 2.0720756
19.271196 50.992702 6.76195
19.235552 50.985226 6.4331527
19.223795 50.986382 6.2700415
19.18741 50.997879 7.0978274
19.172367 50.99649 6.9328985
19.171633 51.006737 6.7702165
18.025324 50.84156 2.0693316
19.102608 51.212368 12.670809
19.096561 51.220272 12.480311
19.077501 51.231785 13.478758
19.086962 51.286804 15.438344
19.062674 51.307358 16.143221
19.011459 51.327999 16.637623
18.994551 51.329578 16.404612
18.914427 51.294666 15.912209
18.738195 51.351303 17.620737
18.602062 51.338734 17.625036
18.593807 51.347179 17.388868
18.494724 51.324905 16.418201
18.482344 51.328773 17.646669
18.356512 51.299095 16.425657
18.007214 51.341427 17.572084
15.370287 50.69239 2.6437066
15.365029 50.693195 2.4950609
15.37327 50.70649 2.3428955
15.37325 50.71217 2.1920373
15.368471 50.733917 3.7129617
15.363013 50.734207 3.5658998
15.36391 50.740364 3.4177251
15.356536 50.738903 3.2704914
15.362788 50.750027 3.1207559
15.360765 50.753529 2.9719851
15.357763 50.756134 2.8230388
15.361042 50.764565 2.6724317
15.306393 50.735703 2.0816159
15.432181 50.87479 6.2916198
15.417281 50.876049 8.9010544
15.423672 50.886524 8.7484865
15.421828 50.889446 8.5940504
15.418963 50.891411 8.4398708
15.415079 50.892426 8.2859612
15.424704 50.905827 8.1357031
15.426082 50.911648 7.9837961
15.419188 50.909863 7.8305116
15.425865 50.920532 7.680398
15.424275 50.923599 7.5289302
15.429003 50.932465 7.3788862
15.425452 50.933708 7.227685
15.428236 50.940773 7.0777574
14.979117 50.675541 2.0684366
15.365342 50.906933 9.71488
15.370121 50.915577 9.5587511
15.345243 50.896961 9.3932858
15.347883 50.903599 9.2378635
15.342306 50.902672 9.0804377
15.342865 50.907368 8.9255228
15.400039 50.964127 8.7871437
14.963623 50.740479 2.0769587
15.405161 51.004803 11.750464
15.40309 51.006889 11.579652
15.284451 50.924957 10.369928
15.27972 50.924385 10.207192
15.259711 50.909718 10.039471
15.266893 50.920078 9.883111
15.2517 50.909801 9.7192402
15.235373 50.898453 9.5560398
15.232195 50.899208 9.3982944
15.235106 50.905563 9.2432089
15.229817 50.904343 9.086113
15.209117 50.888878 8.9251451
15.157289 50.915646 10.531361
15.153944 50.915794 10.368673
15.14243 50.908367 10.203617
15.143886 50.912922 10.044645
15.137183 50.909912 9.8833351
15.108093 50.886154 9.7148294
15.113354 50.894184 9.5597134
15.110456 50.894642 9.4023838
15.09936 50.887493 9.2431087
15.094332 50.885948 9.0865984
15.088253 50.883419 8.9304762
15.160073 50.953106 8.7973166
15.032806 50.91066 10.37587
15.021585 50.902973 10.211214
15.016259 50.900749 10.049923
15.009824 50.897476 9.8891048
14.995207 50.886585 9.726203
14.993648 50.887814 9.568944
14.998135 50.894657 9.4144335
14.980227 50.880661 9.2531624
14.982618 50.885532 9.0993004
14.96969 50.876137 8.9413614
15.034478 50.939075 8.8066654
14.912955 50.900208 10.555294
14.910169 50.89999 10.393427
14.899251 50.892181 10.229165
14.894216 50.889839 10.068281
14.881027 50.879883 9.9051991
14.887893 50.888622 9.7505302
14.886649 50.889786 9.5935211
14.870159 50.876705 9.432023
14.866772 50.875843 9.2758865
14.876578 50.887295 9.1246176
14.863989 50.877819 8.9669056
14.907515 50.920761 8.8263788
14.518671 50.656597 2.0543065
14.793627 50.89394 10.416676
14.772457 50.880249 9.9320736
14.77257 50.882378 9.7750711
14.757496 50.87027 9.6133604
14.748382 50.863735 9.4547653
14.752373 50.869469 9.3013964
14.74824 50.86758 9.1459618
14.743065 50.864708 8.9909115
14.779653 50.900986 8.8488235
14.672284 50.885601 10.115184
14.65974 50.875496 9.9526329
14.653099 50.870934 9.7933493
14.645369 50.865334 9.6345634
14.636554 50.858707 9.4762878
14.633738 50.857716 9.3209009
14.622787 50.849064 9.1636038
14.632088 50.859459 9.013443
14.647527 50.875622 8.8654451
14.702601 51.00592 12.347961
14.544316 50.875717 9.8139763
14.529902 50.863327 9.6528816
14.521423 50.856529 9.4949274
14.518929 50.855377 9.3398743
14.508319 50.846558 9.1828957
14.517916 50.856815 9.0330925
14.526535 50.86615 8.8833418
14.433422 50.879292 10.308378
14.42968 50.876438 10.148797
14.411914 50.86097 9.8283997
14.404882 50.854988 9.6703424
14.394636 50.84663 9.3581591
14.412642 50.864384 9.2108126
14.394329 50.847687 9.0522242
14.382021 50.836681 8.8965054
14.475173 50.925713 8.7721424
14.311369 50.871395 10.489239
14.3091 50.869423 10.329618
14.302702 50.863892 9.8561707
14.28909 50.851116 9.6957712
14.281382 50.84396 9.5385399
14.279632 50.84248 9.3842392
14.269803 50.833305 9.2279778
14.280088 50.843285 9.0789833
14.261118 50.825401 8.9214211
14.340262 50.900955 8.7935753
14.318502 50.984348 12.228063
14.192048 50.860596 10.044046
14.179926 50.848801 9.8833704
14.180651 50.849289 9.72855
14.173337 50.842094 9.5715513
14.17898 50.847286 9.4199295
14.162536 50.831367 9.2614651
14.15909 50.827877 9.1082363
14.154621 50.823406 8.9553957
14.212765 50.878769 8.821764
14.198775 50.973839 12.252726
14.058004 50.829685 9.447382
14.055923 50.827187 9.2940254
14.052816 50.823708 9.1410408
14.055731 50.826004 8.9906387
14.078825 50.847645 8.8467932
14.1577 50.922264 8.5679941
14.110584 50.995369 13.530448
14.109547 50.988846 12.469001
14.094852 50.973797 12.288467
14.114905 50.991348 11.959884
14.109345 50.983395 11.455433
14.104194 50.976734 11.124146
13.97106 50.843666 10.10733
13.966581 50.838558 9.9498959
13.960674 50.830498 9.4855003
13.958954 50.82806 9.3323069
13.947661 50.814873 8.874999
14.033595 50.896732 8.7499657
11.420255 50.648224 5.2285361
11.315843 50.473175 1.03546
11.311728 50.463921 0.89150625
11.327014 50.474068 0.73887455
11.320988 50.462852 0.59435534
11.320769 50.457424 0.44669282
11.333032 50.464443 0.29256192
11.330827 50.456974 0.14416248
