# .PCD v0.7 - Point Cloud Data file format
VERSION 0.7
FIELDS x y z
SIZE 4 4 4
TYPE F F F
COUNT 1 1 1
WIDTH 1612
HEIGHT 1
VIEWPOINT 0 0 0 1 0 0 0
POINTS 1612
DATA ascii
19.470018 50.980453 9.7715063
19.464874 50.987495 9.601429
19.466129 50.99963 9.4339428
19.466215 51.010792 9.2666416
19.449894 51.00872 9.0953808
18.403954 50.621117 1.9675406
18.384338 50.615143 1.8143412
19.46454 51.007591 10.489874
19.464327 51.018959 10.317999
19.45536 51.023262 10.143812
19.452696 51.032566 9.9725981
19.441259 51.034775 9.7992706
19.436167 51.042027 9.6287756
18.31864 50.622787 2.1448369
18.300146 50.617802 1.9919895
19.452621 51.029339 11.223617
19.450048 51.039185 11.047015
19.438738 51.041969 10.867867
19.433601 51.049633 10.692135
18.245459 50.644554 2.1620672
18.189432 50.607918 2.0183361
18.170019 50.60218 1.8660684
18.157057 50.601906 1.7119045
19.43145 51.052788 11.791058
19.42548 51.06023 11.609642
19.418179 51.066528 11.428727
19.409552 51.071693 11.248329
18.497036 50.767155 4.6143503
18.15941 50.653027 2.1822031
18.076677 50.604378 1.8885709
18.048851 50.591511 1.7386938
19.425682 51.075546 12.56097
19.410685 51.076214 12.369966
19.401548 51.081474 12.183233
19.383688 51.079655 11.993676
18.361856 50.735828 4.6309137
17.966032 50.593464 1.9133748
19.397533 51.08828 13.148756
18.250662 50.723087 4.643281
17.855734 50.582039 1.9350667
17.850481 50.588459 1.7803023
18.141525 50.709915 4.6515317
17.780954 50.587994 2.0995297
17.741686 50.576351 1.7984834
18.052284 50.716995 4.655755
17.779394 50.648018 2.3976564
17.724831 50.612228 2.2551897
17.657778 50.576675 1.961709
17.645117 50.576839 1.8096886
17.925388 50.691742 4.6597204
17.574001 50.574829 2.1222248
17.562449 50.575817 1.9706403
17.535015 50.563122 1.8229022
17.453144 50.561764 1.9788104
17.440651 50.561775 1.827644
19.238718 51.255577 15.01212
17.368296 50.559277 2.1351476
17.356903 50.560062 1.984417
17.344479 50.559982 1.8335921
19.266874 51.274967 16.336828
19.246609 51.27356 16.10742
19.244781 51.286785 15.893927
19.153418 51.256454 15.206097
17.307682 50.56654 2.4424858
17.265785 50.551285 2.1471279
17.254469 50.552055 1.9968255
17.242126 50.55196 1.846428
17.206636 50.531693 1.7021459
19.249454 51.274429 17.267117
19.243572 51.285282 17.038902
19.242435 51.299774 16.816793
19.246155 51.318012 16.600592
17.190989 50.55484 2.314507
17.180759 50.556545 2.1645679
17.154718 50.544464 2.0183041
17.142473 50.544445 1.8683321
17.129204 50.543556 1.718276
19.222446 51.28038 18.009581
19.235653 51.30711 17.789543
19.240511 51.327015 17.564545
19.236927 51.340008 17.334831
17.089771 50.54665 2.3410125
17.079678 50.548466 2.1914992
17.068567 50.549412 2.0418763
17.041693 50.53656 1.8960954
17.028572 50.535786 1.74646
19.205427 51.297298 18.790533
19.192839 51.304024 18.539217
19.171629 51.303642 18.28335
19.161098 51.311588 18.039997
19.213449 51.369759 17.853048
17.012836 50.548454 2.5129266
16.979145 50.5401 2.2181108
16.968199 50.541126 2.0689101
16.948874 50.534809 1.921573
16.943254 50.540573 1.7702228
19.149092 51.318378 19.064882
19.12619 51.316982 18.800745
19.100939 51.313457 18.537983
19.086191 51.318119 18.288
19.056364 51.310455 18.02795
16.897213 50.535622 2.388624
16.842745 50.519329 1.9479158
16.837301 50.525154 1.7970753
19.213507 51.386974 20.224234
19.219355 51.409477 19.972448
19.034838 51.31374 19.045042
19.018217 51.317192 18.787144
18.986584 51.308342 18.518961
18.978174 51.317947 18.275087
18.954786 51.315269 18.020994
16.802666 50.532837 2.4095414
16.785646 50.528271 2.2629085
16.760288 50.516342 2.1182003
16.763361 50.529575 1.9659215
16.743378 50.522434 1.8193251
19.218298 51.407013 21.399723
19.210037 51.419178 21.118017
19.187094 51.419353 20.824877
19.204111 51.451176 20.577017
19.194443 51.461449 20.305023
18.981461 51.325806 19.583218
18.932152 51.303268 19.287081
18.91781 51.308563 19.028393
18.901182 51.311794 18.770905
18.875929 51.307835 18.508886
18.854748 51.306927 18.253975
18.844189 51.314396 18.01161
17.405928 50.819641 7.0221181
17.374025 50.802608 6.8666058
16.684841 50.518669 2.2886639
16.674402 50.519787 2.1406412
16.655621 50.513527 1.9944612
16.643188 50.512917 1.8463286
19.203901 51.468796 21.779224
19.198977 51.483757 21.495619
19.203466 51.505989 21.225962
19.163244 51.492153 20.912937
18.812418 51.297279 19.27564
18.79187 51.297302 19.011442
18.775276 51.300289 18.754429
18.750078 51.296074 18.492878
18.716185 51.284569 18.227036
18.705574 51.291737 17.985306
17.471607 50.874363 8.2957458
17.440832 50.858532 8.1340227
17.393965 50.828812 7.9700513
17.375998 50.823833 7.8130336
17.356979 50.817902 7.6565127
17.366982 50.836906 7.5055904
17.308281 50.796719 7.3438282
17.301186 50.800926 7.1911597
17.285547 50.797737 7.0376806
17.253824 50.780617 6.8827367
17.236153 50.775589 6.730216
17.232553 50.782711 6.5796103
17.212877 50.77589 6.4277501
16.557467 50.504066 2.0258892
16.517498 50.489052 1.7345823
19.063555 51.429428 22.032999
19.167528 51.531605 21.866535
18.689039 51.287407 19.267605
18.66861 51.287254 19.003799
18.652124 51.29007 18.747189
18.620724 51.280525 18.480246
18.60603 51.284348 18.231993
18.582785 51.280991 17.979258
17.523361 50.927113 9.4573193
17.46361 50.88678 9.2797995
17.439697 50.87698 9.1145535
17.41464 50.866131 8.9500389
17.403332 50.867001 8.7902107
17.338766 50.822124 8.6175985
17.325224 50.820942 8.459218
17.303139 50.812366 8.2995672
17.294928 50.815674 8.1438017
17.270699 50.805149 7.9852509
17.252892 50.800106 7.8288121
17.234037 50.794109 7.6728692
17.236658 50.80661 7.521287
17.200716 50.785774 7.3637214
17.193789 50.789967 7.2114782
17.185852 50.793262 7.0594354
17.161861 50.782623 6.9057302
17.159437 50.790646 6.7551475
17.133432 50.778183 6.6023359
17.121485 50.777893 6.4514728
16.483709 50.506023 2.2038915
16.465437 50.49984 2.058434
16.453505 50.499329 1.9110407
16.440573 50.497948 1.763563
18.956402 51.429924 22.045177
18.564459 51.28772 19.017422
18.560749 51.300781 18.772734
18.523365 51.286152 18.500021
18.489876 51.274448 18.234724
18.492323 51.291927 18.004923
17.567938 50.970284 10.667795
17.494495 50.929718 10.310115
17.470493 50.920132 10.138281
17.423231 50.890591 9.9595184
17.396755 50.878708 9.7895679
17.391197 50.884647 9.6276846
17.35498 50.864273 9.4568491
17.332355 50.855461 9.2915325
17.30858 50.845592 9.1269312
17.291088 50.841053 8.9651289
17.250191 50.81633 8.797946
17.237898 50.816132 8.6394606
17.224529 50.81496 8.4814034
17.210091 50.812824 8.3237906
17.179653 50.796833 8.1633492
17.170553 50.799202 8.0083885
17.152933 50.79417 7.8522687
17.141756 50.79467 7.6980271
17.129551 50.794247 7.5441203
17.116322 50.7929 7.3905606
17.087063 50.777611 7.2351127
17.086809 50.787457 7.0845323
17.05551 50.770302 6.9301863
17.053259 50.778362 6.7800388
17.042498 50.779003 6.6291752
17.023224 50.772202 6.4778671
16.425348 50.511456 2.5298367
16.384892 50.495247 2.2412066
16.381523 50.502247 2.0923257
16.355236 50.488747 1.9491687
16.349865 50.494003 1.8000172
18.945852 51.517887 21.880363
18.435837 51.276176 18.764858
18.41744 51.276943 18.510002
17.967852 51.093948 15.314025
17.386284 50.8815 10.819933
17.373255 50.881378 10.649837
17.351728 50.87392 10.477489
17.336275 50.871574 10.308679
17.312307 50.861874 10.137815
17.279791 50.844761 9.9651651
17.246042 50.826504 9.7935076
17.218433 50.813419 9.6252804
17.211765 50.818245 9.4649267
17.189222 50.809376 9.3004246
17.172937 50.80582 9.1388054
17.15554 50.80125 8.977746
17.144461 50.802071 8.8192568
17.132303 50.801918 8.6611834
17.111635 50.794361 8.5017109
17.09733 50.792252 8.344593
17.081966 50.789181 8.1879301
17.073013 50.791618 8.0333061
17.055555 50.786644 7.8775053
17.037054 50.780724 7.722198
17.032484 50.786854 7.5700197
17.011925 50.779064 7.4155645
16.990339 50.770336 7.2616401
16.975235 50.767204 7.1093106
16.966627 50.769703 6.9583287
16.949516 50.764759 6.8066897
16.93141 50.758915 6.6554565
16.912312 50.752167 6.504642
16.832127 50.691948 6.3493161
16.277348 50.485004 2.1337306
16.265924 50.484737 1.987077
16.260784 50.490143 1.8382653
18.812147 51.483967 21.864079
18.368891 51.279644 19.056385
18.273003 51.263893 18.022438
17.189119 50.831955 10.152655
17.178698 50.833725 9.9883614
17.125025 50.808838 9.6514864
17.111137 50.807426 9.4890289
17.096127 50.804993 9.3270998
17.094778 50.814285 9.170083
17.070168 50.803455 9.0069838
17.059252 50.804394 8.8486538
17.039843 50.797935 8.6888075
17.011915 50.784039 8.5277166
16.997765 50.782021 8.370923
16.99745 50.791962 8.217926
16.973751 50.78157 8.0602942
16.963917 50.783176 7.906312
16.953054 50.783852 7.7526493
16.926222 50.770584 7.5966635
16.913307 50.769394 7.4438491
16.914351 50.780346 7.2936988
16.884447 50.764263 7.1393003
16.876001 50.766876 6.9885712
16.859068 50.762043 6.8371673
16.841141 50.756306 6.6861677
16.837225 50.762814 6.537025
16.809822 50.748711 6.3860621
16.210918 50.49202 2.3159719
16.207987 50.49934 2.167697
16.18218 50.486092 2.0250514
16.169989 50.485119 1.8785492
16.135048 50.463646 1.7383828
18.732517 51.497608 21.932198
18.249157 51.275291 18.83576
17.790985 51.098965 15.385192
17.604332 51.032467 13.900105
17.09918 50.831982 10.191884
17.055746 50.815861 9.8564482
17.035931 50.809326 9.6910782
17.02231 50.808075 9.5287638
17.014933 50.812164 9.3692656
16.984339 50.796116 9.2035189
16.974752 50.798183 9.0450296
16.964087 50.799267 8.8869381
16.944942 50.79295 8.7273064
16.939545 50.798515 8.5719986
16.910826 50.783768 8.4116192
16.90332 50.787415 8.2571135
16.887339 50.783642 8.1012917
16.870312 50.778915 7.9459457
16.859705 50.779743 7.7925234
16.840612 50.773129 7.6380811
16.820496 50.765568 7.4841528
16.806829 50.763611 7.3319263
16.79216 50.760738 7.1800661
16.776487 50.756954 7.0285835
16.759817 50.752262 6.8774905
16.757135 50.759815 6.7284575
16.718864 50.745949 6.4279795
16.137106 50.491978 2.5098267
16.110941 50.488159 2.2195015
16.092766 50.481678 2.0752745
16.066372 50.467785 1.9331554
16.053555 50.466171 1.7870592
18.602888 51.470299 21.954493
18.105251 51.295864 17.906364
17.002565 50.824295 10.234583
16.897821 50.786167 9.4060745
16.896976 50.795776 9.2496748
16.880323 50.791622 9.0891924
16.877342 50.799297 8.9333954
16.843731 50.780281 8.7699337
16.831211 50.779556 8.6130753
16.825045 50.784325 8.458456
16.795574 50.768726 8.298955
16.787317 50.771584 8.1451569
16.785471 50.78001 7.9932051
16.767725 50.774509 7.8384738
16.741497 50.761532 7.6828661
16.736607 50.767197 7.5318055
16.715792 50.758873 7.3785195
16.708897 50.762726 7.2279987
16.686069 50.752556 7.0756226
16.684666 50.761181 6.9266305
16.659847 50.749187 6.7751265
16.64152 50.742867 6.6249738
16.622211 50.735645 6.4752431
16.016964 50.476555 2.27701
15.999176 50.470299 2.1331632
15.980439 50.463192 1.9893883
15.967996 50.461807 1.8436042
18.4706 51.443314 21.975361
18.337675 51.4063 20.737291
17.991619 51.281891 17.942091
16.848644 50.80146 9.778966
16.828316 50.794189 9.6145897
16.814182 50.792236 9.4532423
16.798937 50.789261 9.292428
16.782589 50.785271 9.1321602
16.765144 50.780262 8.9724541
16.753992 50.780689 8.8153219
16.734386 50.773685 8.6566935
16.728506 50.778629 8.5023251
16.706772 50.769661 8.3447418
16.698812 50.772705 8.191102
16.674976 50.761795 8.0346174
16.664959 50.762951 7.8817577
16.653925 50.763184 7.7292209
16.626987 50.749405 7.5743933
16.613926 50.747776 7.4227109
16.607321 50.751797 7.2725277
16.607189 50.761497 7.1235957
16.583685 50.75058 6.9718013
16.566652 50.745327 6.8214555
16.548635 50.73917 6.6715164
16.544588 50.745331 6.5234079
16.457352 50.677868 6.368576
15.926728 50.471664 2.3315094
15.909307 50.465618 2.1879597
15.878864 50.457569 1.8990079
15.86581 50.455547 1.7534577
18.335001 51.421188 21.995445
16.749004 50.79586 9.8202534
16.721714 50.782333 9.6536264
16.722549 50.793251 9.4973116
16.700321 50.784008 9.3343496
16.69166 50.786545 9.1764898
16.674568 50.78167 9.0169086
16.663757 50.782234 8.8599224
16.659264 50.788284 8.7052908
16.631567 50.773964 8.5453539
16.61758 50.771603 8.3897362
16.602549 50.76828 8.2345724
16.579063 50.757481 8.0782785
16.576796 50.765293 7.9271655
16.551245 50.752583 7.7719293
16.532093 50.745457 7.6187072
16.519367 50.74395 7.4672527
16.505642 50.741531 7.316155
16.490923 50.738201 7.1654253
16.482668 50.740555 7.016067
16.473434 50.74202 6.8669271
16.455765 50.735989 6.7172012
16.429655 50.722443 6.5671601
16.432428 50.734482 6.4202948
16.254744 50.614582 5.8250327
16.237814 50.60894 5.6795406
16.227409 50.609093 5.5344915
15.85357 50.471058 2.5283806
15.844772 50.472649 2.3832872
15.820469 50.460159 2.2418211
15.802503 50.453442 2.0986321
15.790829 50.452473 1.9534748
15.77096 50.44405 1.8103626
18.183371 51.403942 21.997723
16.636644 50.794155 9.695569
16.608631 50.779533 9.5298004
16.57946 50.763824 9.3648977
16.578474 50.772739 9.2097435
16.554407 50.761375 9.0484085
16.5513 50.768349 8.8939524
16.525059 50.754959 8.7338552
16.512474 50.753517 8.5782757
16.484076 50.73811 8.4195547
16.49157 50.754261 8.2701483
16.475872 50.74995 8.1158361
16.444326 50.731609 7.9589376
16.433977 50.73193 7.80721
16.444893 50.751011 7.6598897
16.432556 50.749523 7.508574
16.411789 50.740536 7.3564258
16.397457 50.737213 7.2059159
16.374695 50.726376 7.0547709
16.350943 50.714619 6.9041886
16.348553 50.721798 6.7567005
16.337749 50.721485 6.6085253
16.325979 50.720291 6.4606013
15.80161 50.478176 2.8617194
15.757475 50.46579 2.4323359
15.733618 50.45335 2.2911439
15.716098 50.446693 2.1482475
15.692671 50.444027 1.8584669
18.011124 51.396008 21.977869
16.482197 50.765102 9.5514002
16.460768 50.755558 9.3892488
16.445534 50.751408 9.2300425
16.436539 50.752697 9.0735378
16.433826 50.759483 8.9194946
16.422728 50.758842 8.7637119
16.395857 50.744236 8.6045675
16.390017 50.74815 8.4516239
16.375776 50.744602 8.2972364
16.360502 50.740101 8.1433115
16.344202 50.73465 7.989861
16.341684 50.741371 7.8398242
16.32336 50.734055 7.6871891
16.31144 50.73238 7.5363569
16.283682 50.716606 7.3834691
16.277195 50.719692 7.234643
16.262302 50.715279 7.0849886
16.261297 50.723206 6.9376101
16.244455 50.717003 6.7885699
16.234083 50.716545 6.6407108
16.215303 50.708561 6.4924178
15.667258 50.457153 2.4730639
15.658414 50.45787 2.3284853
15.641358 50.451107 2.1857131
15.623363 50.443497 2.0430105
15.611646 50.441639 1.8982979
15.59176 50.432323 1.7556827
16.4513 50.79118 10.391161
16.409384 50.780754 9.9003525
16.390713 50.773029 9.7371111
16.370905 50.76424 9.5745487
16.357258 50.760834 9.4150143
16.357122 50.769314 9.2605171
16.326687 50.75098 9.0975742
16.309778 50.744545 8.9396963
16.299129 50.743603 8.7843914
16.302128 50.754715 8.6333265
16.282055 50.745354 8.4768848
16.275658 50.748074 8.3245363
16.268246 50.74987 8.1724758
16.24506 50.737617 8.0175877
16.243008 50.744114 7.8677936
16.225174 50.736542 7.7153673
16.213736 50.734631 7.5647583
16.193893 50.725201 7.4132795
16.18047 50.721458 7.2634692
16.166061 50.716808 7.1140327
16.150675 50.711254 6.9649825
16.141741 50.711445 6.817203
16.131845 50.710751 6.6696591
16.12842 50.715832 6.5230618
16.079437 50.680092 6.3728766
15.601661 50.457245 2.6514313
15.594285 50.458641 2.5071218
15.585945 50.459179 2.3626854
15.569398 50.452229 2.2200384
15.544686 50.437813 2.0794485
15.533495 50.435787 1.9349568
15.521337 50.432892 1.7903843
16.303965 50.772434 10.080409
16.275839 50.76387 9.7566996
16.25646 50.754807 9.5945091
16.250505 50.757584 9.4377108
16.228909 50.746456 9.2767496
16.213503 50.740765 9.1186895
16.197016 50.73407 8.961194
16.201426 50.745899 8.8103046
16.190166 50.743774 8.6556463
16.177868 50.740692 8.501421
16.164536 50.736652 8.347641
16.164896 50.744778 8.1976547
16.134787 50.725719 8.0414724
16.133139 50.732002 7.892097
16.108351 50.717606 7.7386489
16.112112 50.728668 7.5911698
16.092712 50.719021 7.4399877
16.072317 50.708447 7.2893386
16.065748 50.710213 7.1413598
16.050798 50.704456 6.9926167
16.057127 50.717747 6.8469348
16.040249 50.710217 6.6987348
16.014982 50.695137 6.5502391
15.574412 50.476395 3.1109507
15.577626 50.486862 2.9654419
15.565269 50.483139 2.8226888
15.55926 50.485222 2.6783247
15.559559 50.493099 2.5321026
15.475012 50.438572 2.1134059
15.464288 50.436401 1.9690542
15.452599 50.433365 1.8246191
16.160686 50.749748 9.7799501
16.148924 50.746983 9.6205864
16.143326 50.749649 9.4641113
16.129387 50.744869 9.3057184
16.099791 50.726105 9.1434784
16.105564 50.738785 8.9927053
16.095715 50.737526 8.8379421
16.092144 50.741829 8.6855383
16.058229 50.719028 8.5259705
16.06727 50.734531 8.3779831
16.053289 50.72945 8.224885
16.038288 50.723423 8.0722561
16.029634 50.723042 7.9216213
16.005239 50.708542 7.7684569
15.994585 50.70631 7.6186519
15.982944 50.703167 7.4691935
15.977715 50.705753 7.32126
15.964119 50.700809 7.1724439
15.964355 50.708267 7.0259972
15.941417 50.694889 6.8768768
15.939736 50.700592 6.7307954
15.92228 50.692093 6.5833178
15.54801 50.495335 3.7154555
15.555405 50.509186 3.5707278
15.547162 50.508789 3.4279814
15.552634 50.520927 3.2826707
15.409294 50.447311 2.1492963
15.384549 50.431862 2.0090883
15.373291 50.42881 1.8648796
15.346714 50.411682 1.7250228
16.111263 50.764496 10.303898
16.09606 50.75848 10.140307
16.06222 50.743252 9.815073
16.058069 50.746933 9.6584053
16.045603 50.743172 9.4996977
16.024784 50.731922 9.3392172
16.024681 50.739105 9.1861105
16.008976 50.732338 9.0289555
15.992201 50.724567 8.8723726
15.981672 50.722343 8.7183409
15.984747 50.732258 8.5684938
15.964842 50.721584 8.4133682
15.951231 50.716507 8.2605753
15.9366 50.71048 8.1082497
15.92831 50.710114 7.9579377
15.919027 50.708828 7.8079457
15.908754 50.706627 7.6582851
15.897496 50.703522 7.5089688
15.89264 50.706146 7.361197
15.872041 50.694588 7.2114153
15.865246 50.695427 7.0642171
15.857491 50.695389 6.9172368
15.84878 50.694469 6.7704859
15.544966 50.528625 4.4656043
15.542658 50.533318 4.3229795
15.546791 50.543892 4.1795335
15.542617 50.546902 4.0366435
15.306843 50.427357 2.0558312
15.296011 50.424385 1.9118487
15.28422 50.420547 1.7677881
15.995501 50.760201 9.8638353
15.962887 50.738201 9.6970854
15.950804 50.734478 9.5385962
15.937633 50.729744 9.3806362
15.930641 50.730499 9.225462
15.9226 50.730282 9.0706739
15.898938 50.716042 8.9121399
15.903384 50.726948 8.76231
15.899529 50.730392 8.6106625
15.865389 50.706635 8.4520159
15.85948 50.708172 8.3012581
15.85257 50.70879 8.1507921
15.844664 50.708485 8.0006304
15.835766 50.707264 7.8507857
15.840601 50.718384 7.7040415
15.829743 50.715359 7.5546937
15.817904 50.71143 7.4056983
15.225015 50.415588 2.1078126
15.203287 50.409023 1.8203883
15.889821 50.741741 10.058163
15.880371 50.740105 9.898797
15.86982 50.737442 9.7399282
15.85095 50.727291 9.579134
15.84544 50.729073 9.4237404
15.846126 50.736378 9.2709846
15.823997 50.723186 9.1118937
15.8226 50.728565 8.9598322
15.827473 50.739555 8.8100214
15.824057 50.74308 8.6583652
15.812324 50.739098 8.5051308
15.806882 50.740753 8.3541002
15.807765 50.748077 8.2050266
15.800331 50.747894 8.0544987
15.385842 50.517242 4.7012992
15.154412 50.417892 2.1573582
15.137287 50.408493 2.0158851
15.107425 50.393776 1.7309769
15.820508 50.753555 10.263162
15.805433 50.746605 10.100576
15.810765 50.757919 9.9465265
15.800663 50.755356 9.7875443
15.796676 50.758251 9.6315308
15.791628 50.760162 9.4758701
15.792761 50.767601 9.3228664
15.785618 50.767574 9.1678658
15.777427 50.766575 9.013257
15.782743 50.77771 8.8631258
15.057427 50.406857 1.9194993
15.031706 50.389217 1.7804418
15.785924 50.778393 10.791719
15.795951 50.793903 10.636189
15.790677 50.795654 10.474958
15.777144 50.789951 10.311359
15.776772 50.796036 10.153853
15.775321 50.801117 9.9966564
15.772797 50.80521 9.8397808
15.776402 50.814789 9.6857195
15.262685 50.551109 4.6381135
14.973625 50.396107 1.9622431
15.782869 50.819981 11.834372
15.765195 50.810703 11.659214
15.753229 50.806484 11.488299
15.747042 50.807407 11.3214
15.760771 50.826172 11.164783
15.766376 50.83762 11.005055
15.749655 50.82896 10.836308
15.753 50.83831 10.677309
15.755251 50.846642 10.518573
15.137918 50.512428 4.6666551
14.90878 50.402725 2.1337411
14.899003 50.399422 1.9908042
14.888277 50.395252 1.8477842
14.862321 50.376957 1.7091994
15.751702 50.853218 12.564316
15.732776 50.842697 12.382248
15.733167 50.849457 12.212362
15.732329 50.855076 12.042927
15.72333 50.853313 11.870363
15.720036 50.856636 11.701957
15.715533 50.858829 11.534049
15.702827 50.853596 11.363308
15.702933 50.859856 11.199793
15.694848 50.858704 11.033475
15.685583 50.856445 10.86772
15.668067 50.846699 10.699524
14.811903 50.388142 2.0230801
14.808708 50.390675 1.878237
15.713033 50.87606 13.48902
15.708104 50.87796 13.307279
15.695041 50.872498 13.122031
15.700926 50.884014 12.949883
15.68512 50.875977 12.76609
15.681592 50.878933 12.59103
15.676774 50.88068 12.416543
15.656909 50.868832 12.235115
15.656395 50.874363 12.065675
15.640806 50.866261 11.889491
15.637815 50.869473 11.721159
15.640585 50.87785 11.556765
15.614614 50.866032 11.21593
14.741575 50.388264 2.0483854
14.731538 50.384094 1.905847
15.656538 50.906776 14.067986
15.636283 50.894539 13.870676
15.634471 50.898846 13.687664
15.61788 50.889786 13.49661
15.62669 50.903568 13.323521
15.620737 50.903992 13.142427
15.626966 50.915367 12.9702
15.611547 50.907158 12.786306
15.601555 50.903793 12.607223
15.590225 50.899174 12.428871
15.584436 50.899517 12.255045
14.653722 50.374851 2.0715053
14.633382 50.365421 1.787004
15.604095 50.936176 15.04751
15.604982 50.942677 14.855471
15.591346 50.936012 14.654479
15.595722 50.945557 14.468639
15.585536 50.941895 14.274042
15.587015 50.948723 14.089455
15.580462 50.948242 13.900953
15.579106 50.952415 13.717621
15.576362 50.955284 13.534906
14.563887 50.363304 1.9468663
14.5607 50.364643 1.8026052
15.565767 50.99873 15.484693
15.551061 50.990635 15.275713
15.553952 50.998428 15.082662
15.561797 51.01067 14.895118
14.751946 50.507454 5.5943112
14.491595 50.36306 1.9604781
15.551003 51.043053 17.664297
15.560621 51.05703 17.451654
15.556311 51.058319 17.228264
15.556234 51.063389 17.011461
15.486625 51.005291 16.734394
15.435858 50.988304 15.462781
15.47242 51.02626 15.294614
14.64743 50.494183 5.4669914
15.495777 51.07988 18.642736
15.495866 51.084988 18.408489
15.493929 51.088188 18.175196
15.344492 50.985001 16.499943
15.298542 50.964878 15.445493
14.621946 50.531662 6.3311038
14.566862 50.495586 5.6288204
14.52985 50.482254 4.6534209
15.417471 51.097111 19.176136
15.404935 51.090481 18.921177
15.407597 51.097645 18.685949
15.223013 50.992916 15.294427
14.479199 50.494568 5.5239615
15.28882 51.084251 18.943064
15.286071 51.08614 18.701891
15.275363 51.080673 18.455673
15.271119 51.085308 17.990751
15.452038 51.29882 21.900036
15.16257 51.076111 18.944534
15.165929 51.083153 18.709873
15.143951 51.066811 18.451698
15.137239 51.064468 18.213127
15.157949 51.087341 18.005505
14.284538 50.47525 5.5921226
15.033277 51.074978 18.928961
15.02535 51.070923 18.682346
15.032655 51.080929 18.455259
15.020487 51.072853 18.21084
15.029689 51.084538 17.991571
14.203028 50.477562 5.7508912
14.880248 51.067314 18.890226
14.872551 51.062553 18.644217
14.880025 51.071907 18.417751
14.868094 51.063133 18.173941
14.104834 50.472603 5.6285768
14.090375 50.460407 5.4904556
14.740633 51.070644 19.115814
14.729836 51.062027 18.86285
14.728211 51.062 18.623569
14.712963 51.04916 18.373083
14.724475 51.061424 18.154249
14.553584 50.918228 15.254745
13.999902 50.456852 5.6494365
14.601833 51.067661 19.108547
14.597169 51.063953 18.862246
14.590314 51.058167 18.617094
14.58702 51.055733 18.379267
14.58164 51.051323 18.142521
14.428226 50.914402 15.259501
13.923923 50.465477 5.8160644
13.911118 50.453777 5.6782603
14.451056 51.045067 19.093605
14.458018 51.051701 18.860413
14.457274 51.051014 18.621878
14.448717 51.042908 18.378231
14.449508 51.043682 18.147974
14.307987 50.909622 15.274418
13.827819 50.45602 5.712184
13.821777 50.450325 5.5749359
13.814867 50.44381 5.4378524
14.399126 51.110992 20.721832
14.332438 51.043926 19.111177
14.328625 51.039757 18.865597
14.333934 51.044296 18.633636
14.331532 51.041489 18.396414
14.327046 51.036701 18.160265
13.738348 50.450657 5.7467675
13.732654 50.444965 5.609766
14.205005 51.031055 19.116385
14.212787 51.037453 18.883772
14.212909 51.036518 18.645777
14.205264 51.028152 18.402639
13.645097 50.439274 5.6450348
14.050882 50.99799 18.622475
14.045408 50.989407 18.15099
14.039568 50.982162 17.916883
13.924404 50.85355 15.298405
13.862721 50.780117 13.237223
13.829785 50.744892 12.702551
13.6527 50.658493 10.914772
13.646234 50.650742 10.757012
13.524084 50.617241 10.165792
13.512528 50.604214 10.011183
13.513758 50.603535 9.8625965
13.41793 50.605778 10.184327
13.323007 50.605801 10.356706
13.319986 50.600285 10.204953
13.31592 50.593769 10.053677
12.626607 50.497219 6.4348974
12.541902 50.501629 6.7250175
12.544211 50.499104 6.5896521
12.545672 50.49575 6.4543796
12.459484 50.501961 6.8735466
12.465214 50.497734 6.6030865
12.452606 50.480343 6.4667692
12.366494 50.494698 7.0185876
12.370759 50.493797 6.8835106
12.369665 50.482479 6.6128755
12.371388 50.479084 6.4781284
12.285317 50.493202 7.03087
12.279177 50.476456 6.7595482
12.2819 50.473858 6.6249743
12.290867 50.477459 6.4911151
12.194428 50.49004 7.31391
12.193216 50.466846 6.7725201
12.196086 50.464233 6.6382103
12.205193 50.467831 6.5046229
12.115836 50.460564 6.6517963
12.125063 50.464188 6.5183926
12.03416 50.458347 6.7993188
12.037234 50.455826 6.66536
12.039473 50.452477 6.5314894
12.033811 50.44125 6.3971548
11.956647 50.460567 7.0850787
11.961454 50.459843 6.9510627
11.958384 50.451233 6.8162794
11.961514 50.448845 6.6824932
11.970864 50.452682 6.5494542
11.972334 50.448643 6.4157653
11.885604 50.459675 7.1034613
11.883436 50.452057 6.9686012
11.887453 50.450657 6.8348246
11.883596 50.441368 6.7003655
11.89299 50.44537 6.5675087
11.894511 50.441486 6.4339895
11.545008 50.198074 1.6746913
27.832767 52.309937 28.845074
27.759079 52.196682 27.058834
27.544834 52.193172 26.989223
27.407623 52.298256 28.703644
27.322308 52.210403 28.067364
27.155706 52.324245 30.993523
27.152962 52.250534 28.615501
27.178066 52.253822 28.051008
27.141977 52.172592 26.317928
26.865871 52.227371 30.27294
26.857233 52.167534 28.50193
26.956799 52.21579 27.413542
26.701414 52.257881 30.235018
26.691856 52.232246 29.635443
26.738867 52.253971 29.079256
26.747078 52.243473 28.501995
26.705067 52.140644 26.197569
26.42922 52.20475 30.112509
26.459713 52.212593 29.542631
26.479425 52.194126 28.390001
26.404209 52.096817 27.198318
26.278719 52.329918 32.484306
26.24865 52.285839 31.848171
26.199688 52.22604 31.205564
26.225742 52.229748 30.623751
26.233513 52.218193 30.034384
26.222826 52.191257 29.437984
26.282143 52.223457 28.894047
26.255018 52.183006 28.297543
26.271061 52.179058 27.734547
26.264252 52.121895 26.040154
26.227659 52.057613 24.916193
26.050734 52.33128 32.996983
26.09816 52.35252 32.414471
26.087692 52.324802 31.794086
26.058578 52.281471 31.166777
26.087973 52.251575 29.405434
25.923607 52.387074 32.978653
23.923559 51.998615 26.996408
23.916464 51.975945 26.441439
23.703018 52.04998 30.312735
23.711376 52.022991 29.163412
23.7019 51.997608 28.587477
23.661085 51.944565 27.995811
23.708981 51.970459 27.469944
23.72596 51.969032 26.927536
23.752176 51.975933 26.395485
23.699709 51.913208 25.818277
23.528221 52.043438 30.246029
23.555565 52.033295 29.112972
23.618597 52.072495 28.58881
23.538059 51.983784 27.969833
23.478937 51.914391 27.37285
23.575783 51.984131 26.884914
23.582975 51.957832 25.798422
23.421339 52.147999 31.993101
23.379845 52.07494 30.773636
23.344873 52.025959 30.163485
23.376667 52.037045 29.609152
23.390902 52.032543 29.046999
23.367601 51.994576 28.463663
23.419106 52.023758 27.937735
23.419916 52.007694 27.381487
23.376108 51.951881 26.801012
23.186903 52.043011 30.679115
23.170847 52.010998 30.084915
23.195539 52.01585 29.526941
23.169842 51.975525 28.937788
23.191998 51.978413 28.388546
23.183308 51.953728 27.822823
23.216623 51.96693 27.290806
23.199024 51.934551 26.729399
23.02948 52.020107 30.036587
23.02121 51.995358 29.455469
23.036446 51.97506 28.333261
23.086847 51.987076 27.255272
23.075703 51.960537 26.698883
23.060108 51.930145 26.144861
22.853743 51.998314 29.96903
22.859444 51.952267 28.269157
22.869801 51.944901 27.719175
22.882429 51.939732 27.17561
22.877455 51.918789 26.625097
22.641592 51.914387 28.730547
22.668901 51.922249 28.189407
22.738094 51.968307 27.681705
22.737286 51.950882 27.129816
22.725439 51.923588 26.575693
22.689131 51.874256 26.010998
22.502897 51.984879 30.387587
22.491655 51.956947 29.80266
22.520979 51.966263 29.253826
22.506861 51.936058 28.678387
22.533878 51.943577 28.137939
22.550079 51.941368 27.594526
22.575228 51.94746 27.061853
22.553125 51.894089 25.962355
22.369047 52.074562 32.696594
22.421247 52.104012 32.138618
22.367544 52.036278 31.500626
22.359318 52.010571 30.906475
22.365376 51.998177 30.329765
22.405371 52.017101 29.784452
22.421652 52.014423 29.226212
22.426964 52.001846 28.665194
22.414698 51.973331 28.097071
22.300079 52.298107 37.772411
22.290161 52.26849 37.101604
22.250149 52.211266 36.411312
22.270823 52.210522 35.786476
22.273937 52.193756 35.152943
22.246998 52.149426 34.500324
22.288639 52.168743 33.915661
22.275675 52.137798 33.290245
22.338768 52.177299 32.735813
22.296726 52.119934 32.099945
22.312508 52.116142 31.518465
22.298071 52.084679 30.919077
22.310623 52.078281 30.347149
22.279949 52.032261 29.748192
22.28952 52.023483 29.185781
22.222141 52.326866 37.118244
22.20302 52.26931 35.802956
22.18556 52.21431 34.522095
22.04278 52.219032 35.0979
21.230816 52.188362 34.775185
20.982029 52.181152 35.310173
20.160393 51.604748 23.650089
19.836069 51.756645 28.828016
19.728951 51.734367 28.23576
19.625565 51.765949 29.301744
19.630554 51.735748 28.203197
19.624582 51.695541 27.118217
19.621592 51.675682 26.583672
19.640049 51.676899 26.069237
19.512232 51.697559 27.616348
19.431061 51.760788 29.242092
19.426006 51.738281 28.685492
19.435312 51.730053 28.145672
19.446695 51.724033 27.612576
19.32023 51.719917 28.645998
19.354248 51.736179 28.126036
19.359165 51.723957 27.588606
19.236597 51.706223 28.075186
19.209759 51.662811 27.515013
19.247849 51.683578 27.00872
19.250456 51.669518 26.480818
19.278988 51.648609 24.939842
19.136457 51.697014 28.037573
19.140799 51.684341 27.501598
19.166183 51.692616 26.986259
19.175005 51.684677 26.463308
19.17429 51.651127 25.418694
19.1661 51.594883 23.882036
19.039604 51.711628 28.545465
19.014648 51.652561 27.444122
19.064884 51.68541 26.948267
19.067204 51.67094 26.421375
19.090891 51.677765 25.914459
19.078871 51.64941 25.386982
19.094852 51.648895 24.883453
18.954287 51.751476 29.621498
18.928013 51.690144 28.496952
18.917477 51.66235 27.945807
18.971401 51.698765 27.44903
18.939941 51.650532 26.892782
18.997049 51.673679 25.883263
19.004025 51.664055 25.369553
18.987909 51.631695 24.844698
18.882893 51.76059 29.6063
18.85038 51.710537 29.025723
18.858259 51.683689 27.941099
18.862095 51.670414 27.406738
18.87435 51.66568 26.883739
18.901537 51.675945 26.376261
18.912701 51.653938 25.343582
18.915621 51.640507 24.83226
18.793125 51.75946 30.13974
18.799812 51.731049 29.031755
18.787319 51.701302 28.473841
18.795237 51.692112 27.937683
18.823963 51.703835 27.422426
18.804888 51.668049 26.876135
18.842546 51.672501 25.854252
18.82016 51.617752 24.808571
18.838278 51.619755 24.312525
18.731079 51.769356 30.132055
18.721258 51.742012 29.564613
18.725309 51.728748 29.014616
18.694162 51.680454 28.44245
18.745266 51.714596 27.940487
18.705349 51.657906 27.373377
18.742338 51.678226 26.869801
18.769289 51.688648 26.362869
18.754499 51.657558 25.830427
18.773726 51.660553 25.32686
18.651691 51.803886 31.236567
18.63273 51.76693 30.649134
18.645388 51.761936 30.095219
18.659773 51.758854 29.548407
18.645332 51.727036 28.983786
18.677315 51.724953 27.920168
18.668478 51.699284 27.376972
18.692524 51.657646 25.299269
18.577587 51.904839 34.159676
18.582844 51.890987 33.559433
18.565474 51.854527 32.945332
18.589762 51.805477 30.644526
17.866108 51.929516 35.0793
17.607069 51.9174 34.870819
17.422575 51.919334 35.37608
17.449425 51.819405 31.236469
17.200243 51.881691 35.249256
17.257387 51.813057 31.152174
17.168446 51.912003 35.26001
17.197018 51.813251 31.135868
17.06674 51.919521 35.234814
16.519644 51.46796 26.506014
16.503872 51.484821 26.003325
16.549284 51.516949 25.528152
16.511385 51.461269 24.995596
16.500288 51.434036 24.487995
16.510235 51.429142 23.999912
16.516644 51.420647 23.513472
16.436319 51.496506 27.000498
16.434214 51.478191 26.480558
16.470793 51.500957 25.995218
16.442715 51.455479 25.465425
16.453602 51.451355 24.969725
16.473209 51.45657 24.484526
16.489319 51.458214 24.000765
16.464581 51.416878 23.493023
16.383219 51.508221 27.499382
16.394768 51.488171 26.467445
16.406904 51.485111 25.963717
16.439766 51.504139 25.479963
16.401608 51.448124 24.948116
16.421061 51.453228 24.46323
16.418434 51.435108 23.966814
16.424616 51.426437 23.480846
16.344988 51.503067 26.966232
16.336601 51.478149 26.442041
16.324238 51.449177 25.920162
16.387329 51.500362 25.459888
16.361328 51.45723 24.937311
16.393015 51.475361 24.461382
16.402748 51.47036 23.973608
16.3592 51.409103 23.453535
16.385778 51.407288 22.504034
16.375126 51.381245 22.019464
16.273643 51.495285 27.451586
16.31473 51.506893 26.444578
16.308443 51.484409 25.927256
16.31658 51.47739 25.425814
16.33942 51.486115 24.939613
16.321796 51.452042 24.428398
16.34367 51.459995 23.949818
16.324844 51.424934 23.447115
16.33975 51.425751 22.971725
16.221464 51.509899 27.958044
16.238626 51.511932 27.444916
16.227913 51.484432 26.914375
16.231272 51.47208 26.400375
16.261133 51.488075 25.911547
16.269163 51.480976 25.410339
16.248997 51.44405 24.893023
16.268026 51.448925 24.408991
16.252663 51.4174 23.904795
16.289457 51.44138 23.441063
16.285606 51.422337 22.953262
16.170687 51.526909 28.471857
16.196861 51.522224 27.434195
16.174078 51.481861 26.894232
16.195412 51.488701 26.39467
16.213079 51.491776 25.896652
16.172258 51.432693 25.359228
16.200764 51.447594 24.878592
16.213535 51.445866 24.390394
16.216599 51.433941 23.899477
16.234715 51.438141 23.423096
16.217005 51.389603 22.445955
16.150545 51.543083 27.946014
16.114782 51.47271 26.869141
16.129894 51.473007 26.36525
16.141287 51.469479 25.86306
16.142891 51.45565 25.358068
16.159115 51.457546 24.868477
16.17794 51.462345 24.384834
16.174776 51.44384 23.889671
16.168694 51.392761 22.432539
16.081631 51.575138 29.52297
16.066944 51.477886 26.851959
16.039747 51.433006 26.315331
16.068979 51.448608 25.827808
16.112949 51.480072 25.355246
16.104685 51.455872 24.847742
16.111078 51.447464 24.355614
16.095392 51.415638 23.852282
16.113161 51.419624 23.376688
16.015652 51.563751 29.488461
16.00075 51.498291 27.865589
16.006014 51.471813 26.824512
16.032877 51.48476 26.330654
16.019844 51.455135 25.810398
16.051527 51.473507 25.328955
16.049232 51.455662 24.826321
16.024828 51.41433 24.312511
16.05736 51.419006 23.356209
16.052982 51.399479 22.869833
15.944227 51.499054 27.844574
15.94334 51.465832 26.799324
15.958039 51.46571 26.296432
15.932765 51.422871 25.767454
15.976348 51.453995 25.295818
15.998305 51.462059 24.811634
15.992268 51.440273 24.311256
15.988711 51.421284 23.817276
15.981557 51.398582 23.32527
15.970825 51.372196 22.835289
15.93329 51.532684 27.337595
15.936827 51.504383 26.305542
15.887512 51.435612 25.757883
15.931035 51.46669 25.286404
15.928565 51.448528 24.784472
15.916277 51.419983 24.280165
15.943329 51.433758 23.808334
15.929982 51.404354 23.312244
15.820528 51.484676 27.794884
15.824759 51.473007 27.274385
15.848976 51.483017 26.775087
15.857529 51.476303 26.26787
15.862327 51.465702 25.762514
15.87552 51.464272 25.268185
15.866842 51.439468 24.762087
15.866659 51.423943 24.266968
15.770046 51.499985 28.310879
15.760425 51.47327 27.77372
15.800497 51.484337 26.764259
15.772957 51.438808 26.229013
15.819698 51.47348 25.756777
15.82677 51.465542 25.258047
15.811933 51.434162 24.747702
15.781071 51.3857 24.2309
15.826174 51.419086 23.772972
15.714862 51.463299 27.243063
15.75672 51.49255 26.758739
15.74715 51.466408 26.237772
15.775831 51.481701 25.751566
15.776808 51.467236 25.248434
15.737595 51.409599 24.720406
15.743241 51.400471 24.230543
15.653337 51.453827 27.220989
15.659275 51.444309 26.708324
15.697335 51.469666 26.225889
15.653704 51.406868 25.684309
15.714753 51.457321 25.227901
15.699765 51.425777 24.718174
15.705406 51.416645 24.22839
15.699928 51.380707 23.249939
15.617364 51.454884 26.697767
15.595494 51.415401 26.168377
15.641768 51.449841 25.697229
15.630351 51.421978 25.185915
15.627272 51.40329 24.685844
15.657118 51.420326 24.214209
15.555213 51.474243 27.707655
15.541142 51.442856 27.174009
15.576554 51.465332 26.685968
15.602474 51.477638 26.194416
15.564747 51.421085 25.657936
15.583288 51.425682 25.170021
15.604383 51.43317 24.688097
15.591565 51.404072 24.185583
15.506605 51.457844 27.169178
15.524123 51.460945 26.666851
15.531981 51.453697 26.161474
15.500085 51.403446 25.630167
15.512409 51.401352 25.138163
15.551475 51.428391 24.670216
15.538559 51.399185 24.168015
15.47202 51.455563 26.648666
15.46781 51.435246 26.134174
15.477763 51.430481 25.635763
15.478048 51.415348 25.134567
15.4686 51.389793 24.630875
15.455443 51.360363 24.129375
15.436305 51.4972 27.679058
15.397813 51.423447 26.610409
15.393342 51.402927 26.096531
15.421015 51.417553 25.612635
15.435732 51.402981 24.626434
15.428611 51.380157 24.129412
15.380355 51.483082 27.656338
15.34235 51.425678 27.104067
15.359377 51.428513 26.602808
15.378695 51.433979 26.107925
15.376447 51.416077 25.600708
15.394531 51.420475 25.113798
15.397022 51.40802 24.61945
15.389847 51.385181 24.122581
15.31456 51.42942 26.588234
15.3159 51.41531 26.079449
15.331436 51.416843 25.586596
15.331373 51.401493 25.086248
15.327648 51.382294 24.587889
15.265269 51.441097 27.082502
15.264371 51.424393 26.567186
15.277493 51.423172 26.06813
15.275005 51.405033 25.561529
15.256761 51.369835 25.047903
15.29508 51.396553 24.581512
15.28162 51.366863 24.08087
15.217664 51.487537 28.639429
15.200142 51.435997 27.56905
15.195956 51.399769 26.532478
15.220775 51.411358 26.043379
15.242071 51.419224 25.555698
15.247852 51.41024 25.060373
15.236514 51.367664 24.066475
15.179276 51.463634 27.572271
15.164452 51.431431 27.040678
15.181082 51.433907 26.540335
15.194057 51.432518 26.041662
15.197425 51.420738 25.540081
15.191116 51.398506 25.035879
15.193163 51.385571 24.542776
15.128049 51.472904 28.076448
15.105429 51.431923 27.532963
15.102154 51.412392 27.011703
15.10679 51.401714 26.502247
15.14924 51.432701 26.027739
15.11672 51.381535 25.49859
15.146165 51.39851 25.022419
15.080521 51.537407 30.212578
15.09494 51.487007 28.07095
15.089859 51.465279 27.542358
15.069031 51.426399 27.006357
15.08546 51.42868 26.50655
15.056692 51.381413 25.975445
15.02527 51.509735 29.636776
15.034919 51.487228 28.569454
15.039485 51.475952 28.044071
15.051784 51.47337 27.530676
15.030914 51.434391 26.994829
15.064981 51.456108 26.509533
15.059994 51.434948 25.997192
14.980585 51.513592 29.618103
14.99586 51.497166 28.55632
14.98877 51.472946 28.021061
15.006798 51.476639 27.512907
14.984468 51.420067 26.463509
15.00295 51.424721 25.970697
14.932647 51.548836 30.69516
14.953333 51.554554 30.16181
14.952859 51.537003 29.614609
14.930958 51.495914 29.054289
14.950854 51.501297 28.537563
14.966909 51.50259 28.022587
14.955811 51.474018 27.489668
14.913219 51.63168 32.39949
14.902143 51.601494 31.815443
14.908839 51.59129 31.256065
14.922463 51.588982 30.70978
14.926226 51.575912 30.160273
14.914351 51.545685 29.602596
14.915349 51.529942 29.063078
14.858818 51.639091 32.953724
14.863297 51.626007 32.378559
14.879943 51.62669 31.822462
14.875484 51.604084 31.252092
14.872181 51.582977 30.689722
14.881492 51.576099 30.145821
14.898039 51.57745 29.614557
14.887655 51.549065 29.064562
14.884557 51.528961 28.527332
14.817548 51.659237 33.527122
14.815556 51.638771 32.938278
14.858624 51.668797 32.402565
14.847577 51.638664 31.818516
14.837489 51.609829 31.242758
14.794221 51.697525 34.126553
14.81334 51.700493 33.552269
14.827948 51.698631 32.980167
14.815971 51.667294 32.387897
14.821496 51.655724 31.820663
14.804605 51.814877 36.001507
14.763408 51.749538 35.336052
14.775784 51.744553 34.739319
14.783386 51.734455 34.145042
14.791691 51.725376 33.559048
14.753491 51.86628 37.882313
14.780802 51.877083 37.268852
14.73318 51.746639 34.720722
14.746064 51.742519 34.132477
14.673518 51.748493 35.291771
14.717832 51.779491 34.730873
14.686408 51.872337 37.21571
14.637634 51.740498 34.669815
14.56819 51.730423 35.228054
14.617417 51.767136 34.673744
14.554625 51.762672 35.237171
14.503929 51.753838 35.20348
14.472863 51.768887 35.195217
14.383092 51.719139 35.120476
14.306739 51.731464 35.084389
14.260626 51.726223 35.059887
14.229859 51.739342 35.053291
14.161528 51.710167 35.005356
14.094623 51.687759 34.96207
13.655273 51.668259 34.789268
13.615667 51.680622 35.375137
13.446409 51.653923 35.270176
13.425877 51.667675 35.270947
13.311914 51.651577 35.21051
13.280436 51.65612 35.197098
12.688774 51.257828 24.142399
12.477099 51.258724 24.537916
12.450252 51.256187 24.52874
12.359536 51.258549 24.971598
10.965489 51.323914 29.391579
10.957602 51.297081 28.85746
10.951103 51.272202 28.331161
10.930608 51.361195 30.449249
10.956482 51.376396 29.938005
10.947356 51.347786 29.39584
10.923725 51.301163 28.845573
10.938319 51.302769 28.340561
10.949341 51.30006 27.837408
10.940763 51.272942 27.320766
10.94999 51.268333 26.826794
10.910248 51.412769 31.55616
10.90154 51.366646 30.448929
10.901407 51.349236 29.910227
10.923444 51.359928 29.401094
10.915599 51.33321 28.866899
10.92222 51.292145 27.331146
10.881065 51.493816 33.826481
10.890676 51.48732 33.255798
10.90102 51.481991 32.693382
10.891989 51.452412 32.115929
10.888769 51.430416 31.552757
10.891584 51.416275 31.003515
10.901882 51.377457 29.397694
10.876762 51.662094 37.523174
10.870924 51.634193 36.880081
10.864811 51.606255 36.246418
10.892505 51.621552 35.665558
10.880631 51.567566 34.443394
10.894843 51.566536 33.86982
10.884789 51.535004 33.274837
10.822309 51.669518 38.142891
10.85939 51.695923 37.548386
10.844211 51.656048 36.892391
10.843036 51.634323 36.264938
10.861169 51.637455 35.67152
10.850378 51.604084 35.049751
10.848912 51.563755 33.857761
10.787265 51.693588 38.788113
10.833332 51.710449 37.551353
10.832485 51.688862 36.914402
10.826629 51.661198 36.280464
10.737274 51.753994 39.432709
10.690565 51.752178 39.433929
10.025916 51.70507 39.714523
9.9660301 51.682529 39.651897
26.726259 51.382534 7.6450348
26.695459 51.416798 8.6910086
26.649374 51.449528 9.5456238
26.619122 51.444344 9.3294029
26.592192 51.474377 10.410125
26.568539 51.473682 10.191444
26.533278 51.496082 11.288418
26.540735 51.515705 11.07512
26.512985 51.541862 12.198255
26.503115 51.550655 11.974385
26.492502 51.574505 13.360366
26.499624 51.594681 13.13656
26.4797 51.607643 14.567321
26.465 51.614304 14.325568
26.456123 51.624592 14.088389
26.429644 51.623398 13.84476
26.486691 51.661503 15.583209
26.457245 51.659245 15.325329
26.402502 51.640488 15.056699
26.391764 51.649975 14.813398
26.363514 51.648003 14.56325
26.317619 51.634441 14.306759
26.481764 51.705143 16.624733
26.491371 51.728764 16.379827
26.295143 51.669968 15.291328
26.201725 51.625957 15.003467
26.182825 51.630116 14.757443
26.15414 51.627769 14.508582
26.455273 51.732895 17.692179
26.458689 51.753246 17.434759
26.07151 51.640877 15.224223
26.023741 51.626293 14.961833
25.981407 51.61507 14.704992
25.960052 51.617401 14.461184
25.928928 51.613186 14.214644
25.880205 51.597267 13.96196
25.341465 51.438591 10.921056
25.81901 51.593025 15.140754
25.81665 51.607964 14.904154
25.796988 51.611408 14.660372
25.767591 51.608303 14.413759
26.46594 51.828506 20.006987
26.438854 51.830769 19.70451
26.064558 51.701477 17.820818
25.640339 51.596199 15.096866
25.637636 51.610802 14.861219
25.602329 51.603722 14.610543
25.557211 51.589977 14.357361
26.444935 51.858551 21.221695
26.429144 51.868977 20.913641
26.417475 51.881813 20.612494
25.88991 51.710613 17.764187
25.424334 51.575058 15.029209
25.428768 51.594257 14.798918
25.385403 51.581535 14.5456
25.355251 51.577442 14.301476
26.344273 51.872734 21.807646
25.734131 51.727947 17.716471
25.23521 51.567623 14.973047
25.201101 51.560974 14.723855
25.172533 51.557865 14.479911
26.148565 51.862484 21.722393
25.48255 51.659744 17.870604
26.414968 51.969757 24.622499
26.044525 51.908974 21.726192
25.299507 51.651966 17.821606
22.765333 50.974392 3.3560274
25.601381 51.824947 21.819269
22.750723 51.012997 4.2524562
22.416471 50.983719 4.4445944
22.897388 51.249321 10.947181
21.547573 50.839314 2.0679274
22.847692 51.278477 11.756413
22.791216 51.337112 13.897946
22.098783 51.247623 10.903724
22.770845 51.570709 17.572569
22.115335 51.348228 15.120906
21.032309 51.027096 6.957315
20.976837 50.995457 6.7799411
20.975513 51.005196 6.6096387
20.901773 50.959419 6.4326859
20.874317 50.949039 6.2613068
22.743111 51.638241 20.288427
22.736418 51.650345 20.010288
22.007559 51.375549 15.330226
21.964586 51.357464 15.084703
21.033318 51.05357 8.3552227
20.995829 51.035793 8.1734238
20.957039 51.016949 7.9925871
20.91696 50.99704 7.8127279
20.895967 51.002354 7.4661098
20.844259 50.973343 7.2874055
20.776356 50.952904 6.7696147
20.767117 50.956322 6.5997777
20.740904 50.946636 6.4286795
20.721409 50.942093 6.2588234
22.730629 51.680237 21.478386
22.721653 51.691456 21.183205
22.70344 51.695755 20.883314
21.808844 51.358486 15.040155
21.693914 51.338459 13.913172
21.004946 51.067371 9.6028023
20.646681 50.953064 6.9324989
20.622829 50.945053 6.7612276
20.605671 50.942181 6.5913434
20.587339 50.93837 6.4218593
20.567841 50.933617 6.2527881
22.623491 51.69722 21.744379
22.037731 51.452255 18.270002
21.993347 51.434845 17.988207
21.662411 51.359806 15.001135
21.645752 51.360653 14.776047
21.570179 51.343246 14.098581
21.531532 51.32708 13.869691
20.538351 50.95649 7.2671161
20.470242 50.934826 6.7540326
20.453037 50.931801 6.5849333
20.4268 50.921711 6.4154983
20.415138 50.922935 6.247951
21.871128 51.432819 18.205339
21.860329 51.440071 17.951138
21.5191 51.356224 14.966977
21.480551 51.340569 14.729587
21.468935 51.344997 14.510686
21.426517 51.326134 14.275924
21.403992 51.322094 14.054971
21.350433 51.294525 13.819
20.375555 50.943947 7.0925341
20.344967 50.930489 6.9211998
20.321043 50.922176 6.7514977
20.311651 50.925186 6.5840054
20.285397 50.914982 6.415267
20.257984 50.903828 6.247117
21.710186 51.432388 17.907562
20.224342 50.93047 7.0923228
20.20158 50.923035 6.9227638
20.169813 50.908493 6.7528415
20.160389 50.911442 6.5861311
20.141979 50.907307 6.41891
20.114578 50.896069 6.2514529
21.578156 51.42189 18.122276
21.573471 51.433651 17.874804
20.050682 50.908173 6.9234734
20.042387 50.912006 6.7570686
20.017302 50.902576 6.5892258
19.991064 50.892193 6.4219584
19.971512 50.887051 6.2559333
19.962484 50.919773 7.2578621
19.933041 50.90694 7.0880346
19.910225 50.8993 6.9199181
19.886255 50.890701 6.7523508
19.868944 50.887341 6.586174
19.850498 50.883045 6.4203997
19.846548 50.890228 6.2563467
19.808989 50.904316 7.2299585
19.787291 50.897518 7.0619845
19.748228 50.887241 6.7285743
19.73868 50.889996 6.5638175
19.728004 50.891834 6.3992901
19.708406 50.886532 6.2343526
19.682659 50.899605 7.366231
19.640381 50.886765 7.0312352
19.625292 50.885109 6.8655381
19.624624 50.894947 6.702045
19.591713 50.878983 6.5352888
19.581018 50.880753 6.3715029
19.56142 50.87537 6.2073064
19.085398 50.704578 2.8492255
19.080723 50.710983 2.6889169
19.082607 50.722778 2.5270905
19.020346 50.702686 2.0525272
19.551781 50.892181 7.3709769
19.509489 50.879253 7.0371828
19.502148 50.883801 6.8730936
19.478157 50.874954 6.7073741
19.460804 50.871403 6.5430489
19.450104 50.873165 6.3798709
19.414974 50.855244 6.2149658
19.076281 50.734295 3.8150079
19.093624 50.758652 3.653821
19.07896 50.756908 3.4953363
19.446594 50.893051 7.5504231
19.419466 50.881847 7.3819914
19.398916 50.875874 7.2154269
