# .PCD v0.7 - Point Cloud Data file format
VERSION 0.7
FIELDS x y z
SIZE 4 4 4
TYPE F F F
COUNT 1 1 1
WIDTH 1612
HEIGHT 1
VIEWPOINT 0 0 0 1 0 0 0
POINTS 1612
DATA ascii
11.338509 53.271179 23.917379
11.346246 53.268932 23.599939
11.336537 53.247723 23.263105
11.338457 53.23946 22.94862
11.352403 53.244553 22.655962
11.348825 53.23061 22.344242
11.34749 53.219292 22.040728
11.363759 53.227386 21.765062
11.357227 53.210697 21.464254
11.358345 53.202526 21.177921
11.367371 53.203121 20.905708
11.368855 53.195625 20.628262
11.362695 53.179935 20.345821
11.370031 53.179081 20.083405
11.375176 53.175961 19.822058
11.372758 53.16473 19.555761
11.373524 53.157085 19.29673
11.38306 53.159084 19.050705
11.385108 53.153049 18.799763
11.374035 53.132893 18.538368
11.383056 53.13464 18.301207
11.395452 53.132294 17.829544
11.393175 53.122082 17.589615
11.388976 53.10989 17.350798
11.400093 53.114349 17.129139
11.394014 53.092918 16.667263
11.321189 53.399185 26.094893
11.329613 53.396416 25.738926
11.330126 53.385143 25.377199
11.331902 53.375488 25.024399
11.335093 53.367615 24.680403
11.335116 53.356461 24.337976
11.336766 53.347301 24.004215
11.340192 53.34029 23.678986
11.350401 53.340916 23.369068
11.343139 53.322536 23.039867
11.347727 53.317341 22.732735
11.344602 53.303864 22.420244
11.348747 53.298515 22.122614
11.345212 53.28492 21.819717
11.354337 53.285328 21.537907
11.355892 53.277603 21.25078
11.360156 53.272984 20.971367
11.367261 53.271595 20.699509
11.366798 53.262081 20.422518
11.363974 53.25013 20.14683
11.369496 53.247398 19.884726
11.367454 53.236553 19.61767
11.379435 53.241081 19.369843
11.373031 53.225727 19.105162
11.364412 53.208088 18.841825
11.381252 53.218212 18.608732
11.368426 53.196228 18.347834
11.387045 53.208469 18.12216
11.381375 53.194458 17.874872
11.379372 53.184521 17.634291
11.381083 53.171127 17.167156
11.396502 53.180309 16.950895
11.392879 53.16898 16.719666
11.387444 53.155781 16.48951
11.325485 53.494953 26.20742
11.325573 53.482677 25.835829
11.340555 53.487114 25.495121
11.329211 53.462677 25.119638
11.342439 53.465607 24.789122
11.333751 53.444565 24.43152
11.336055 53.43586 24.096901
11.340127 53.429306 23.770805
11.350972 53.430389 23.460011
11.334548 53.401669 23.11623
11.344624 53.402267 22.815123
11.347071 53.394653 22.508524
11.356859 53.39526 22.216648
11.348912 53.376575 21.906185
11.35353 53.371826 21.616926
11.355645 53.364487 21.328941
11.360461 53.360249 21.048664
11.368112 53.359245 20.775932
11.362926 53.344353 20.491806
11.371214 53.344311 20.227684
11.361273 53.324501 19.946257
11.365064 53.319805 19.684496
11.366682 53.312859 19.423866
11.382509 53.321499 19.18214
11.385426 53.316189 18.929508
11.375225 53.296722 18.666424
11.373961 53.28709 18.416145
11.376262 53.281437 18.172651
11.387878 53.285995 17.941311
11.392024 53.282536 17.705271
11.388606 53.270962 17.464779
11.389008 53.263626 17.230755
11.38757 53.254391 16.997744
11.390108 53.24955 16.770964
11.385062 53.236584 16.539991
11.384078 53.2281 16.315153
11.387262 53.224197 16.096252
11.38879 53.218586 15.878199
11.39463 53.217701 15.66583
11.392906 53.208721 15.449471
11.406467 53.195538 14.620039
11.325333 53.597336 26.318233
11.326282 53.585487 25.945707
11.319139 53.564926 25.567652
11.331614 53.566349 25.227623
11.326939 53.549011 24.8675
11.323637 53.533428 24.516279
11.326629 53.525021 24.180866
11.331379 53.518761 23.853968
11.338035 53.514801 23.535448
11.341842 53.507889 23.218319
11.347756 53.503483 22.909409
11.345958 53.490765 22.595133
11.346382 53.480675 22.289043
11.354233 53.478912 21.997576
11.344251 53.457729 21.687765
11.352096 53.45628 21.405447
11.357529 53.452328 21.124306
11.360563 53.445896 20.844379
11.366475 53.442753 20.571962
11.354192 53.419838 20.282137
11.360756 53.417686 20.018391
11.359755 53.407387 19.749687
11.372743 53.412495 19.500187
11.372815 53.403618 19.23975
11.370736 53.392517 18.980507
11.372044 53.385223 18.72826
11.376859 53.381863 18.482828
11.37411 53.370373 18.232782
11.374965 53.362915 17.98947
11.385201 53.365757 17.758186
11.382246 53.354355 17.516897
11.383101 53.347187 17.282068
11.382113 53.33812 17.048252
11.379293 53.327156 16.815474
11.386314 53.32695 16.593981
11.391654 53.325001 16.373281
11.383538 53.308559 16.143486
11.379561 53.296692 15.919721
11.385779 53.295929 15.706591
11.384434 53.28706 15.489472
11.38747 53.283005 15.277927
11.388945 53.277328 15.06717
11.321321 53.694592 26.42024
11.318498 53.678085 26.039503
11.321258 53.668053 25.675182
11.325257 53.659645 25.319761
11.325971 53.647827 24.96596
11.328136 53.637859 24.620928
11.331905 53.629887 24.284534
11.337425 53.624069 23.956646
11.335139 53.609821 23.62331
11.334724 53.597855 23.298454
11.336324 53.588306 22.981939
11.335104 53.57584 22.666903
11.346137 53.577057 22.373344
11.344511 53.564503 22.067795
11.350395 53.560387 21.776768
11.34349 53.542366 21.474096
11.354647 53.544361 21.198545
11.353042 53.532486 20.911428
11.354228 53.523827 20.631948
11.363634 53.524323 20.366123
11.360163 53.510841 20.089119
11.365092 53.506699 19.825569
11.36784 53.500298 19.563141
11.368421 53.49165 19.301868
11.366845 53.480774 19.041786
11.374168 53.479736 18.794456
11.36284 53.458458 18.531023
11.371689 53.459309 18.291506
11.367396 53.445938 18.041784
11.372405 53.442806 17.804224
11.375545 53.43774 17.567614
11.376826 53.430752 17.331984
11.382022 53.428112 17.102613
11.385448 53.423637 16.87413
11.381289 53.411018 16.641457
11.375318 53.396526 16.409872
11.379322 53.392948 16.189318
11.381662 53.387642 15.969604
11.382346 53.380623 15.750758
11.393346 53.38485 15.542255
11.384799 53.367989 15.320415
11.386934 53.355305 14.898017
11.39177 53.353138 14.692471
11.388999 53.342823 14.483285
11.396997 53.344196 14.283493
11.396355 53.32917 13.87748
11.31117 53.770779 26.50082
11.313424 53.759682 26.126719
11.31676 53.750053 25.761629
11.32133 53.742046 25.40543
11.322611 53.730629 25.050846
11.32534 53.721058 24.705023
11.33443 53.718769 24.374861
11.330933 53.70274 24.032167
11.329154 53.688839 23.698086
11.339025 53.688034 23.38616
11.326406 53.66256 23.048422
11.335589 53.661377 22.746109
11.347148 53.662987 22.451708
11.340991 53.645229 22.138731
11.342257 53.635834 21.840399
11.340926 53.623753 21.543457
11.347372 53.620392 21.260717
11.340979 53.603065 20.966549
11.347804 53.600426 20.692644
11.357625 53.601208 20.426067
11.354569 53.588001 20.148314
11.349166 53.572365 19.871918
11.357652 53.572086 19.614838
11.358595 53.563671 19.352867
11.362863 53.559017 19.097918
11.365057 53.552212 18.844046
11.370744 53.549343 18.596977
11.368866 53.538322 18.345289
11.370577 53.531334 18.100323
11.370334 53.52232 17.856419
11.373841 53.517502 17.619007
11.375486 53.51075 17.382568
11.38104 53.50835 17.152386
11.384819 53.504112 16.923088
11.375189 53.485386 16.684494
11.375387 53.47744 16.457193
11.373844 53.467693 16.230858
11.376488 53.462574 16.010387
11.377472 53.455738 15.790781
11.386517 53.449966 15.363552
11.382643 53.438095 15.146532
11.383213 53.431114 14.934964
11.385826 53.418949 14.518673
11.388587 53.407207 14.109741
11.39397 53.40575 13.910501
11.391724 53.396122 13.707867
11.317278 53.845997 26.612623
11.315628 53.830593 26.230299
11.314965 53.816559 25.8571
11.320073 53.809204 25.500118
11.326563 53.803619 25.151896
11.325148 53.789494 24.798122
11.320477 53.771984 24.446064
11.322178 53.761776 24.109713
11.330529 53.75914 23.78875
11.331131 53.748123 23.462315
11.333738 53.739525 23.144207
11.333519 53.727993 22.827564
11.330489 53.713547 22.512436
11.33478 53.707363 22.212034
11.341552 53.704082 21.919493
11.340671 53.692532 21.621754
11.332029 53.672607 21.319056
11.341605 53.672886 21.04323
11.34361 53.664986 20.76226
11.353819 53.666245 20.494932
11.356484 53.659348 20.222532
11.351503 53.644207 19.945303
11.365809 53.650341 19.693359
11.361759 53.636486 19.424572
11.366433 53.632309 19.168774
11.357999 53.613914 18.902525
11.375114 53.623573 18.666119
11.368044 53.606911 18.407948
11.358866 53.58807 18.151093
11.370215 53.59174 17.917479
11.368377 53.581127 17.673859
11.37033 53.574745 17.436684
11.364672 53.560177 17.195257
11.374473 53.562531 16.970539
11.37675 53.556786 16.741476
11.365565 53.536499 16.503292
11.370163 53.533455 16.281225
11.379003 53.535095 16.064871
11.368404 53.515717 15.834824
11.373959 53.51395 15.620138
11.37793 53.51054 15.406209
11.380326 53.505493 15.193059
11.381158 53.498821 14.980712
11.380432 53.490536 14.769192
11.384278 53.487263 14.562854
11.380495 53.475807 14.352974
11.387528 53.476109 14.152341
11.386949 53.468243 13.94821
11.384912 53.458866 13.744856
11.395332 53.44891 13.154778
11.397581 53.437473 12.76579
11.303756 53.89801 26.723404
11.307337 53.88855 26.347641
11.302823 53.870338 25.966316
11.313232 53.868988 25.61577
11.320435 53.864304 25.266699
11.315017 53.845833 24.904959
11.325283 53.844997 24.573193
11.313364 53.819778 24.214918
11.327199 53.823315 23.900049
11.318712 53.802334 23.559025
11.316981 53.78904 23.233362
11.332217 53.794682 22.936161
11.334866 53.786591 22.626768
11.339849 53.781254 22.325384
11.326938 53.756355 22.00576
11.331712 53.751125 21.713739
11.33398 53.743294 21.423002
11.328544 53.727146 21.12727
11.336304 53.725658 20.851805
11.336467 53.715965 20.571285
11.344915 53.715508 20.304312
11.351158 53.712761 20.038406
11.355209 53.707733 19.773607
11.35708 53.700443 19.509947
11.362261 53.696899 19.253298
11.36536 53.691193 18.997717
11.355296 53.671211 18.731842
11.359783 53.667255 18.484259
11.373532 53.673519 18.248798
11.36285 53.65321 17.992182
11.361454 53.64315 17.747751
11.36384 53.637314 17.509762
11.375874 53.642082 17.283283
11.363049 53.619873 17.036793
11.365711 53.614616 16.806978
11.372463 53.613895 16.583126
11.359886 53.592251 16.345201
11.369091 53.594364 16.12809
11.364807 53.581902 15.90207
11.364777 53.574142 15.681812
11.375103 53.57769 15.471764
11.371847 53.566582 15.253184
11.373023 53.560349 15.040055
11.372639 53.552494 14.827747
11.379508 53.545258 14.41421
11.38072 53.539326 14.208527
11.381809 53.519146 13.600019
11.303012 53.96867 26.869226
11.298523 53.950199 26.477766
11.304064 53.943172 26.110107
11.310816 53.93774 25.75132
11.314266 53.928871 25.394114
11.314432 53.916588 25.038544
11.320837 53.911461 24.698753
11.314578 53.892498 24.3465
11.319605 53.886269 24.016804
11.316798 53.871567 23.681728
11.315893 53.859169 23.355097
11.326961 53.860207 23.05022
11.33037 53.852947 22.739914
11.331059 53.842865 22.431019
11.323956 53.82436 22.117043
11.339719 53.831238 21.837023
11.337627 53.818592 21.538815
11.338166 53.808998 21.248388
11.346711 53.808365 20.971842
11.342375 53.793713 20.684029
11.34623 53.7882 20.409903
11.342439 53.774437 20.130919
11.347094 53.770073 19.865282
11.349565 53.763439 19.600775
11.349864 53.754551 19.337435
11.359018 53.755478 19.086845
11.360628 53.748257 18.831501
11.360178 53.738895 18.57728
11.368903 53.739674 18.335333
11.370084 53.732311 18.088797
11.363629 53.716717 17.837917
11.360878 53.705276 17.59363
11.367692 53.704361 17.361008
11.366939 53.69529 17.12406
11.364344 53.684307 16.888155
11.365764 53.677788 16.658361
11.371304 53.675835 16.434483
11.357443 53.652874 16.196753
11.365473 53.65379 15.979587
11.365934 53.646561 15.758403
11.364744 53.637615 15.538117
11.367936 53.633499 15.323339
11.3635 53.621185 15.104845
11.375688 53.626953 14.900606
11.38643 53.63121 14.696893
11.377323 53.614048 14.480912
11.385294 53.608246 14.072658
11.384005 53.599731 13.867537
11.389588 53.59169 13.467426
11.383995 53.578705 13.264572
11.390455 53.565132 12.678943
11.274529 54.017593 26.95257
11.284244 54.014812 26.582561
11.272243 53.988071 26.184973
11.293397 53.998547 25.847338
11.302192 53.995476 25.496572
11.288973 53.968155 25.118885
11.300706 53.968811 24.785526
11.295077 53.950401 24.432585
11.30555 53.950077 24.109121
11.298523 53.930553 23.766424
11.298223 53.91869 23.439087
11.314837 53.925739 23.14024
11.313876 53.913521 22.822493
11.32019 53.909523 22.519478
11.318794 53.897179 22.211241
11.314706 53.882042 21.904493
11.307941 53.864124 21.599281
11.308921 53.854908 21.308313
11.323134 53.860416 21.037497
11.324552 53.851974 20.755264
11.328905 53.846901 20.480452
11.320259 53.827686 20.194712
11.336148 53.835552 19.940432
11.334489 53.814953 19.405188
11.338608 53.810265 19.148113
11.34065 53.803417 18.892126
11.346199 53.800522 18.642891
11.344159 53.789433 18.389099
11.357006 53.794724 18.152964
11.351002 53.779518 17.901348
11.348694 53.768456 17.656321
11.350193 53.76165 17.417692
11.349837 53.752918 17.180073
11.347635 53.742268 16.943493
11.349441 53.736076 16.713022
11.355357 53.734447 16.488466
11.353686 53.724644 16.259832
11.344345 53.706585 16.027376
11.357066 53.712589 15.815063
11.356267 53.703976 15.594006
11.359841 53.700188 15.378454
11.361837 53.694756 15.16369
11.356185 53.681103 14.945304
11.373339 53.692238 14.745323
11.364573 53.67535 14.528626
11.366531 53.670143 14.321359
11.367009 53.663399 14.114834
11.366015 53.655125 13.909073
11.376033 53.65881 13.712011
11.377279 53.632133 12.914274
11.27797 54.107494 27.069111
11.27489 54.090179 26.676119
11.277242 54.079208 26.299629
11.2807 54.069736 25.932119
11.285418 54.061913 25.573463
11.286844 54.050663 25.216429
11.284998 54.036007 24.861074
11.279899 54.017971 24.507452
11.290886 54.018028 24.183302
11.298999 54.015091 23.860487
11.294421 53.998276 23.525469
11.301703 53.994804 23.212326
11.296246 53.977413 22.887205
11.31309 53.984886 22.596739
11.302069 53.961712 22.274649
11.308668 53.958191 21.980179
11.312747 53.952045 21.68697
11.309122 53.937565 21.388731
11.308166 53.926186 21.098236
11.31001 53.918045 20.815325
11.325415 53.924969 20.552086
11.322619 53.912003 20.271578
11.322859 53.902515 19.998425
11.337111 53.90855 19.744289
11.327478 53.888481 19.467628
11.332032 53.884109 19.209778
11.328969 53.87151 18.947298
11.334908 53.868893 18.697348
11.344465 53.870338 18.453962
11.329559 53.845127 18.189503
11.346527 53.854889 17.959047
11.344626 53.844116 17.713215
11.346526 53.837601 17.473776
11.346565 53.829147 17.235342
11.33895 53.812447 16.992821
11.346945 53.812859 16.766647
11.347371 53.805107 16.536293
11.351943 53.801956 16.311798
11.342976 53.784153 16.078506
11.344136 53.777458 15.855868
11.355616 53.782055 15.643449
11.359542 53.778515 15.427048
11.343743 53.753628 15.197904
11.356578 53.759903 14.992189
11.34965 53.744801 14.773935
11.365633 53.754608 14.573788
11.36176 53.742954 14.361458
11.362533 53.736397 14.154141
11.368038 53.735027 13.951622
11.365892 53.725433 13.74577
11.368547 53.721092 13.544597
11.277839 54.19426 27.177782
11.284552 54.187603 26.798607
11.283169 54.172165 26.413824
11.287406 54.163277 26.045357
11.292895 54.156036 25.685736
11.295089 54.145367 25.32773
11.298746 54.136566 24.978437
11.294445 54.119137 24.623766
11.301389 54.114441 24.29163
11.295625 54.095837 23.947237
11.301481 54.090351 23.624981
11.309443 54.087399 23.310879
11.314656 54.081577 22.998117
11.312099 54.067337 22.680147
11.31182 54.055805 22.370275
11.313956 54.047123 22.068346
11.313487 54.035728 21.767805
11.320821 54.033119 21.481361
11.320502 54.022217 21.189856
11.322976 54.014549 20.905922
11.317749 53.998547 20.617144
11.32077 53.991776 20.341938
11.321507 53.982632 20.067953
11.341669 53.99498 19.818895
11.338025 53.981277 19.547173
11.332136 53.965244 19.276775
11.340615 53.965107 19.024855
11.341523 53.956779 18.768267
11.345973 53.95245 18.518381
11.348443 53.94606 18.269522
11.348946 53.937626 18.021721
11.347492 53.927155 17.775011
11.355571 53.927212 17.539955
11.350308 53.912785 17.295364
11.343126 53.89637 17.05195
11.345707 53.890709 16.819834
11.346519 53.883205 16.588652
11.357368 53.886734 16.368216
11.354738 53.875652 16.13883
11.350372 53.862766 15.910459
11.350268 53.854607 15.68779
11.348508 53.844727 15.466033
11.345103 53.833134 15.245211
11.352208 53.833038 15.034209
11.3517 53.824741 14.819527
11.355759 53.821472 14.609967
11.370629 53.829987 14.40951
11.365575 53.816959 14.19713
11.365193 53.809063 13.989701
11.369572 53.806381 13.787006
11.360023 53.788685 13.577204
11.374094 53.796604 13.383558
11.367949 53.782707 13.179132
11.366693 53.774158 12.9792
11.277509 54.285931 27.310186
11.285197 54.280014 26.930016
11.28023 54.260201 26.536934
11.289985 54.257149 26.17474
11.282475 54.235046 25.792587
11.29017 54.230198 25.440836
11.289933 54.216736 25.083576
11.295992 54.210529 24.742001
11.303799 54.206493 24.408867
11.303769 54.193947 24.07032
11.305608 54.183693 23.740191
11.299561 54.164886 23.404873
11.315458 54.17065 23.104605
11.30866 54.151413 22.779057
11.309117 54.140415 22.468264
11.317091 54.137924 22.171877
11.317383 54.127094 21.870337
11.30989 54.10783 21.563885
11.310198 54.097363 21.271566
11.318557 54.09594 20.993015
11.319291 54.086254 20.709473
11.328335 54.085873 20.439363
11.324401 54.071327 20.158342
11.339788 54.078201 19.902393
11.336769 54.064938 19.629753
11.3315 54.049339 19.358431
11.329523 54.037495 19.094172
11.336521 54.035629 18.84243
11.34712 54.03783 18.597244
11.344542 54.025677 18.341951
11.334255 54.005199 18.082439
11.350369 54.01376 17.851027
11.347539 54.001667 17.604473
11.348536 53.99387 17.36426
11.347674 53.984138 17.125069
11.350794 53.978855 16.891977
11.346279 53.965332 16.654844
11.339939 53.949909 16.418818
11.343632 53.945526 16.193565
11.351596 53.945885 15.973911
11.357949 53.944557 15.754985
11.356689 53.935017 15.532222
11.347738 53.917187 15.30588
11.355293 53.917397 15.093945
11.36133 53.916019 14.882677
11.365856 53.913067 14.672097
11.356579 53.895195 14.453835
11.358055 53.889069 14.244856
11.364246 53.888119 14.040668
11.362785 53.878933 13.83314
11.372359 53.881763 13.634163
11.355465 53.855988 13.420495
11.374826 53.869522 13.230282
11.373961 53.861214 13.029376
11.359013 53.837734 12.822082
11.368073 53.840271 12.629734
11.385958 53.796276 10.917256
11.251361 54.349197 27.408386
11.255328 54.338776 27.020161
11.260221 54.329678 26.641008
11.266191 54.322063 26.270809
11.268748 54.31089 25.902269
11.281972 54.311905 25.55678
11.268432 54.283249 25.177448
11.275229 54.277569 24.835131
11.288581 54.279423 24.508175
11.274749 54.25119 24.148222
11.282124 54.246819 23.824253
11.286641 54.239468 23.501692
11.288317 54.229156 23.180588
11.282142 54.210327 22.854382
11.293339 54.210979 22.556007
11.301987 54.208973 22.258831
11.292663 54.187222 21.94368
11.290951 54.174088 21.642889
11.297103 54.169827 21.356096
11.300842 54.163055 21.070532
11.307484 54.159641 20.792366
11.295801 54.136143 20.497177
11.308478 54.139683 20.23358
11.313611 54.135033 19.965021
11.316549 54.128098 19.697599
11.311822 54.112854 19.425564
11.321419 54.11351 19.172012
11.31789 54.09985 18.908134
11.328997 54.102394 18.662233
11.321304 54.084408 18.400717
11.328479 54.082855 18.156805
11.333756 54.07933 17.913826
11.325692 54.061287 17.661257
11.338662 54.066395 17.430775
11.338313 54.057011 17.190762
11.341935 54.052071 16.956846
11.337923 54.038879 16.71888
11.332082 54.023788 16.482016
11.330339 54.013271 16.251102
11.338747 54.01392 16.030687
11.339561 54.006367 15.806327
11.344717 54.003624 15.58746
11.34224 53.992641 15.364849
11.338118 53.979954 15.143189
11.33845 53.972191 14.926862
11.343332 53.969448 14.715655
11.346707 53.965134 14.505156
11.348584 53.959259 14.295384
11.34897 53.951832 14.086364
11.360321 53.956364 13.886037
11.357802 53.945908 13.678421
11.353819 53.933926 13.471618
11.360972 53.934074 13.273089
11.354132 53.919121 13.067815
11.358539 53.916405 12.87053
11.35524 53.905399 12.67034
11.356952 53.899872 12.474295
11.247808 54.430149 27.522749
11.248095 54.415295 27.126291
11.249206 54.401665 26.739017
11.246702 54.384274 26.353575
11.2638 54.389133 26.005892
11.254349 54.364502 25.623993
11.255524 54.352039 25.265257
11.267735 54.352161 24.929186
11.272138 54.343784 24.587568
11.26862 54.326794 24.240644
11.27666 54.322926 23.915852
11.281838 54.316071 23.592459
11.27421 54.295166 23.257175
11.283672 54.293484 22.950066
11.285422 54.283413 22.637697
11.289559 54.276184 22.333258
11.291076 54.266224 22.030184
11.29517 54.259296 21.734859
11.286313 54.238194 21.428308
11.301101 54.243439 21.154402
11.303044 54.234623 20.869213
11.302598 54.223316 20.585323
11.299777 54.209541 20.302771
11.305415 54.205257 20.033443
11.308855 54.198677 19.765247
11.304627 54.183784 19.492434
11.314711 54.184792 19.2381
11.322777 54.183693 18.984715
11.312073 54.162071 18.715603
11.321658 54.16288 18.469921
11.318017 54.149273 18.214289
11.32372 54.146038 17.970577
11.327533 54.140835 17.727819
11.329465 54.133675 17.486048
11.323739 54.118229 17.240162
11.327735 54.113533 17.005573
11.329948 54.106979 16.771902
11.324507 54.092152 16.534281
11.32907 54.08836 16.30743
11.326 54.076313 16.076681
11.333139 54.0755 15.8563
11.338667 54.073006 15.636662
11.330529 54.055691 15.40876
11.332805 54.049809 15.190835
11.345673 54.055538 14.982444
11.332614 54.033112 14.757454
11.342451 54.035679 14.550447
11.344669 54.030022 14.339884
11.345393 54.022804 14.130068
11.344631 54.014042 13.921021
11.354881 54.017296 13.720527
11.351221 54.005512 13.512919
11.3461 53.992214 13.306143
11.34751 53.970848 12.704919
11.35588 53.972378 12.511533
11.249713 54.509357 27.621582
11.25511 54.500095 27.231657
11.24777 54.47681 26.828913
11.264196 54.480522 26.471622
11.263465 54.465237 26.094223
11.277971 54.4673 25.747087
11.270453 54.444942 25.37315
11.269022 54.429661 25.015125
11.278768 54.42712 24.679621
11.27582 54.410625 24.331818
11.274632 54.396332 23.992538
11.285226 54.39539 23.67511
11.293051 54.39156 23.358994
11.298123 54.384857 23.044237
11.290339 54.364056 22.717812
11.27457 54.334591 22.386629
11.296987 54.347725 22.108574
11.28603 54.323986 21.793367
11.298421 54.326317 21.511221
11.30321 54.320381 21.223955
11.300295 54.306072 20.931812
11.300244 54.295097 20.647165
11.308558 54.293518 20.375839
11.30384 54.277687 20.093756
11.307662 54.271427 19.824785
11.320257 54.274979 19.568541
11.314269 54.258171 19.296076
11.322703 54.257381 19.041901
11.323541 54.248348 18.783134
11.32231 54.237167 18.525518
11.330338 54.236279 18.279928
11.33077 54.227154 18.029913
11.334961 54.222271 17.78627
11.325757 54.202797 17.533211
11.331914 54.200279 17.296831
11.330455 54.189514 17.056293
11.332995 54.183231 16.821795
11.327879 54.168659 16.583342
11.326848 54.158661 16.350834
11.335948 54.159824 16.128811
11.33148 54.146248 15.89817
11.343284 54.15052 15.682349
11.335446 54.133438 15.453598
11.338016 54.127792 15.234818
11.338998 54.120491 15.016848
11.344514 54.118202 14.803991
11.342374 54.107651 14.587637
11.351007 54.108891 14.380402
11.345807 54.09515 14.165671
11.345284 54.086567 13.955827
11.349523 54.083218 13.750649
11.346068 54.071579 13.542321
11.360025 54.078896 13.345976
11.353721 54.064285 13.139084
11.352307 54.055038 12.936618
11.349499 54.044342 12.734879
11.351688 54.039112 12.53728
11.346138 54.025558 12.336974
11.353637 54.011318 11.756156
11.36466 53.986843 10.809352
11.259069 54.588406 27.72809
11.260543 54.574722 27.329933
11.253735 54.552036 26.926359
11.266099 54.551186 26.560995
11.265849 54.536442 26.18281
11.271472 54.528553 25.820662
11.278522 54.522518 25.46719
11.282377 54.513145 25.115282
11.283055 54.500462 24.76499
11.27572 54.479065 24.409508
11.284748 54.47617 24.083055
11.290906 54.47028 23.757994
11.294209 54.461411 23.434368
11.294675 54.449585 23.112228
11.292318 54.434822 22.791618
11.292259 54.42281 22.479053
11.294635 54.413685 22.174381
11.299579 54.407585 21.877443
11.302005 54.398865 21.581812
11.307185 54.39336 21.293728
11.309955 54.385342 21.006893
11.310327 54.374825 20.721348
11.308315 54.361828 20.43713
11.314754 54.358315 20.166122
11.313539 54.346493 19.890385
11.326504 54.350449 19.633286
11.320879 54.334034 19.359966
11.318568 54.321411 19.093653
11.325279 54.318844 18.839727
11.318744 54.301826 18.575823
11.32705 54.30125 18.3295
11.333447 54.298679 18.084095
11.326498 54.281563 17.829096
11.334796 54.281292 17.590961
11.335494 54.272785 17.348562
11.328507 54.255959 17.102152
11.319603 54.237141 16.856955
11.326441 54.235661 16.627689
11.32566 54.225933 16.394419
11.335006 54.227367 16.171629
11.336751 54.220573 15.944886
11.330816 54.205482 15.714446
11.335216 54.201756 15.494099
11.344073 54.202965 15.27897
11.339221 54.189301 15.055784
11.338845 54.180595 14.837864
11.343036 54.176933 14.624996
11.345715 54.171696 14.412848
11.353083 54.171619 14.205479
11.346571 54.156521 13.990798
11.351008 54.153389 13.784817
11.341482 54.135155 13.571887
11.355606 54.142654 13.374811
11.349465 54.12822 13.167192
11.354548 54.126015 12.967547
11.351919 54.115509 12.764994
11.347898 54.10355 12.563185
11.355306 54.104015 12.368756
11.342145 54.082279 12.165107
11.356877 54.083351 11.782149
11.352633 54.071407 11.586835
11.360096 54.072147 11.397998
11.366336 54.071602 11.209537
11.362045 54.052544 10.828523
11.237825 54.622971 27.789671
11.23508 54.60471 27.383688
11.237611 54.592686 26.994274
11.241115 54.582039 26.613907
11.241103 54.567726 26.235292
11.25633 54.570751 25.88693
11.254249 54.554638 25.518806
11.263108 54.551014 25.173445
11.278501 54.554913 24.843414
11.276422 54.539513 24.494093
11.266302 54.515377 24.13969
11.27273 54.509918 23.814112
11.276302 54.50148 23.489965
11.277034 54.490082 23.167297
11.274941 54.475739 22.846157
11.280247 54.46981 22.539528
11.272638 54.449722 22.221447
11.282982 54.449738 21.93037
11.280443 54.435631 21.627926
11.28058 54.42466 21.333162
11.283523 54.416954 21.045912
11.289402 54.412651 20.76601
11.292971 54.405937 20.487295
11.30506 54.408772 20.221645
11.293233 54.385342 19.933567
11.300918 54.383583 19.670189
11.300973 54.373543 19.402145
11.304413 54.367355 19.140965
11.311353 54.365143 18.886459
11.310667 54.354656 18.62746
11.302264 54.335808 18.36422
11.314504 54.33976 18.123718
11.313462 54.329227 17.873468
11.31622 54.322975 17.629541
11.322886 54.321106 17.391739
11.310289 54.298225 17.139675
11.313262 54.292507 16.903891
11.320334 54.29137 16.673939
11.313871 54.275513 16.43516
11.317472 54.270752 16.207012
11.325353 54.270752 15.984394
11.319609 54.255951 15.753331
11.318165 54.245934 15.527849
11.321119 54.240791 15.307739
11.328566 54.24062 15.092791
11.328366 54.232189 14.874238
11.326591 54.222111 14.656538
11.341746 54.230534 14.452068
11.336923 54.217278 14.235904
11.330549 54.202408 14.020659
11.328879 54.192722 13.810237
11.331996 54.188297 13.604416
11.33369 54.182384 13.399258
11.340281 54.181843 13.19842
11.339172 54.173 12.994568
11.343023 54.16959 12.794912
11.345525 54.164768 12.595837
11.350494 54.111599 11.039944
11.228897 54.674625 27.886234
11.235699 54.667248 27.494242
11.234303 54.650948 27.096697
11.229192 54.630764 26.701078
11.238937 54.627533 26.336138
11.24536 54.620823 25.972759
11.24848 54.610664 25.611
11.262617 54.613068 25.271879
11.254499 54.59082 24.90641
11.247902 54.570518 24.549713
11.247866 54.557774 24.20845
11.2596 54.558357 23.889023
11.258599 54.544956 23.557556
11.269733 54.545254 23.247505
11.273143 54.537144 22.932173
11.273823 54.526184 22.618273
11.27179 54.512398 22.305853
11.277418 54.507286 22.007631
11.280522 54.499542 21.710707
11.270604 54.477535 21.402714
11.279219 54.476215 21.120907
11.285506 54.472466 20.840242
11.28411 54.460361 20.554764
11.291154 54.457729 20.28249
11.295985 54.452789 20.011328
11.304096 54.451591 19.747097
11.299062 54.436028 19.472481
11.302883 54.430359 19.210506
11.304615 54.422504 18.949636
11.309889 54.418667 18.695402
11.307512 54.406528 18.436769
11.320148 54.410999 18.195387
11.313779 54.394703 17.938972
11.316892 54.388924 17.694223
11.312334 54.374832 17.445347
11.311659 54.365105 17.202698
11.309123 54.353436 16.961105
11.310617 54.346279 16.725494
11.298516 54.324337 16.481199
11.314233 54.332916 16.261929
11.316433 54.32679 16.033871
11.310948 54.312355 15.802105
11.315788 54.309277 15.580434
11.331132 54.31773 15.368414
11.320652 54.298088 15.13945
11.320695 54.290001 14.920185
11.331433 54.293633 14.710171
11.328377 54.282307 14.492468
11.329948 54.276085 14.279701
11.323802 54.261539 14.063731
11.322352 54.252171 13.852581
11.33195 54.25486 13.649833
11.340168 54.2561 13.447584
11.328074 54.235355 13.234936
11.333482 54.233658 13.033986
11.343889 54.237427 12.83707
11.333845 54.219086 12.630384
11.335173 54.213116 12.431245
11.340126 54.189327 11.646978
11.34787 54.190514 11.456722
11.346593 54.1749 11.071881
11.357182 54.17926 10.885602
11.236907 54.747322 27.997593
11.22627 54.720467 27.575304
11.24802 54.730312 27.21357
11.252715 54.721256 26.831453
11.239973 54.692921 26.429558
11.242193 54.681633 26.058271
11.250471 54.677376 25.70282
11.265082 54.680431 25.362888
11.257435 54.658833 24.996601
11.261011 54.650005 24.652803
11.256627 54.632515 24.303783
11.268863 54.633766 23.983454
11.268361 54.621021 23.651077
11.26995 54.610806 23.3269
11.278829 54.608887 23.017315
11.279954 54.598526 22.702553
11.278362 54.585327 22.389261
11.274071 54.569313 22.077488
11.282749 54.567852 21.786085
11.288992 54.563843 21.495878
11.287519 54.551445 21.200773
11.288895 54.542355 20.913143
11.293248 54.536701 20.63282
11.295299 54.528641 20.353708
11.295058 54.518192 20.075844
11.292542 54.505367 19.799263
11.293278 54.496265 19.529715
11.297389 54.491005 19.267019
11.310576 54.495857 19.016562
11.299342 54.473942 18.744967
11.308517 54.474598 18.496519
11.315773 54.473244 18.248978
11.315397 54.463612 17.997095
11.31881 54.458244 17.751526
11.314549 54.444561 17.501825
11.296715 54.416103 17.243196
11.317767 54.430363 17.020899
11.313697 54.417187 16.779476
11.319606 54.415024 16.548809
11.317866 54.404579 16.314224
11.314367 54.392303 16.080648
11.321118 54.391308 15.857292
11.32022 54.382034 15.630172
11.323709 54.377628 15.408419
11.31951 54.36491 15.183106
11.331995 54.370453 14.971612
11.330728 54.361076 14.752246
11.327884 54.350052 14.533749
11.323473 54.337395 14.316142
11.336151 54.343391 14.111335
11.328712 54.327572 13.895338
11.338528 54.330566 13.691703
11.346959 54.332108 13.488563
11.335077 54.311649 13.275021
11.328019 54.296497 13.066059
11.332222 54.293613 12.864929
11.335069 54.289307 12.664374
11.336564 54.283585 12.464412
11.343139 54.283409 12.268291
11.335531 54.267929 12.06634
11.333017 54.258011 11.868268
11.342145 54.260727 11.676826
11.337127 54.241119 11.286571
11.342495 54.239883 11.096484
11.34664 54.237362 10.906801
11.225847 54.791382 28.046556
11.23333 54.785133 27.653202
11.232608 54.769947 27.25429
11.241959 54.766338 26.878981
11.238592 54.748734 26.49095
11.241006 54.737865 26.119053
11.24948 54.734024 25.76298
11.249979 54.721497 25.401463
11.247206 54.705547 25.041666
11.260608 54.707878 24.711077
11.266212 54.70171 24.375013
11.263911 54.686939 24.033714
11.25858 54.668999 23.69409
11.260282 54.659088 23.36939
11.264215 54.651848 23.052738
11.27562 54.65308 22.750448
11.274179 54.640221 22.43656
11.2804 54.636032 22.136852
11.273649 54.617622 21.825899
11.280007 54.613907 21.535143
11.283942 54.607651 21.245619
11.285468 54.598881 20.957367
11.284599 54.587608 20.670424
11.28135 54.573849 20.38483
11.29752 54.581665 20.124023
11.289701 54.563133 19.840956
11.296098 54.560413 19.576473
11.294834 54.54937 19.307421
11.302579 54.548367 19.050739
11.297065 54.532887 18.784063
11.30638 54.533829 18.534952
11.308083 54.526505 18.281399
11.307805 54.517117 18.028925
11.311316 54.51199 17.782761
11.307151 54.498539 17.532465
11.306861 54.489441 17.288389
11.310555 54.484802 17.050333
11.312456 54.478287 16.813202
11.312573 54.46991 16.577026
11.31686 54.466179 16.346573
11.319446 54.460667 16.116972
11.320338 54.453384 15.88825
11.319549 54.444347 15.660432
11.317086 54.433559 15.433542
11.319047 54.427677 15.21196
11.313299 54.41346 14.986923
11.324325 54.417591 14.775477
11.333878 54.420177 14.564581
11.329583 54.407749 14.346182
11.323729 54.393696 14.128695
11.322564 54.384808 13.916019
11.338703 54.394783 13.715528
11.328347 54.376026 13.500508
11.329093 54.369389 13.293757
11.32842 54.361263 13.087703
11.326333 54.351658 12.882365
11.329223 54.347504 12.681152
11.330758 54.34193 12.480532
11.324525 54.327988 12.277297
11.329796 54.326553 12.081141
11.333776 54.323757 11.885467
11.329986 54.312603 11.687317
11.331378 54.307095 11.492743
11.338015 54.307293 11.301516
11.336882 54.299133 11.107946
11.212657 54.83997 28.093824
11.211267 54.82383 27.685305
11.224272 54.824142 27.307898
11.238421 54.825993 26.939272
11.235291 54.80872 26.550642
11.242632 54.803436 26.18524
11.24193 54.789391 25.8144
11.247398 54.782482 25.459307
11.244862 54.766857 25.098888
11.243929 54.753254 24.747097
11.249647 54.747284 24.410585
11.252399 54.738209 24.075567
11.257186 54.731598 23.748756
11.259122 54.722004 23.423407
11.268355 54.720707 23.112625
11.259615 54.699612 22.783745
11.263431 54.692646 22.475788
11.264621 54.682938 22.169212
11.268424 54.676285 21.870317
11.280233 54.678654 21.585138
11.273794 54.660965 21.282677
11.280805 54.658314 20.999928
11.290867 54.659168 20.724335
11.287871 54.645729 20.437975
11.293403 54.641842 20.164692
11.285758 54.62355 19.880995
11.286814 54.614983 19.610163
11.296796 54.616375 19.351801
11.29916 54.609489 19.088835
11.299438 54.600422 18.826998
11.303299 54.595406 18.571735
11.305166 54.588306 18.317522
11.310776 54.585419 18.069653
11.302967 54.567905 17.812361
11.304714 54.560982 17.566589
11.30458 54.55209 17.321838
11.308427 54.547657 17.083103
11.304595 54.534901 16.840401
11.304829 54.526691 16.603617
11.309231 54.523125 16.372547
11.299984 54.504719 16.133011
11.300927 54.49754 15.903827
11.318275 54.508347 15.68906
11.315946 54.497738 15.461473
11.31195 54.48539 15.234837
11.312412 54.477978 15.013448
11.323562 54.482281 14.801283
11.320905 54.471603 14.581443
11.322866 54.466022 14.366524
11.323315 54.458855 14.152356
11.32226 54.450115 13.938961
11.325975 54.446625 13.730151
11.328252 54.44162 13.521996
11.322784 54.428265 13.310888
11.322183 54.42025 13.104184
11.326525 54.417652 12.901662
11.316742 54.399788 12.692944
11.318319 54.394291 12.491749
11.32497 54.394337 12.294382
11.330319 54.393013 12.097479
11.334372 54.390327 11.901057
11.324169 54.372261 11.699193
11.325608 54.366833 11.503954
11.325768 54.360065 11.309249
11.218709 54.919952 28.201124
11.222447 54.909538 27.799067
11.222441 54.895203 27.398853
11.23251 54.892448 27.022219
11.234495 54.880882 26.640028
11.228285 54.86039 26.252522
11.237424 54.857342 25.895149
11.252903 54.861607 25.553267
11.25091 54.846554 25.191973
11.245659 54.828091 24.832443
11.24697 54.817177 24.488314
11.260055 54.819595 24.165974
11.265368 54.813538 23.838255
11.262802 54.798897 23.505396
11.267447 54.792473 23.187229
11.264247 54.777504 22.864017
11.263387 54.765316 22.548798
11.265001 54.75605 22.241413
11.258781 54.738258 21.929184
11.276191 54.746822 21.649513
11.275427 54.73539 21.352421
11.272172 54.721355 21.056732
11.271815 54.710678 20.768471
11.279895 54.709465 20.493383
11.285748 54.705917 20.219391
11.289391 54.700054 19.946535
11.279797 54.679718 19.663443
11.29009 54.681438 19.40436
11.281586 54.662563 19.129555
11.30459 54.678497 18.889076
11.29185 54.655197 18.616701
11.299671 54.654625 18.367163
11.305573 54.652046 18.118553
11.30381 54.641144 17.865711
11.305874 54.634544 17.619118
11.300234 54.619591 17.368502
11.304358 54.615444 17.129009
11.300799 54.60297 16.88555
11.307215 54.601505 16.652815
11.311911 54.59824 16.420902
11.314898 54.593185 16.18984
11.310185 54.579792 15.955069
11.315783 54.577747 15.730359
11.307645 54.560776 15.497566
11.322119 54.568565 15.283268
11.316764 54.554779 15.056665
11.322036 54.552658 14.839439
11.31961 54.54221 14.618808
11.315607 54.530113 14.399061
11.328683 54.536674 14.192074
11.315391 54.514599 13.970057
11.319294 54.511295 13.760522
11.328043 54.513313 13.555347
11.329092 54.507011 13.347056
11.322378 54.492336 13.135912
11.333271 54.49683 12.936037
11.317324 54.472248 12.723038
11.325487 54.473873 12.52432
11.325916 54.467159 12.322827
11.324999 54.45903 12.121962
11.335664 54.463486 11.927844
11.32563 54.44558 11.725151
11.333731 54.447334 11.531963
11.334067 54.440731 11.336339
11.326591 54.425724 11.138547
11.21649 54.986874 28.309639
11.221528 54.963627 27.505705
11.243787 54.933975 26.005627
11.250382 54.928318 25.648853
11.248966 54.913925 25.286739
11.25886 54.912388 24.946947
11.255962 54.896778 24.595003
11.259806 54.888901 24.258247
11.25571 54.872375 23.916361
11.253613 54.85828 23.582781
11.253658 54.846756 23.257359
11.261084 54.843624 22.946407
11.271003 54.843426 22.643179
11.257642 54.817539 22.315859
11.25187 54.800262 22.00288
11.274972 54.815159 21.728655
11.27998 54.810131 21.436861
11.277233 54.796669 21.140268
11.28275 54.792492 20.857086
11.291359 54.79187 20.581017
11.281404 54.770863 20.288498
11.279977 54.759418 20.009085
11.287308 54.757771 19.742384
11.286968 54.747776 19.471104
11.301209 54.753975 19.217737
11.296634 54.739544 18.948738
11.289908 54.72287 18.681038
11.303797 54.728992 18.436033
11.298667 54.714294 18.176003
11.297247 54.703781 17.922413
11.299647 54.697567 17.675072
11.305975 54.695759 17.433783
11.304639 54.685631 17.188417
11.307315 54.679993 16.949009
11.296379 54.659534 16.700916
11.301357 54.656593 16.468315
11.31656 54.664925 16.245878
11.306185 54.645344 16.005669
11.31208 54.643639 15.780182
11.310294 54.633614 15.551031
11.312917 54.628475 15.327175
11.313931 54.621655 15.104131
11.313346 54.613155 14.881923
11.317332 54.609711 14.664686
11.31979 54.604664 14.448172
11.308302 54.584488 14.224498
11.326389 54.596581 14.021273
11.324334 54.5868 13.806979
11.327069 54.582287 13.597205
11.328365 54.576263 13.388101
11.321897 54.561859 13.176138
11.326667 54.559719 12.971981
11.317312 54.542297 12.761621
11.319302 54.537239 12.55878
11.319933 54.53075 12.356544
11.319213 54.522846 12.154931
11.317147 54.513535 11.95396
11.33318 54.523857 11.762565
11.328505 54.511799 11.562684
11.32902 54.505402 11.366305
11.334787 54.504719 11.173195
11.212086 55.046955 28.410755
11.217059 55.038029 28.007103
11.218281 55.025162 27.605276
11.220366 55.013542 27.212564
11.238066 54.993038 26.094982
11.235629 54.977348 25.723495
11.244262 54.974266 25.37459
11.244943 54.962513 25.020325
11.237563 54.941978 24.660946
11.251652 54.945606 24.337067
11.243025 54.924099 23.987799
11.251373 54.921703 23.666758
11.256959 54.916409 23.347075
11.254696 54.902557 23.022329
11.259902 54.89719 22.711966
11.257292 54.883305 22.396629
11.251983 54.866596 22.082832
11.270277 54.876225 21.801598
11.265107 54.859982 21.496792
11.268028 54.852856 21.205631
11.268541 54.843208 20.915762
11.272067 54.837032 20.633142
11.284174 54.840466 20.363447
11.277696 54.823494 20.0774
11.285411 54.822323 19.809912
11.285453 54.812805 19.53784
11.283315 54.801003 19.266994
11.290248 54.799309 19.008387
11.295163 54.795502 18.750784
11.286701 54.777081 18.483528
11.298988 54.781593 18.238707
11.292171 54.765198 17.979101
11.294888 54.75938 17.73101
11.289896 54.745197 17.478884
11.300499 54.748222 17.242847
11.297601 54.736523 16.997786
11.286937 54.716408 16.749001
11.304052 54.726818 16.525187
11.30167 54.715942 16.287918
11.303517 54.709785 16.056255
11.315717 54.715019 15.834498
11.302131 54.692139 15.595628
11.311077 54.693958 15.375416
11.306252 54.680805 15.147309
11.305902 54.672611 14.924388
11.316279 54.676182 14.710549
11.306619 54.657967 14.485168
11.307753 54.651588 14.268758
11.319843 54.6572 14.060859
11.311744 54.640881 13.842043
11.314666 54.63662 13.631621
11.316143 54.630844 13.421866
11.316186 54.623558 13.212798
11.3148 54.614777 13.004436
11.318369 54.611423 12.800189
11.320568 54.606632 12.596524
11.314987 54.593449 12.39024
11.320885 54.592758 12.191019
11.319016 54.583694 11.989217
11.315804 54.573219 11.788073
11.317755 54.568378 11.590495
11.331442 54.576279 11.399057
11.330852 54.568756 11.202386
11.205436 55.110474 28.49646
11.192844 55.08181 28.062716
11.208006 55.084652 27.682272
11.205911 55.068359 27.281675
11.218665 55.069 26.91169
11.218708 55.055626 26.529018
11.219982 55.043877 26.155212
11.227406 55.039249 25.797131
11.23644 55.03664 25.447533
11.23752 55.025349 25.092573
11.240333 55.016205 24.746078
11.245019 55.009357 24.407906
11.246742 54.999401 24.071253
11.25054 54.991943 23.742764
11.241366 54.970234 23.402697
11.249605 54.96809 23.090286
11.250049 54.957439 22.772789
11.252954 54.949696 22.463112
11.248015 54.933407 22.148571
11.256163 54.931801 21.854191
11.261869 54.927628 21.561022
11.259818 54.915009 21.263042
11.271389 54.91761 20.984453
11.269897 54.905891 20.695074
11.282351 54.909725 20.424601
11.270741 54.887085 20.131998
11.267732 54.874092 19.852386
11.284654 54.883213 19.596638
11.282848 54.871784 19.324997
11.273255 54.851891 19.049128
11.289697 54.860798 18.801765
11.287209 54.848957 18.539118
11.282657 54.834953 18.277679
11.287557 54.831451 18.027868
11.290548 54.825947 17.77903
11.291643 54.818455 17.531195
11.290853 54.808983 17.284391
11.294065 54.803997 17.043539
11.283662 54.784168 16.793995
11.295094 54.788364 16.564672
11.298901 54.784279 16.331373
11.300996 54.778397 16.098936
11.307413 54.777317 15.871894
11.294042 54.754673 15.632324
11.303194 54.756733 15.411405
11.298573 54.743809 15.182592
11.304557 54.742535 14.963151
11.308995 54.739639 14.744405
11.311897 54.735126 14.526376
11.319481 54.735775 14.313038
11.30689 54.7145 14.088682
11.311465 54.711994 13.876809
11.314587 54.707954 13.665579
11.322567 54.709255 13.458642
11.303837 54.681561 13.238031
11.302593 54.672939 13.029017
11.312673 54.67667 12.827499
11.308633 54.665115 12.619791
11.309601 54.659042 12.416069
11.302773 54.644558 12.209827
11.326832 54.663612 12.019665
11.317325 54.646313 11.814634
11.312935 54.634609 11.613335
11.320237 54.635605 11.418337
11.326287 54.635281 11.223716
11.221422 55.11969 26.227631
11.233853 55.10778 25.511536
11.230424 55.09137 25.149033
11.243335 55.093433 24.815477
11.238527 55.075909 24.463089
11.245529 55.071766 24.13245
11.239622 55.053417 23.79006
11.245887 55.048824 23.468994
11.254499 55.04702 23.155785
11.250171 55.030987 22.831097
11.243042 55.012016 22.50803
11.248788 55.007526 22.205406
11.262514 55.012039 21.916464
11.263283 55.002319 21.616348
11.261546 54.989975 21.317614
11.268061 54.986912 21.03227
11.272248 54.981411 20.74811
11.279566 54.9795 20.47101
11.273699 54.963139 20.183485
11.282018 54.962582 19.914494
11.277108 54.94754 19.635288
11.275526 54.936295 19.363005
11.283007 54.935162 19.10294
11.288464 54.9319 18.843872
11.286222 54.920269 18.580496
11.287633 54.912762 18.323587
11.292807 54.9095 18.072958
11.290285 54.897869 17.818186
11.297428 54.896961 17.574638
11.291054 54.881294 17.322046
11.288616 54.870049 17.075552
11.296126 54.869804 16.839762
11.290029 54.854725 16.595316
11.299987 54.857327 16.36598
11.290304 54.838486 16.123613
11.308919 54.850712 15.90495
11.301803 54.834843 15.669038
11.299026 54.823803 15.438562
11.300679 54.817677 15.213315
11.306855 54.816563 14.993082
11.299165 54.800369 14.765326
11.308384 54.8027 14.550689
11.303702 54.789928 14.328732
11.309916 54.789097 14.115433
11.302147 54.773087 13.895179
11.31167 54.77597 13.687008
11.319789 54.777374 13.479338
11.320182 54.77042 13.268644
11.312787 54.755047 13.055192
11.291175 54.724285 12.835868
11.312772 54.740532 12.640864
11.313881 54.734558 12.436319
11.307191 54.720169 12.22926
11.312015 54.718319 12.029102
11.302578 54.701046 11.823502
11.317736 54.710476 11.630273
11.318645 54.704498 11.431637
11.33132 54.7113 11.238975
11.257959 55.116516 22.904076
11.251287 55.097897 22.580145
11.252265 55.087959 22.270384
11.261143 55.086956 21.974432
11.267572 55.083378 21.679682
11.260904 55.065418 21.374077
11.262408 55.056675 21.081987
11.27232 55.057384 20.803036
11.269103 55.043686 20.513485
11.268991 55.033558 20.231094
11.283131 55.039322 19.967085
11.278561 55.024517 19.687096
11.282897 55.019676 19.419573
11.285125 55.012623 19.153156
11.290908 55.009602 18.893284
11.288989 54.998199 18.629105
11.290718 54.990921 18.371386
11.290454 54.981556 18.114756
11.28821 54.970116 17.859241
11.301439 54.975788 17.619976
11.283676 54.947483 17.356646
11.293225 54.949287 17.119238
11.289214 54.936291 16.872995
11.295217 54.934368 16.637325
11.305455 54.937168 16.407141
11.296052 54.918518 16.163933
11.29687 54.911152 15.930915
11.30809 54.915249 15.707644
11.311655 54.911034 15.480652
11.301385 54.891758 15.245939
11.289392 54.870682 15.012367
11.312636 54.88818 14.804582
11.309757 54.877197 14.580937
11.30529 54.864552 14.358189
11.30548 54.857052 14.140222
11.310408 54.854778 13.926817
11.307591 54.84412 13.71035
11.315882 54.845619 13.501947
11.316443 54.838749 13.290524
11.315564 54.830368 13.079803
11.319625 54.827408 12.873178
11.303123 54.802147 12.657253
11.310778 54.803196 12.455262
11.317105 54.802841 12.253722
11.309203 54.787083 12.046562
11.299909 54.769863 11.840222
11.315198 54.779354 11.646235
11.32926 54.78754 11.452439
11.309452 54.75906 11.245295
11.23344 55.202652 23.940004
11.240062 55.186474 23.289648
11.246895 55.182571 22.97628
11.245899 55.170124 22.65793
11.247406 55.160633 22.347359
11.246293 55.148392 22.038214
11.258455 55.151054 21.748898
11.257594 55.1394 21.44858
11.259604 55.131081 21.155655
11.270012 55.132214 20.875864
11.267291 55.118931 20.585466
11.262192 55.103153 20.296457
11.26024 55.090996 20.014572
11.267102 55.088715 19.74526
11.271839 55.084202 19.477015
11.285695 55.08987 19.220831
11.280638 55.074764 18.949268
11.273425 55.057407 18.679022
11.275503 55.050404 18.420639
11.287081 55.05397 18.173706
11.273684 55.030132 17.907152
11.287245 55.036068 17.667213
11.293191 55.033714 17.423037
11.279694 55.010078 17.165112
11.281911 55.003811 16.922989
11.300126 55.015194 16.696014
11.28095 54.985615 16.441641
11.277793 54.973709 16.202469
11.284907 54.973145 15.973327
11.296424 54.977474 15.749354
11.306358 54.980133 15.526
11.296411 54.961102 15.290499
11.296994 54.953667 15.064502
11.302124 54.951275 14.843455
11.305705 54.94725 14.623118
11.307745 54.941605 14.403514
11.302021 54.927547 14.1808
11.30098 54.918667 13.962807
11.304703 54.915039 13.749315
11.306966 54.909878 13.536481
11.314102 54.910076 13.327866
11.307143 54.894978 13.11287
11.311442 54.892189 12.905509
11.301575 54.874039 12.692136
11.296655 54.861328 12.482899
11.303186 54.861111 12.280699
11.308393 54.859493 12.078966
11.305809 54.849461 11.874756
11.308364 54.845047 11.674096
11.309611 54.839256 11.473958
11.303031 54.82502 11.271648
11.184303 55.36797 28.034134
11.230279 55.273338 24.033842
11.233062 55.252655 23.375307
11.24047 55.249298 23.061138
11.254283 55.219883 21.830488
11.253972 55.20874 21.529339
11.25116 55.194969 21.229595
11.256661 55.190575 20.943125
11.2544 55.177708 20.652016
11.249757 55.162346 20.362293
11.25927 55.162788 20.091091
11.266641 55.160984 19.820917
11.271881 55.156937 19.551805
11.26378 55.138264 19.272823
11.276022 55.142181 19.016901
11.274947 55.1315 18.751173
11.271793 55.118641 18.486641
11.266573 55.103615 18.223333
11.27663 55.10553 17.976622
11.273222 55.092709 17.720675
11.273688 55.084255 17.470858
11.272265 55.073818 17.222088
11.280766 55.074379 16.984015
11.275659 55.060074 16.73727
11.286576 55.063454 16.505629
11.277858 55.045361 16.260944
11.279343 55.038551 16.026449
11.285166 55.036572 15.797278
11.289347 55.032864 15.568877
11.285795 55.02076 15.337006
11.292821 55.020306 15.114483
11.292131 55.011478 14.888536
11.289837 55.000965 14.663456
11.29215 54.995556 14.443211
11.2867 54.981731 14.219851
11.29843 54.986725 14.008784
11.296185 54.976521 13.790778
11.305028 54.978466 13.580838
11.299815 54.965141 13.364325
11.305799 54.964073 13.155593
11.304017 54.954597 12.944035
11.300802 54.943619 12.733212
11.296163 54.931141 12.523146
11.296534 54.924164 12.316989
11.295536 54.915745 12.111462
11.306114 54.919945 11.912516
11.302437 54.908703 11.708139
11.29741 54.896042 11.504449
11.310615 54.903198 11.309608
11.254932 55.242649 20.717508
11.266034 55.234688 20.160713
11.268252 55.227203 19.884048
11.268268 55.217407 19.608585
11.266091 55.205307 19.334356
