# .PCD v0.7 - Point Cloud Data file format
VERSION 0.7
FIELDS x y z
SIZE 4 4 4
TYPE F F F
COUNT 1 1 1
WIDTH 1612
HEIGHT 1
VIEWPOINT 0 0 0 1 0 0 0
POINTS 1612
DATA ascii
11.409066 53.301998 8.6056118
11.417445 53.304848 8.436327
11.411247 53.292198 8.2641296
11.417533 53.29285 8.0952501
11.409206 53.277977 7.9238319
11.413409 53.276447 7.7554126
11.423392 53.281067 7.5883222
11.418733 53.270149 7.4190784
11.426681 53.272625 7.2521811
11.43362 53.27404 7.0853128
11.432714 53.267143 6.9176693
11.430788 53.259178 6.7502546
11.420996 53.242886 6.582438
11.423888 53.240047 6.4161639
11.418918 53.228893 6.2495136
11.364588 53.536419 14.611942
11.374266 53.525173 13.999492
11.372519 53.516174 13.795414
11.377213 53.507187 13.39739
11.383771 53.507313 13.203164
11.382677 53.499241 13.005769
11.380211 53.489742 12.809088
11.389112 53.492531 12.620219
11.390357 53.487125 12.428319
11.390297 53.480362 12.237026
11.376076 53.45842 12.039773
11.379835 53.45586 11.853126
11.382353 53.452 11.666975
11.383633 53.446854 11.481338
11.377169 53.433437 11.29327
11.395567 53.446728 11.117431
11.393209 53.437786 10.93327
11.396203 53.43462 10.752399
11.371684 53.40202 10.56145
11.340482 53.34367 9.8364868
11.39638 53.39724 9.6789379
11.397965 53.392773 9.5034313
11.411828 53.40144 9.3323574
11.404518 53.387524 9.1554794
11.41624 53.39394 8.9847536
11.406717 53.37772 8.8087664
11.409565 53.374714 8.636755
11.404591 53.363392 8.4634056
11.405298 53.358143 8.2920265
11.411722 53.359001 8.1223726
11.417109 53.358765 7.9528546
11.414665 53.350216 7.7822251
11.411169 53.340565 7.6119304
11.413439 53.337059 7.4430695
11.41468 53.33247 7.2743969
11.421721 53.334053 7.1068373
11.420918 53.327316 6.9384933
11.419089 53.319508 6.7703767
11.416241 53.310627 6.6025
11.419226 53.307938 6.4354415
11.421204 53.304192 6.2684746
11.366624 53.595234 14.265971
11.368773 53.576221 13.655297
11.376968 53.564232 13.06257
11.368518 53.548286 12.861439
11.379295 53.546368 12.479207
11.373142 53.533051 12.283786
11.384923 53.539078 12.09906
11.376149 53.523037 11.904984
11.38545 53.526474 11.721142
11.380572 53.514713 11.531535
11.387435 53.515598 11.348564
11.393105 53.51524 11.16597
11.384497 53.499596 10.978159
11.394324 53.503761 10.799255
11.376685 53.478519 10.610062
11.362813 53.43251 9.7096272
11.37125 53.435383 9.535821
11.371914 53.429974 9.3601646
11.371469 53.423409 9.1848869
11.383354 53.430023 9.0137463
11.374002 53.413994 8.8373108
11.370271 53.403988 8.6631699
11.392457 53.421635 8.4959211
11.400116 53.423805 8.3253775
11.393186 53.410446 8.1520691
11.405525 53.417625 7.983305
11.403258 53.409271 7.811976
11.399937 53.399811 7.6409788
11.409184 53.403728 7.4725194
11.417413 53.406574 7.3040724
11.4178 53.401096 7.1347284
11.410325 53.38728 6.9647613
11.415487 53.386894 6.79669
11.419636 53.385441 6.6286831
11.415921 53.375652 6.4601798
11.41804 53.372063 6.2924275
11.359647 53.634022 13.499928
11.366863 53.634792 13.304179
11.366427 53.62735 13.10524
11.367779 53.615017 12.713051
11.363245 53.603313 12.516206
11.376559 53.610886 12.330293
11.369383 53.596432 12.134748
11.373752 53.594452 11.946453
11.370404 53.584209 11.755507
11.372254 53.579605 11.568291
11.372865 53.573704 11.381598
11.385287 53.580528 11.201233
11.383471 53.572094 11.015471
11.380433 53.562386 10.830285
11.369599 53.544357 10.643047
11.334802 53.426651 8.3345985
11.334719 53.420544 8.1627312
11.333574 53.413326 7.991168
11.344952 53.41946 7.8224697
11.348512 53.417278 7.6525702
11.351037 53.414005 7.482842
11.359343 53.416893 7.3143125
11.35981 53.411457 7.1448812
11.359246 53.404934 6.9756613
11.371326 53.411854 6.8081713
11.375563 53.410446 6.6399055
11.385632 53.415234 6.4722943
11.374142 53.397152 6.303124
11.357233 53.701714 13.336496
11.363352 53.701225 13.140546
11.361801 53.692509 12.941504
11.365228 53.689217 12.746736
11.360951 53.677662 12.549076
11.361712 53.671589 12.355567
11.35474 53.657234 12.159369
11.365746 53.662292 11.973639
11.362615 53.652168 11.781951
11.371156 53.654644 11.597048
11.358987 53.634884 11.403577
11.358544 53.627781 11.216761
11.376488 53.640465 11.038923
11.373642 53.630848 10.852984
11.376149 53.627014 10.670275
11.357702 53.757309 12.776438
11.36004 53.75275 12.581516
11.367452 53.753712 12.390576
11.354337 53.732582 12.190173
11.365584 53.737766 12.003619
11.375613 53.741673 11.817385
11.371467 53.73035 11.625375
11.372531 53.724682 11.437024
11.37887 53.724728 11.252099
11.377471 53.716484 11.064754
11.374841 53.706959 10.87798
11.377556 53.703217 10.694431
11.363066 53.827652 12.431036
11.363108 53.820538 12.23642
11.361835 53.812057 12.042433
11.36571 53.809174 11.852235
11.368326 53.804974 11.662537
11.363193 53.792465 11.470379
11.369801 53.792648 11.284707
11.375204 53.791565 11.099419
11.382415 53.785637 10.73006
11.344519 53.879108 12.272234
11.343544 53.870781 12.077586
11.347709 53.86805 11.886729
11.344139 53.857014 11.693306
11.358745 53.865627 11.509503
11.365664 53.865982 11.323002
11.364846 53.85804 11.134068
11.369334 53.855846 10.948429
11.366056 53.845337 10.760558
11.339526 53.977402 13.10022
11.33785 53.96796 12.898727
11.350148 53.958706 12.311961
11.336623 53.936668 12.109948
11.347493 53.941044 11.921496
11.350666 53.937145 11.730309
11.3396 53.917923 11.533669
11.35323 53.925392 11.349484
11.365685 53.931618 11.165511
11.357333 53.915459 10.973575
11.367393 53.919174 10.790325
11.345644 54.017532 12.14068
11.350277 54.015091 11.948173
11.349242 53.999218 11.56167
11.356559 53.999805 11.37367
11.356133 53.992073 11.183234
11.354458 53.98304 10.993361
11.340469 54.073021 11.968711
11.35173 54.048615 11.013289
11.333876 54.14468 12.390741
11.333656 54.137016 12.193045
11.338555 54.134937 11.999127
11.335708 54.124531 11.802638
11.331546 54.112751 11.606821
11.345591 54.120674 11.420377
11.338877 54.106228 11.225708
11.347814 54.101582 10.849134
11.328737 54.198799 12.229491
11.327373 54.190018 12.031682
11.331146 54.18684 11.837588
11.341341 54.176327 11.26121
11.330529 54.241062 11.477042
11.324657 54.351959 11.115096
11.229901 54.987358 27.921446
11.241435 54.971935 27.142683
11.244148 54.961193 26.75952
11.243349 54.946766 26.378134
11.232753 55.013741 26.843189
11.237114 55.005177 26.468231
11.204476 55.184128 28.573193
11.219337 55.186264 28.182812
11.216959 55.16927 27.772161
11.224548 55.163757 27.385178
11.219314 55.144104 26.985571
11.22444 55.136337 26.60927
11.238784 55.126106 25.882755
11.208891 55.268642 28.666599
11.215296 55.261066 28.260714
11.213387 55.244411 27.849358
11.221442 55.23925 27.461655
11.235237 55.240795 27.089966
11.226941 55.21777 26.691397
11.233882 55.212109 26.323036
11.232738 55.197617 25.949327
11.237844 55.190365 25.591248
11.239759 55.179756 25.234779
11.238503 55.165821 24.879976
11.243973 55.159615 24.540329
11.256433 55.161407 24.215502
11.251039 55.143459 23.872206
11.25275 55.133636 23.543695
11.256725 55.126514 23.223167
11.198127 55.337601 28.764662
11.209705 55.335678 28.365349
11.208507 55.319633 27.953161
11.217259 55.315079 27.564619
11.217826 55.301575 27.170607
11.233507 55.305321 26.806858
11.241215 55.300339 26.43751
11.240834 55.286518 26.062807
11.23707 55.269146 25.689901
11.244503 55.264549 25.339397
11.239051 55.245747 24.976852
11.245169 55.240105 24.636307
11.253289 55.236897 24.303919
11.250799 55.21014 23.630409
11.193625 55.363945 27.644993
11.199397 55.356182 27.257534
11.281188 55.434155 26.992527
11.29482 55.435654 26.628679
11.286147 55.412342 26.238401
11.283528 55.396076 25.863987
11.287236 55.387146 25.505114
11.22416 55.303654 25.059654
11.245646 55.315102 24.738569
11.23455 55.290295 24.378647
11.238149 55.270134 23.710346
11.255571 55.254673 22.760958
11.257762 55.245827 22.449368
11.257327 55.234222 22.139196
11.190137 55.468002 28.973896
11.19857 55.447655 28.151913
11.199377 55.434063 27.747366
11.196451 55.41655 27.344732
11.224059 55.367443 25.142345
11.236137 55.368401 24.807043
11.230392 55.349621 24.453129
11.246593 55.355568 24.133976
11.239866 55.336094 23.789909
11.255605 55.341873 23.479916
11.253342 55.327751 23.15189
11.305175 55.374058 22.89505
11.297721 55.354469 22.569519
11.303232 55.34948 22.26424
11.300915 55.335941 21.954155
11.29067 55.313759 21.639515
11.272404 55.282841 21.320568
11.273025 55.273045 21.027132
11.272543 55.251965 20.450087
11.198936 55.511192 28.233564
11.236889 55.539494 27.886061
11.211519 55.49675 27.446419
11.242231 55.451359 25.238405
11.230142 55.425316 24.86853
11.224689 55.406918 24.513971
11.256239 55.430061 24.21393
11.244864 55.405437 23.862488
11.250783 55.400311 23.538774
11.24367 55.380829 23.203691
11.297442 55.364285 21.110065
11.274355 55.328373 20.793552
11.275956 55.319981 20.507824
11.27525 55.309162 20.223366
11.309098 55.288849 18.624184
11.298895 55.268368 18.353685
11.280669 54.86562 7.4877348
11.318965 54.874031 6.5627737
11.301508 54.848785 6.376339
11.269288 54.807739 6.1897416
11.249566 54.780121 6.0047355
11.288541 55.561131 25.027517
11.284064 55.543667 24.671406
11.281464 55.528515 24.323666
11.255596 55.487587 23.951538
11.262065 55.482967 23.626898
11.260633 55.469711 23.297272
11.290344 55.415356 20.873028
11.265073 55.37709 20.55747
11.26468 55.366543 20.272369
11.278623 55.37199 20.005444
11.318005 55.330627 17.652596
11.305892 55.308384 17.391178
11.32515 54.919399 5.8231874
11.296429 54.882088 5.6373649
11.327453 54.889137 4.8976536
11.339768 54.88921 4.5269732
11.33744 54.880177 4.3419423
11.272219 55.460155 20.649599
11.261475 55.437935 20.352098
11.270449 55.437695 20.078691
11.287353 54.91087 4.9083428
11.321482 54.940704 4.7215943
11.273886 55.53056 20.740782
11.287094 54.975742 4.9222994
11.321313 55.005642 4.734796
11.331784 55.003433 4.3611012
11.321697 54.985962 4.1752162
11.267694 55.019123 4.9348574
11.26673 55.005001 4.5618072
11.264581 54.996159 4.3753676
11.315919 55.04443 4.1845846
11.248808 55.062222 4.9454474
11.27611 55.08514 4.7572241
11.186493 55.740616 4.6197081
11.20397 55.7542 4.422976
11.213453 55.75922 4.2263417
11.221911 55.860363 5.1999426
11.131557 57.586761 32.368401
11.127443 57.567482 31.882545
11.123345 57.548512 31.406342
11.133226 57.545486 30.96138
11.129766 57.527779 30.503994
11.140858 57.526615 30.077265
11.148116 57.521397 29.652342
11.160852 57.509651 28.822016
11.096981 57.608566 32.446316
11.097978 57.594975 31.967329
11.094518 57.576675 31.49058
11.114216 57.584595 31.059549
11.111465 57.567635 30.601486
11.118563 57.561947 30.166979
11.131194 57.562683 29.748493
11.135322 57.55415 29.324755
11.140468 57.546974 28.909868
11.141923 57.535908 28.496845
11.144608 57.526421 28.092545
11.148665 57.518673 27.696836
11.159222 57.518356 27.316259
11.156458 57.503407 26.924053
11.165454 57.50172 26.55337
11.171288 57.496693 26.184244
11.080476 57.643528 32.556404
11.077692 57.625813 32.069344
11.074909 57.608391 31.591925
11.086074 57.606861 31.145771
11.088537 57.595848 30.694328
11.086876 57.580482 30.244974
11.100019 57.581898 29.826
11.109426 57.579361 29.408756
11.115118 57.572903 28.993303
11.117115 57.562542 28.579702
11.115438 57.548306 28.168018
11.129858 57.552193 27.785276
11.126041 57.53598 27.384026
11.138772 57.538357 27.011187
11.143259 57.53175 26.633301
11.149598 57.527378 26.26358
11.157928 57.525379 25.901876
11.163205 57.520157 25.541693
11.165449 57.511734 25.183081
11.164677 57.50013 24.826092
11.166199 57.491222 24.476912
11.170145 57.485142 24.135386
11.17128 57.476097 23.795345
11.070375 57.677856 32.664101
11.072735 57.666138 32.183685
11.066075 57.644608 31.698179
11.082457 57.649124 31.258551
11.076303 57.6287 30.791948
11.079893 57.619419 30.349033
11.084188 57.61116 29.915201
11.089339 57.604088 29.490337
11.10993 57.614437 29.095129
11.093102 57.583321 28.653267
11.101632 57.58065 28.254683
11.116544 57.58527 27.871307
11.118194 57.575333 27.476078
11.121411 57.567326 27.089293
11.131394 57.567009 26.717363
11.128012 57.552036 26.334007
11.131593 57.54496 25.965353
11.132041 57.534576 25.598345
11.139803 57.532452 25.245605
11.139371 57.521408 24.888128
11.146519 57.518902 24.544611
11.156163 57.519295 24.208605
11.146969 57.499012 23.855917
11.161839 57.50544 23.534727
11.16327 57.497162 23.202951
11.172955 57.498112 22.884245
11.048888 57.694592 32.737671
11.056102 57.688648 32.264145
11.058933 57.67807 31.792706
11.075789 57.683422 31.352425
11.070107 57.663849 30.885141
11.06948 57.650173 30.434422
11.083647 57.653221 30.014103
11.079762 57.636379 29.57448
11.086333 57.631401 29.157831
11.079495 57.611717 28.729261
11.088389 57.609734 28.330103
11.098726 57.609539 27.939402
11.100693 57.600239 27.54365
11.094189 57.581726 27.143095
11.124636 57.604362 26.796993
11.116542 57.584438 26.406477
11.11533 57.572315 26.030794
11.121256 57.568256 25.669598
11.118926 57.555222 25.303673
11.124004 57.550529 24.951931
11.126154 57.542744 24.601711
11.130722 57.537773 24.25914
11.143203 57.541668 23.930073
11.131418 57.518921 23.578474
11.143897 57.523067 23.258085
11.148349 57.518478 22.933081
11.139173 57.499008 22.597984
11.149443 57.501064 22.28722
11.168434 57.512821 21.988794
11.15707 57.491299 21.663708
11.165682 57.491844 21.362062
11.160604 57.477451 21.050812
11.175933 57.485573 20.762199
11.166107 57.466175 20.453615
11.165421 57.456905 20.156857
11.17408 57.457977 19.871513
11.035514 57.730961 32.818535
11.047658 57.730694 32.351788
11.041851 57.71064 31.865072
11.045294 57.70118 31.402502
11.063049 57.707924 30.970802
11.058194 57.689693 30.512278
11.058591 57.677555 30.070141
11.069291 57.677113 29.651096
11.061829 57.656673 29.21299
11.069824 57.653637 28.804611
11.079115 57.652233 28.404818
11.07997 57.641655 27.999969
11.087223 57.638359 27.610384
11.086081 57.625935 27.21586
11.096678 57.626698 26.84288
11.098999 57.618458 26.464943
11.092945 57.601112 26.082296
11.104302 57.603195 25.726988
11.097047 57.58485 25.354225
11.107629 57.586365 25.008228
11.099479 57.567341 24.645149
11.114913 57.574486 24.314333
11.111574 57.56105 23.966663
11.116163 57.556492 23.632544
11.118037 57.549068 23.299843
11.133638 57.556877 22.986019
11.124727 57.537823 22.650347
11.135262 57.540279 22.339008
11.121035 57.515621 22.006475
11.137793 57.525131 21.708818
11.146625 57.526031 21.406662
11.136083 57.505756 21.089523
11.140166 57.501644 20.789877
11.141947 57.495098 20.491432
11.16455 57.511471 20.214813
11.156081 57.49387 19.913502
11.145287 57.47382 19.613647
11.149797 57.470623 19.330046
11.164 57.478107 19.057203
11.170289 57.477009 18.78039
11.030741 57.790054 32.906891
11.034414 57.780235 32.424706
11.042715 57.775852 31.959328
11.042141 57.761822 31.488729
11.046508 57.753555 31.034735
11.046732 57.740913 30.582792
11.052293 57.734447 30.14711
11.0587 57.729149 29.720379
11.066103 57.725166 29.302477
11.064941 57.711872 28.879519
11.0698 57.705471 28.47221
11.076011 57.700768 28.073473
11.073762 57.686859 27.669802
11.078008 57.680344 27.281315
11.078894 57.67028 26.894566
11.081538 57.662338 26.516098
11.080941 57.650974 26.139345
11.087478 57.647659 25.777075
11.090967 57.641132 25.416353
11.091428 57.631405 25.057232
11.094169 57.624344 24.705912
11.099322 57.620083 24.362236
11.107018 57.618759 24.026041
11.101171 57.602638 23.679333
11.114218 57.607464 23.357819
11.108279 57.591503 23.020073
11.110605 57.584763 22.695436
11.115878 57.581379 22.377865
11.129799 57.587612 22.072771
11.124513 57.572838 21.752178
11.127971 57.567783 21.443995
11.14039 57.572666 21.147821
11.139125 57.562622 20.842068
11.123992 57.537476 20.527218
11.152604 57.560383 20.25522
11.138579 57.536648 19.94824
11.14553 57.535984 19.662848
11.138607 57.520214 19.368647
11.141251 57.515007 19.085506
11.14179 57.507576 18.803465
11.034551 57.864727 33.020561
11.038999 57.85556 32.537495
11.034411 57.836571 32.049301
11.043657 57.833302 31.592487
11.039454 57.815277 31.123268
11.040295 57.803131 30.670597
11.046464 57.797157 30.234179
11.058243 57.797653 29.813709
11.051851 57.778145 29.374166
11.056051 57.770638 28.95746
11.051662 57.753796 28.535818
11.068201 57.760391 28.150013
11.076441 57.757954 27.759008
11.081295 57.751938 27.369678
11.077724 57.736771 26.975517
11.086023 57.734924 26.602751
11.080879 57.718361 26.218708
11.077605 57.704044 25.842918
11.081555 57.697872 25.481522
11.082472 57.688503 25.121721
11.090956 57.687634 24.775869
11.091263 57.677883 24.425352
11.088666 57.665066 24.076435
11.09939 57.667072 23.747002
11.102025 57.66029 23.412966
11.112902 57.662704 23.091995
11.104698 57.644238 22.755039
11.115932 57.647278 22.442413
11.113555 57.63546 22.119761
11.108606 57.620934 21.798588
11.112397 57.616119 21.489822
11.125144 57.621239 21.193064
11.112776 57.598892 20.876129
11.132378 57.611721 20.592165
11.13254 57.603321 20.293539
11.136226 57.598873 20.001249
11.120182 57.572906 19.695116
11.131116 57.576576 19.415226
11.139991 57.578068 19.136246
11.140885 57.570908 18.853439
11.023121 57.915562 33.130524
11.033573 57.899155 32.172344
11.043639 57.896751 31.71464
11.035616 57.87442 31.237312
11.032539 57.857864 30.776651
11.02997 57.842121 30.325291
11.047131 57.848572 29.911156
11.041397 57.829765 29.470852
11.055947 57.833725 29.067156
11.047393 57.812214 28.637796
11.059667 57.814037 28.24441
11.063557 57.80674 27.84594
11.074006 57.806896 27.462519
11.065996 57.786777 27.061005
11.074861 57.785526 26.687511
11.07028 57.769562 26.302729
11.077914 57.767273 25.938917
11.077277 57.755997 25.570349
11.089279 57.758839 25.222179
11.082541 57.741131 24.856899
11.094035 57.74369 24.517796
11.086675 57.72559 24.161951
11.103353 57.734123 23.837633
11.095697 57.715973 23.490923
11.090659 57.70084 23.151752
11.093871 57.694912 22.825691
11.105562 57.698429 22.512354
11.103642 57.687092 22.188974
11.110369 57.685368 21.878111
11.11467 57.681084 21.568468
11.122239 57.680492 21.265461
11.11034 57.658634 20.947702
11.118907 57.659336 20.652479
11.119459 57.651337 20.35318
11.129337 57.653656 20.065292
11.125387 57.640911 19.768393
11.125046 57.632206 19.477747
11.122518 57.621201 19.188311
11.129677 57.620876 18.909664
11.018972 57.954441 33.244926
11.027606 57.923256 31.804945
11.029346 57.912109 31.341394
11.040883 57.912109 30.901403
11.039012 57.897415 30.449108
11.033029 57.878384 29.998978
11.032577 57.865723 29.564987
11.037932 57.859726 29.146826
11.044478 57.855251 28.737354
11.057293 57.857914 28.343203
11.046792 57.834915 27.923861
11.052634 57.830215 27.533222
11.055101 57.821953 27.1443
11.064405 57.821426 26.770147
11.070533 57.817543 26.397552
11.063152 57.798889 26.013836
11.073329 57.799793 25.657249
11.075289 57.791763 25.295874
11.079511 57.786381 24.942287
11.075474 57.772026 24.584146
11.079176 57.766346 24.23978
11.085456 57.763634 23.902864
11.083566 57.752052 23.56146
11.08436 57.743549 23.227453
11.093471 57.744316 22.90642
11.088952 57.730209 22.575285
11.104077 57.737801 22.268116
11.099991 57.7244 21.9454
11.10463 57.72068 21.635099
11.101174 57.708187 21.320673
11.106676 57.705616 21.018297
11.115601 57.70689 20.722336
11.122282 57.705795 20.427443
11.120924 57.695984 20.128567
11.117287 57.683769 19.830978
11.111383 57.669167 19.534712
11.126829 57.677998 19.259226
11.134348 57.678234 18.979738
11.027706 58.009361 33.355545
11.029598 57.997837 32.86274
11.026901 57.981472 32.372208
11.02883 57.970516 31.898542
11.035672 57.965282 31.441465
11.047715 57.966061 31.000683
11.046344 57.952148 30.547585
11.045623 57.939182 30.103659
11.055326 57.938007 29.682695
11.051595 57.922127 29.249743
11.043987 57.902153 28.818895
11.057203 57.90546 28.42404
11.057048 57.894131 28.017378
11.068381 57.895699 27.632528
11.061244 57.877003 27.229546
11.070975 57.877129 26.854601
11.072389 57.868221 26.47477
11.065385 57.850178 26.090307
11.075938 57.851673 25.732979
11.078268 57.844238 25.370852
11.082858 57.839436 25.01651
11.095168 57.843269 24.675894
11.077882 57.81464 24.306446
11.095284 57.824341 23.980743
11.088344 57.807369 23.632605
11.094959 57.805435 23.303633
11.10996 57.812828 22.987488
11.105849 57.799332 22.655416
11.099067 57.78302 22.324909
11.095243 57.770069 22.001535
11.122728 57.791569 21.7124
11.113981 57.773426 21.391632
11.114122 57.765125 21.083063
11.111872 57.754307 20.775816
11.113022 57.747307 20.47509
11.123492 57.750595 20.185781
11.114284 57.732437 19.882427
11.126226 57.737499 19.600275
11.118393 57.721024 19.304445
11.12611 57.721619 19.024347
11.027569 58.084499 33.443295
11.020985 58.063328 32.934978
11.018729 58.047272 32.443802
11.044069 58.062225 32.005779
11.028376 58.031712 31.511745
11.040854 58.032806 31.070293
11.044637 58.024456 30.623602
11.039618 58.006542 30.171925
11.054557 58.011021 29.757227
11.046434 57.990101 29.316635
11.049032 57.981285 28.89875
11.043002 57.9631 28.476015
11.053129 57.963013 28.08217
11.049818 57.948223 27.676708
11.058136 57.94648 27.292908
11.052975 57.929996 26.897736
11.070077 57.93829 26.536676
11.078993 57.937683 26.170584
11.079623 57.928074 25.799709
11.082376 57.920963 25.436769
11.087385 57.916481 25.08161
11.089454 57.908894 24.727976
11.077867 57.886402 24.363873
11.090239 57.890434 24.031441
11.094503 57.885662 23.694374
11.10699 57.890053 23.370367
11.08936 57.86145 23.018841
11.096552 57.860252 22.697615
11.090048 57.84412 22.366465
11.097725 57.843674 22.053497
11.097318 57.834457 21.736284
11.111461 57.841301 21.436602
11.106186 57.826946 21.121992
11.115688 57.828888 20.824545
11.105606 57.809467 20.51269
11.116332 57.812923 20.222704
11.113214 57.801315 19.923685
11.113692 57.793732 19.630913
11.117874 57.790279 19.344193
11.125862 57.791061 19.063328
11.013522 58.166771 33.522202
11.010566 58.134933 32.528637
11.022818 58.134754 32.068066
11.030875 58.130146 31.609426
11.025401 58.110703 31.138527
11.029776 58.102482 30.691168
11.034879 58.095303 30.252844
11.04086 58.089321 29.823439
11.033317 58.068523 29.38217
11.036483 58.059841 28.963593
11.045821 58.058216 28.56044
11.056624 58.058399 28.165695
11.053988 58.043869 27.759333
11.06297 58.042393 27.374619
11.053374 58.020523 26.972036
11.055677 58.012005 26.59082
11.059906 58.005783 26.217697
11.066194 58.001995 25.852518
11.079928 58.00658 25.50136
11.074906 57.990601 25.133064
11.066789 57.971359 24.766569
11.077049 57.972538 24.426006
11.084547 57.970798 24.086786
11.078425 57.954182 23.73719
11.080375 57.94659 23.400927
11.07961 57.936138 23.066137
11.087235 57.935036 22.744196
11.092319 57.931252 22.423527
11.094877 57.924801 22.104168
11.083632 57.903305 21.775263
11.103833 57.916443 21.480293
11.110394 57.914703 21.175562
11.108875 57.904198 20.86677
11.104971 57.891178 20.559334
11.116119 57.894753 20.268526
11.113422 57.883247 19.968687
11.108447 57.869343 19.67016
11.107106 57.859505 19.377831
11.115436 57.860329 19.096279
11.01185 58.27623 33.643677
11.011537 58.26059 33.141068
11.015616 58.250168 32.655453
11.024381 58.245274 32.186558
11.024223 58.230675 31.712517
11.024389 58.216705 31.24785
11.025031 58.203533 30.792448
11.035828 58.201935 30.360216
11.037968 58.190914 29.922873
11.045885 58.186565 29.501324
11.045191 58.172844 29.074793
11.040709 58.155136 28.650291
11.042405 58.144512 28.241266
11.035513 58.12455 27.827509
11.04519 58.123188 27.44208
11.061755 58.129646 27.071259
11.05981 58.115746 26.682558
11.06487 58.109791 26.308437
11.061561 58.094734 25.929667
11.070775 58.093712 25.571404
11.071735 58.08371 25.208454
11.074991 58.076405 24.853251
11.069953 58.060081 24.493597
11.08351 58.064445 24.159492
11.088955 58.059986 23.820751
11.080725 58.040581 23.471817
11.080641 58.030296 23.13611
11.083393 58.023266 22.807579
11.094677 58.025753 22.491644
11.097889 58.019466 22.17135
11.098582 58.010529 21.852404
11.102449 58.005196 21.540215
11.103896 57.997307 21.229301
11.102937 57.986889 20.919704
11.105359 57.980286 20.61661
11.105468 57.971245 20.314751
11.103278 57.959785 20.014168
11.110538 57.958775 19.724743
11.115648 57.955502 19.436359
11.112696 57.943481 19.144272
11.011564 58.375671 33.769245
11.01227 58.360554 33.265644
11.012815 58.34557 32.771717
11.022526 58.341156 32.301872
11.009428 58.311493 31.805296
11.024411 58.313538 31.361242
11.016546 58.290298 30.890722
11.028162 58.289089 30.45763
11.031119 58.278454 30.019419
11.039842 58.274487 29.596994
11.054602 58.277473 29.190041
11.046115 58.254776 28.757702
11.033774 58.228024 28.327574
11.042644 58.225094 27.932858
11.048113 58.218578 27.539824
11.055289 58.214149 27.155027
11.059183 58.206261 26.771896
11.054646 58.189201 26.384121
11.062407 58.185963 26.017132
11.07234 58.185295 25.657921
11.063452 58.163948 25.281704
11.067339 58.156914 24.92568
11.068285 58.146778 24.571217
11.077097 58.145489 24.230261
11.08315 58.141293 23.890678
11.075528 58.122139 23.540903
11.081542 58.118176 23.210081
11.079381 58.105331 22.87496
11.08567 58.101929 22.552572
11.083817 58.089684 22.225965
11.085011 58.080917 21.906294
11.095043 58.081993 21.598749
11.108421 58.086853 21.29763
11.108043 58.076691 20.987072
11.099495 58.057671 20.67271
11.105908 58.055187 20.375109
11.11008 58.050343 20.078627
11.112021 58.043148 19.783297
11.111749 58.033619 19.489155
11.115197 58.028267 19.201004
11.000978 58.429821 33.851444
11.006682 58.420246 33.354572
11.007771 58.405804 32.859936
11.008855 58.391655 32.37487
11.019345 58.388336 31.913654
11.025648 58.380592 31.454424
11.013638 58.35265 30.976036
11.021019 58.346645 30.535191
11.029253 58.341835 30.103239
11.023961 58.322178 29.659409
11.024451 58.309208 29.231422
11.035925 58.308697 28.825724
11.033937 58.293415 28.408335
11.033286 58.279835 27.999582
11.039165 58.27372 27.605896
11.051837 58.275341 27.226933
11.051044 58.262196 26.836641
11.052074 58.251259 26.454556
11.049856 58.236904 26.074238
11.065386 58.242386 25.72064
11.056885 58.221416 25.343739
11.066474 58.220638 24.993113
11.073193 58.216831 24.643904
11.071665 58.20406 24.290213
11.078088 58.200222 23.949928
11.065366 58.175388 23.593636
11.066205 58.165672 23.256439
11.080941 58.171417 22.937737
11.076475 58.156113 22.603371
11.086146 58.156513 22.287151
11.076441 58.1357 21.955784
11.092453 58.143311 21.652954
11.094756 58.135944 21.340496
11.094644 58.126038 21.029346
11.097899 58.119942 20.724689
11.093031 58.10503 20.416187
11.091625 58.094025 20.114101
11.087925 58.080605 19.813316
11.093734 58.077713 19.523567
10.985918 58.455418 33.902695
10.987254 58.44125 33.398037
10.997511 58.437386 32.917667
11.007941 58.43399 32.446621
11.014069 58.426056 31.977608
11.011242 58.408386 31.503561
11.013509 58.396679 31.045952
11.011632 58.3806 30.590466
11.015241 58.370892 30.151064
11.014922 58.357044 29.713671
11.020473 58.349968 29.291994
11.042026 58.360905 28.899225
11.025422 58.329609 28.46105
11.029954 58.322033 28.058401
11.04615 58.327602 27.677238
11.043845 58.312817 27.278063
11.048353 58.305782 26.893663
11.039251 58.28384 26.498251
11.042369 58.275623 26.123749
11.042334 58.264084 25.750929
11.055017 58.266785 25.39831
11.064813 58.266438 25.047058
11.061015 58.251213 24.685184
11.070403 58.250706 24.342897
11.066159 58.235294 23.990221
11.059022 58.216835 23.63924
11.060018 58.207489 23.30147
11.074914 58.213593 22.982191
11.065025 58.192516 22.641653
11.080425 58.199409 22.330442
11.076505 58.185154 22.003937
11.075679 58.174423 21.684322
11.078061 58.167336 21.37142
11.095246 58.176613 21.075497
11.087131 58.158207 20.759865
11.082367 58.143593 20.450836
11.086899 58.139278 20.153221
11.089197 58.13261 19.856754
11.095169 58.130062 19.566315
11.000712 58.514671 34.005875
10.993472 58.491219 33.485649
10.99498 58.477863 32.989937
11.005664 58.47506 32.518291
11.007407 58.462532 32.041477
11.004781 58.4454 31.566877
10.99309 58.418423 31.087502
11.000813 58.413357 30.645657
11.019005 58.420177 30.226587
11.014125 58.401531 29.781616
11.019925 58.395 29.359299
11.03187 58.395512 28.952374
11.030336 58.381245 28.533751
11.04518 58.385365 28.143633
11.046586 58.37476 27.741934
11.039425 58.354847 27.335602
11.049267 58.353966 26.957026
11.040397 58.332535 26.56094
11.043751 58.324818 26.185759
11.059697 58.331192 25.830929
11.05687 58.316959 25.458946
11.061575 58.311207 25.100914
11.063328 58.302341 24.744431
11.072946 58.302303 24.401442
11.052618 58.269375 24.030428
11.062003 58.26936 23.696367
11.063217 58.260468 23.357882
11.067254 58.25481 23.026554
11.074233 58.252514 22.702213
11.073053 58.241364 22.373644
11.074917 58.233677 22.051996
11.085616 58.235809 21.742464
11.082524 58.2229 21.423449
11.094174 58.226284 21.121555
11.09777 58.220924 20.81555
11.081615 58.194012 20.495544
11.092147 58.196461 20.202248
11.100501 58.196609 19.909945
11.088994 58.175098 19.604122
10.999218 58.55867 34.089561
11.010367 58.556011 33.598171
10.998789 58.528229 33.079632
11.009897 58.526093 32.607265
11.01206 58.514233 32.129723
11.01453 58.502979 31.66152
11.017461 58.492496 31.202553
11.011474 58.472328 30.738688
11.020508 58.469124 30.304913
11.030542 58.467255 29.879892
11.03194 58.455994 29.449865
11.024596 58.435242 29.015081
11.028312 58.426983 28.602566
11.028429 58.414932 28.191917
11.040138 58.415928 27.802877
11.03834 58.40213 27.402439
11.043357 58.396069 27.016768
11.045097 58.386551 26.632795
11.048793 58.379364 26.25687
11.05458 58.374649 25.88884
11.062589 58.372543 25.528549
11.056972 58.355545 25.157581
11.058979 58.347111 24.800472
11.058049 58.335587 24.444954
11.065075 58.332973 24.102831
11.058397 58.315395 23.7505
11.065364 58.312977 23.417105
11.080763 58.319958 23.096386
11.071352 58.299763 22.754402
11.076018 58.295174 22.430696
11.078147 58.28791 22.108318
11.077753 58.277988 21.787306
11.097702 58.290501 21.488894
11.086696 58.26915 21.165209
11.090479 58.264126 20.858604
11.097737 58.263008 20.558296
11.096899 58.253113 20.254095
11.093756 58.240791 19.951183
11.088321 58.226055 19.649597
11.09247 58.221901 19.358915
10.99188 58.583584 33.663654
10.998836 58.576649 33.173889
11.001276 58.564953 32.686295
11.0085 58.558861 32.21534
10.992711 58.527382 31.717932
11.000653 58.52261 31.265602
11.009294 58.518848 30.822266
11.009163 58.505562 30.373907
11.009861 58.493423 29.934551
11.011537 58.482597 29.504074
11.024207 58.48418 29.095865
11.023384 58.470993 28.675943
11.028911 58.465046 28.271269
11.035994 58.461006 27.874945
11.03458 58.447742 27.473843
11.034843 58.436516 27.081074
11.031747 58.421749 26.690132
11.046168 58.426517 26.326252
11.052325 58.422306 25.957541
11.050121 58.409016 25.584249
11.044791 58.392433 25.212725
11.047082 58.384415 24.855057
11.062638 58.391151 24.516825
11.064614 58.383057 24.168047
11.058282 58.365948 23.815002
11.054572 58.351868 23.469419
11.070243 58.359226 23.14813
11.061094 58.33942 22.805563
11.071636 58.34137 22.486797
11.06841 58.328308 22.158312
11.073952 58.324989 21.842083
11.088475 58.331619 21.53771
11.089206 58.323223 21.223879
11.081743 58.305954 20.906223
11.077625 58.292454 20.59516
11.088644 58.295628 20.300507
11.085733 58.283642 19.996984
11.086431 58.275696 19.699636
11.096768 58.278378 19.413038
10.976542 58.606544 33.741943
10.987164 58.549088 31.341143
10.991401 58.540695 30.890234
10.986775 58.52269 30.434416
10.987744 58.511127 29.994612
10.999479 58.511723 29.577332
11.007566 58.508469 29.161787
11.012026 58.501389 28.748035
11.007863 58.484951 28.32951
11.020266 58.487041 27.939289
11.008953 58.463074 27.524652
11.01457 58.458012 27.137911
11.011726 58.443768 26.74649
11.021186 58.443275 26.375843
11.032808 58.445316 26.012949
11.03085 58.432529 25.63917
11.041749 58.434063 25.285429
11.033661 58.414818 24.915016
11.03869 58.410164 24.564323
11.040864 58.402504 24.21512
11.045678 58.397877 23.873262
11.042233 58.384296 23.527103
11.047079 58.379951 23.193905
11.049279 58.372818 22.862087
11.06008 58.37524 22.542742
11.062755 58.368851 22.219116
11.062899 58.359795 21.896847
11.077672 58.366875 21.591887
11.078647 58.358936 21.277456
11.059865 58.329464 20.948883
11.073351 58.335423 20.652605
11.067111 58.319885 20.342258
11.070242 58.314693 20.043205
11.077038 58.313591 19.750172
11.081669 58.310207 19.458187
10.981544 58.604004 32.842346
10.984735 58.594311 32.363094
10.983542 58.579994 31.88603
10.992175 58.57682 31.432465
10.982417 58.553471 30.959814
10.987605 58.546925 30.517391
10.988848 58.536217 30.076944
11.000861 58.53764 29.659027
11.014163 58.540668 29.249599
10.999015 58.512424 28.808334
11.020098 58.524422 28.42251
11.01261 58.50502 28.005226
11.016779 58.498672 27.60955
11.01242 58.483078 27.209196
11.020155 58.480991 26.829901
11.009044 58.45829 26.4333
11.026071 58.46674 26.076162
11.02429 58.45462 25.701824
11.03004 58.450932 25.341434
11.038193 58.450016 24.9886
11.038065 58.440132 24.631245
11.04045 58.433136 24.281401
11.039994 58.423149 23.933084
11.036716 58.410187 23.586344
11.047279 58.412529 23.25824
11.049681 58.406029 22.925768
11.043832 58.390602 22.589182
11.052252 58.390915 22.270567
11.075259 58.407295 21.969305
11.061707 58.383751 21.636993
11.074271 58.388885 21.332579
11.067196 58.372631 21.013708
11.063461 58.36013 20.701426
11.074867 58.364262 20.405567
11.07233 58.353249 20.100817
11.061585 58.333366 19.792522
11.084104 58.349861 19.514418
10.976826 58.605324 32.903706
10.989305 58.60677 32.438423
10.983501 58.588177 31.953655
11.001564 58.584507 31.054504
10.992516 58.562981 30.59045
10.993849 58.553143 30.149427
11.005966 58.555401 29.730932
11.00454 58.542889 29.300625
11.009288 58.537369 28.885759
11.025502 58.544662 28.492647
11.013036 58.520504 28.068188
11.017263 58.514912 27.671972
11.028394 58.517067 27.29039
11.015573 58.493015 26.884863
11.02014 58.488251 26.506685
11.026794 58.485916 26.136395
11.035669 58.486153 25.773832
11.030884 58.471516 25.400547
11.033729 58.465393 25.041122
11.039034 58.46209 24.689228
11.041478 58.455769 24.338814
11.046563 58.452457 23.995741
11.037858 58.434155 23.642599
11.048486 58.437138 23.313919
11.06212 58.443504 22.992069
11.05639 58.428787 22.654747
11.053628 58.417423 22.32448
11.065329 58.421963 22.011864
11.068918 58.417728 21.695028
11.070067 58.410923 21.379471
11.074576 58.407871 21.070389
11.076736 58.40234 20.762512
11.076563 58.394348 20.455872
11.068191 58.377506 20.145569
11.07518 58.377483 19.851311
11.079999 58.375172 19.558092
10.977251 58.636066 32.980682
10.976029 58.622787 32.493183
10.979719 58.615162 32.022266
10.993344 58.618725 31.574728
10.998192 58.612789 31.121998
10.989334 58.591919 30.657373
10.995731 58.588081 30.222673
10.998283 58.580185 29.789877
11.006908 58.579159 29.372585
11.001919 58.563305 28.943666
11.01327 58.565613 28.543394
11.021189 58.564293 28.144756
11.020584 58.553749 27.741304
11.016507 58.539547 27.339735
11.019356 58.533104 26.952848
11.018929 58.523205 26.567686
11.041574 58.538761 26.21549
11.034847 58.522213 25.833599
11.040926 58.519844 25.471888
11.038654 58.508442 25.105663
11.038769 58.499783 24.747107
11.041397 58.493988 24.396055
11.04118 58.485195 24.046522
11.049175 58.485497 23.710051
11.037831 58.464752 23.357872
11.045987 58.465435 23.029911
11.057198 58.469547 22.708744
11.054604 58.458675 22.377817
11.060786 58.457481 22.059153
11.070235 58.459938 21.747036
11.054276 58.434765 21.415091
11.058851 58.432079 21.10556
11.066895 58.433254 20.802319
11.072666 58.43203 20.50016
11.070292 58.422009 20.194185
11.065611 58.409557 19.889515
11.076461 58.414082 19.600542
10.966505 58.731731 34.571442
10.975115 58.728374 34.069195
10.979077 58.720112 33.569122
10.97381 58.70187 33.064041
10.982464 58.699276 32.590229
10.977421 58.681751 32.104179
10.99161 58.685711 31.655905
10.992235 58.674881 31.195415
10.993533 58.664997 30.744024
10.99079 58.650852 30.294718
11.003657 58.654114 29.874887
10.998017 58.63715 29.436468
11.008446 58.638069 29.027012
11.010306 58.629715 28.612621
11.003497 58.611992 28.19355
11.01347 58.612888 27.802584
11.020124 58.610283 27.413229
11.018291 58.598499 27.019171
11.023554 58.594658 26.639574
11.025634 58.587456 26.261616
11.029853 58.582733 25.891514
11.036342 58.580631 25.529116
11.029099 58.563602 25.156172
11.045821 58.572956 24.814867
11.038017 58.555561 24.451195
11.043678 58.553028 24.106775
11.041054 58.541538 23.758028
11.046727 58.539234 23.422235
11.055331 58.540234 23.09341
11.055735 58.532372 22.760313
11.042191 58.50938 22.417744
11.065749 58.526993 22.114649
11.06414 58.51722 21.791098
11.065775 58.511078 21.474203
11.070765 58.508682 21.163778
11.061756 58.491116 20.844374
11.061985 58.4837 20.536528
11.071651 58.486645 20.239822
11.073214 58.480835 19.939255
11.084421 58.485596 19.649443
10.968648 58.796577 33.650547
10.97791 58.793854 33.166546
10.968799 58.771008 32.663029
10.987873 58.779621 32.212025
10.988709 58.768257 31.741533
10.999616 58.768253 31.294281
10.98243 58.737404 30.814142
10.999764 58.744911 30.39172
10.988886 58.721455 29.936798
10.998656 58.720985 29.51804
11.004779 58.716667 29.101049
11.007277 58.70853 28.685884
11.011236 58.702175 28.279177
11.016801 58.69775 27.880785
11.02411 58.695404 27.49057
11.017738 58.678162 27.089277
11.023602 58.67453 26.708874
11.026278 58.667538 26.330107
11.025784 58.657204 25.953022
11.032816 58.655273 25.58987
11.031489 58.644299 25.222198
11.043364 58.64793 24.8741
11.036088 58.630692 24.509663
11.036782 58.622311 24.158651
11.029116 58.6049 23.803453
11.04078 58.608761 23.472694
11.044259 58.603767 23.137548
11.045089 58.595985 22.803804
11.060259 58.603977 22.487869
11.050247 58.584553 22.151447
11.049017 58.574825 21.827314
11.062538 58.581291 21.5203
11.067959 58.579002 21.209133
11.065198 58.567879 20.894073
11.077581 58.573349 20.595425
11.070108 58.557262 20.282932
11.07208 58.551548 19.981609
11.071805 58.543472 19.681469
10.962913 58.841469 33.227615
10.963479 58.829235 32.737961
10.964246 58.817463 32.257729
10.976563 58.80653 31.339123
10.978945 58.797207 30.886366
10.98214 58.788986 30.442577
10.976484 58.771198 29.99398
10.986615 58.771027 29.574646
10.993095 58.767002 29.157074
10.990916 58.753613 28.734692
10.995186 58.747505 28.327459
11.006166 58.748951 27.935043
10.998372 58.729893 27.524923
11.002598 58.72422 27.135967
11.003534 58.715084 26.748726
11.001202 58.702507 26.363249
11.01683 58.709793 26.00425
11.01885 58.702271 25.63438
11.017808 58.691525 25.266157
11.019138 58.683514 24.905584
11.022969 58.678364 24.552502
11.012966 58.658192 24.189297
11.033109 58.671139 23.862392
11.034037 58.663162 23.519501
11.032226 58.652306 23.178106
11.038943 58.650879 22.849312
11.037433 58.640564 22.516354
11.038994 58.633709 22.190258
11.038016 58.62418 21.865536
11.046032 58.624561 21.552694
11.040089 58.609806 21.230688
11.049119 58.611469 20.925425
11.050008 58.60434 20.616228
11.054443 58.601162 20.313227
11.056617 58.5956 20.011374
11.068429 58.600601 19.720259
10.961551 58.842388 32.313747
10.962743 58.831821 31.842329
10.969233 58.827316 31.387127
10.979069 58.804356 30.054298
10.969518 58.782948 29.607332
10.975958 58.779331 29.18943
10.988834 58.782963 28.786617
10.993187 58.777378 28.378857
10.999144 58.773712 27.979404
10.991384 58.755135 27.568813
11.000847 58.755627 27.185751
10.991403 58.735512 26.785362
11.004881 58.740685 26.418171
11.010028 58.736851 26.046223
11.012093 58.729771 25.675865
11.011094 58.719467 25.307152
11.023306 58.723747 24.957996
11.010892 58.701195 24.58662
11.022851 58.705429 24.246244
11.021055 58.694729 23.895649
11.027553 58.693203 23.557995
11.031379 58.688862 23.221693
11.021289 58.669437 22.875731
11.031078 58.671806 22.553312
11.021288 58.652916 22.215937
11.037472 58.662441 21.906765
11.051326 58.66951 21.598557
11.051274 58.66151 21.281034
11.048792 58.650948 20.964849
11.043892 58.637844 20.650038
11.048365 58.635021 20.346504
11.050573 58.629814 20.044113
11.056478 58.628696 19.747679
10.961514 58.908527 34.35117
10.957614 58.892094 33.834087
10.971987 58.896072 33.355778
10.96803 58.880032 32.857826
10.978306 58.879913 32.39082
10.979623 58.870117 31.918722
10.976665 58.855812 31.448801
10.988789 58.858315 31.008938
10.982401 58.840618 30.550224
10.991563 58.840218 30.121077
11.006881 58.846745 29.707275
10.993629 58.822044 29.26161
10.996575 58.815308 28.844809
11.000987 58.810337 28.436451
11.007005 58.807274 28.036398
11.00961 58.800617 27.638071
11.008822 58.790382 27.241531
11.020372 58.793804 26.86573
11.0288 58.793926 26.491415
11.023499 58.779152 26.106312
11.014962 58.760975 25.72307
11.030146 58.768856 25.371872
11.037078 58.767826 25.015987
11.035666 58.757793 24.655672
11.031315 58.744663 24.296999
11.035107 58.740532 23.951502
11.041702 58.739563 23.613123
11.045622 58.735775 23.276094
11.046883 58.729179 22.940456
11.045499 58.719803 22.606251
11.047191 58.713863 22.2789
11.052071 58.711491 21.958221
11.04872 58.700241 21.63357
11.054453 58.698959 21.320679
11.057815 58.695179 21.008972
11.052958 58.682545 20.69348
11.05748 58.68018 20.389257
11.065655 58.681854 20.091034
11.071634 58.681213 19.793831
10.960515 58.973721 34.945568
10.96181 58.962852 34.425446
10.971987 58.962029 33.929668
10.968372 58.946213 33.421486
10.97871 58.946007 32.944527
10.989428 58.946426 32.47673
10.995929 58.942398 32.01091
10.993443 58.928669 31.540121
10.991538 58.915775 31.078529
10.990366 58.903881 30.626013
10.990076 58.893139 30.182453
11.000737 58.894604 29.761246
10.997735 58.881222 29.328398
11.011099 58.885971 28.924143
10.995595 58.8592 28.48867
11.01723 58.873314 28.107519
11.020202 58.867104 27.708395
11.019775 58.857311 27.31105
11.015972 58.843964 26.915541
11.024645 58.844402 26.540613
11.024894 58.835754 26.161057
11.021979 58.823772 25.783224
11.026698 58.820259 25.41921
11.02844 58.813606 25.05674
11.043606 58.82172 24.713512
11.039552 58.80896 24.354063
11.032573 58.793121 23.9963
11.039393 58.792439 23.657276
11.049136 58.79504 23.325195
11.050647 58.788761 22.988832
11.04384 58.773518 22.648447
11.045743 58.767853 22.320436
11.050833 58.765743 21.999094
11.059223 58.767311 21.684237
11.059422 58.760048 21.365368
11.068848 58.762894 21.057993
11.064247 58.750572 20.741673
11.069024 58.748516 20.436619
11.071527 58.744064 20.1327
11.083678 58.750153 19.839508
10.952587 59.060177 35.017803
10.949993 59.044323 34.489616
10.951611 59.033386 33.978565
10.962351 59.032772 33.491619
10.968647 59.027473 33.006744
10.961112 59.00713 32.509754
10.953758 58.987217 32.022297
10.985084 59.010162 31.600336
10.978901 58.991955 31.131123
10.973361 58.974659 30.671106
10.978453 58.969265 30.233807
10.989613 58.970722 29.811958
10.997107 58.968315 29.391861
10.995914 58.956532 28.966944
10.991018 58.940849 28.544027
10.997807 58.938156 28.142656
11.001172 58.931858 27.743006
11.001137 58.921982 27.345135
10.992481 58.902805 26.942806
11.006774 58.908916 26.573627
11.012715 58.906006 26.19969
11.020916 58.905693 25.833424
11.015337 58.890434 25.456614
11.01748 58.883747 25.093523
11.016657 58.873936 24.732023
11.029381 58.87904 24.389584
11.02279 58.863163 24.031195
11.029993 58.86245 23.691528
11.040114 58.865025 23.358797
11.036363 58.852566 23.01627
11.041232 58.849606 22.686207
11.049235 58.850155 22.362843
11.037542 58.829346 22.024794
11.046255 58.830849 21.709343
11.052574 58.82983 21.395037
11.056514 58.826302 21.081909
11.052223 58.813908 20.764999
11.051413 58.805382 20.454418
11.048265 58.794399 20.145123
11.066607 58.806828 19.856241
10.948766 59.160431 35.079529
10.946775 59.144348 34.550663
10.944415 59.128128 34.031609
10.955705 59.127289 33.54401
10.962544 59.121761 33.058483
10.960254 59.106377 32.567974
10.962976 59.096771 32.093933
10.975788 59.09853 31.643072
10.979756 59.090729 31.18714
10.974776 59.073269 30.726391
10.970585 59.056889 30.274712
10.982212 59.05814 29.852222
10.990169 59.055527 29.431482
10.989433 59.043522 29.005934
10.98499 59.027622 28.582384
10.992226 59.024738 28.180355
10.990873 59.012577 27.77363
10.996437 59.008175 27.381523
10.998693 59.000294 26.991117
11.008215 59.000526 26.614897
11.009304 58.991657 26.234062
11.012572 58.985317 25.861027
11.00737 58.969833 25.483616
11.020739 58.974815 25.131786
11.02582 58.970848 24.775396
11.022522 58.95784 24.414705
11.027358 58.953842 24.067152
11.029419 58.94693 23.721043
11.034325 58.943237 23.382006
11.036556 58.936729 23.044353
11.041802 58.93362 22.713568
11.027363 58.909142 22.36801
11.044588 58.919289 22.056002
11.047927 58.914394 21.734518
11.054605 58.913223 21.419468
11.053063 58.903198 21.100531
11.054953 58.896992 20.787952
11.054484 58.888309 20.476625
11.039825 58.864285 20.156906
10.947394 59.227306 35.120106
10.943332 59.194927 34.071152
10.964026 59.204311 33.597488
10.957108 59.183365 33.08976
10.964345 59.178333 32.613014
10.962512 59.163502 32.13131
10.975489 59.165264 31.679882
10.965096 59.141438 31.202593
10.974786 59.139992 30.762091
10.980592 59.13446 30.323465
10.982538 59.12487 29.886784
10.980646 59.111244 29.452106
10.990078 59.110268 29.039333
10.985785 59.094372 28.61521
10.998309 59.097137 28.219065
11.002316 59.090702 27.818096
11.002912 59.080681 27.418905
11.000119 59.067101 27.021551
11.004519 59.061565 26.638504
11.016362 59.064335 26.269409
11.003752 59.040443 25.877472
11.009409 59.036709 25.511595
11.017506 59.035774 25.153193
11.022702 59.031792 24.79624
11.019512 59.018757 24.434994
11.024461 59.014748 24.086872
11.032204 59.013905 23.745842
11.031647 59.004105 23.400579
11.028345 58.991425 23.056849
11.033665 58.988262 22.725552
11.0307 58.97617 22.390221
11.04233 58.980083 22.072248
11.039997 58.96888 21.744965
11.035134 58.955021 21.419123
11.051103 58.963928 21.114996
11.053086 58.957703 20.801817
11.040915 58.936165 20.480078
11.055915 58.944263 20.184086
10.955203 59.257629 35.166691
10.953242 59.241955 34.636841
10.960093 59.236298 34.131386
10.976183 59.241089 33.649868
10.973881 59.225796 33.148773
10.990565 59.231697 32.685642
10.979298 59.206978 32.189091
10.97789 59.193359 31.716057
10.977061 59.180595 31.252193
10.972072 59.163456 30.790518
10.982669 59.163673 30.358307
10.989488 59.159916 29.92791
10.997561 59.157715 29.506062
10.991873 59.140564 29.072805
10.997669 59.136208 28.661304
10.999935 59.128132 28.251602
10.998689 59.116367 27.843754
10.999164 59.106651 27.444159
11.006747 59.10487 27.058947
11.011114 59.099709 26.67535
11.017607 59.097012 26.299559
11.026359 59.096916 25.931417
11.026698 59.087749 25.558771
11.018535 59.06942 25.181875
11.018194 59.059769 24.818567
11.020406 59.053024 24.462685
11.025292 59.04932 24.114058
11.038556 59.054859 23.778162
11.032354 59.039276 23.42675
11.045925 59.045353 23.099009
11.039927 59.030205 22.756124
11.042643 59.024651 22.425558
11.042793 59.016403 22.096355
11.051953 59.018051 21.778961
11.047087 59.004532 21.452448
11.051386 59.001068 21.137524
11.047437 58.988728 20.818836
11.052869 58.986664 20.511358
11.05008 58.97575 20.200188
10.955301 59.268291 35.232117
10.948834 59.248398 34.694427
10.964879 59.253601 34.203144
10.971807 59.248966 33.706608
10.955471 59.218929 33.183548
10.976778 59.230583 32.727283
10.970192 59.211731 32.237469
10.978375 59.209339 31.778038
10.992161 59.213299 31.334454
10.987355 59.19701 30.872072
10.993217 59.192627 30.432352
11.000191 59.18964 30.001307
10.998384 59.177189 29.565456
10.987701 59.155182 29.125059
10.998631 59.157028 28.719637
11.000967 59.149609 28.309397
11.004967 59.144165 27.907417
11.000336 59.129421 27.500866
11.002743 59.122524 27.108831
11.001852 59.11216 26.718544
11.013677 59.115818 26.348475
11.006367 59.098705 25.961636
11.017438 59.101788 25.600704
11.031028 59.107727 25.247099
11.030829 59.098736 24.88308
11.02767 59.086636 24.520693
11.027117 59.077488 24.165701
11.023709 59.065342 23.812292
11.034318 59.068562 23.47723
11.047965 59.07518 23.148905
11.042027 59.060581 22.805428
11.033372 59.043129 22.46356
11.03927 59.041595 22.139187
11.054248 59.050007 21.826475
11.061066 59.049637 21.509621
11.059644 59.040398 21.188885
11.049901 59.022217 20.864531
11.061299 59.027054 20.561344
11.052654 59.010227 20.244654
10.94565 59.296562 35.33046
10.956272 59.283642 34.300179
10.954442 59.269669 33.788502
10.952569 59.255875 33.286419
10.964979 59.258007 32.815189
10.963618 59.245201 32.331806
10.96749 59.238346 31.864695
10.972023 59.23241 31.40662
10.972474 59.222179 30.950594
10.958994 59.196857 30.483068
10.981131 59.210762 30.07193
10.974659 59.193474 29.628876
10.9744 59.183159 29.201233
