# .PCD v0.7 - Point Cloud Data file format
VERSION 0.7
FIELDS x y z
SIZE 4 4 4
TYPE F F F
COUNT 1 1 1
WIDTH 1094
HEIGHT 1
VIEWPOINT 0 0 0 1 0 0 0
POINTS 1094
DATA ascii
22.750031 51.564781 15.855899
22.795946 51.588913 15.406854
22.971321 51.208656 3.4674616
22.102411 52.093513 30.619741
22.135502 52.100739 30.06575
22.139524 51.949673 26.7033
22.174372 51.960312 26.185505
22.249643 52.012432 25.699116
22.240131 51.881748 23.069042
22.261568 51.879971 22.569952
22.285959 51.881355 22.075953
21.66283 51.955494 26.559624
21.671625 51.939732 26.026896
21.731543 51.856853 22.928034
21.193089 51.944214 25.882608
21.254368 51.863796 22.803358
21.267603 51.854202 22.305992
21.302982 51.867889 21.825125
11.056409 51.607826 14.2107
11.06534 51.597874 13.809115
11.060991 51.569019 13.403418
11.076605 51.568859 13.008884
11.056684 51.517982 12.600821
11.084716 51.53577 12.215087
11.08274 51.510773 11.818601
11.072998 51.474804 11.421137
11.072329 51.451889 11.029079
11.086449 51.450153 10.643894
11.104183 51.453632 10.261125
11.091626 51.414055 9.8698969
11.088296 51.387711 9.4833498
11.088588 51.366608 9.0993986
11.10961 51.375027 8.7223644
11.111589 51.356453 8.3412333
11.11728 51.343212 7.9621863
11.120997 51.327229 7.5837379
11.139923 51.332859 7.2094293
11.122531 51.287079 6.8287554
9.9540672 52.574829 39.82946
22.876608 51.174938 2.643924
22.854404 51.187256 3.5380843
22.861469 51.205563 3.3597131
22.867231 51.224079 4.4296842
22.856422 51.229221 4.2531185
22.852421 51.239372 4.0761595
22.958984 51.300777 6.9418445
22.949642 51.307087 6.7618456
22.93903 51.312447 6.5820599
22.891973 51.410397 10.288134
22.874956 51.411289 10.094143
22.856504 51.411068 9.9007816
22.852379 51.421227 9.7125101
22.815336 51.407284 9.5160141
22.800537 51.409512 9.3266926
22.784359 51.410671 9.1378956
22.931896 51.433418 11.87173
22.926739 51.443336 11.672988
22.927807 51.457703 11.477712
22.919678 51.465321 11.279884
22.840227 51.420956 11.057304
22.790108 51.397781 10.847673
22.785122 51.407387 10.65529
22.770906 51.410198 10.46076
22.747427 51.406162 10.264356
22.73032 51.406704 10.071122
22.696085 51.394627 9.8739138
22.691833 51.404438 9.6865654
22.6626 51.395863 9.4931431
22.929895 51.464985 12.900819
22.917334 51.469788 12.692223
22.918381 51.484367 12.491118
22.925537 51.503311 12.293733
22.915899 51.509979 12.090178
22.904707 51.515434 11.887239
22.705111 51.423206 11.031562
22.662695 51.405281 10.825337
22.626478 51.391777 10.622986
22.619907 51.39991 10.431931
22.596312 51.395485 10.236371
22.571259 51.3899 10.041597
22.552599 51.388943 9.849926
22.548235 51.398441 9.6633339
22.526791 51.395294 9.4728107
22.511831 51.396866 9.2850151
22.487621 51.391544 9.0957909
22.923328 51.518177 13.54993
22.908304 51.521343 13.335163
22.90666 51.534119 13.128474
22.910982 51.551147 12.925851
22.505981 51.388237 10.795662
22.49295 51.391479 10.602139
22.470701 51.387859 10.406651
22.454792 51.388832 10.2144
22.437464 51.388683 10.022768
22.4109 51.381638 9.8294764
22.398586 51.385056 9.6414299
22.384905 51.387402 9.4538832
22.377726 51.394508 9.2688923
22.337715 51.377201 9.0764399
22.769766 51.49395 13.728358
22.368223 51.385914 10.783066
22.347389 51.383183 10.587572
22.332867 51.38504 10.395385
22.309135 51.380005 10.201335
22.283966 51.373817 10.008075
22.280807 51.383896 9.8225126
22.252827 51.375473 9.6306295
22.231272 51.371754 9.4417133
22.224043 51.378632 9.2575693
22.199766 51.372753 9.0698738
22.913418 51.566315 15.824552
22.902061 51.573112 15.59272
22.631554 51.491539 13.71473
22.429396 51.489944 11.423764
22.209059 51.37746 10.583551
22.202295 51.384922 10.394584
22.163054 51.368153 10.196165
22.153469 51.373371 10.008424
22.126915 51.365879 9.8165464
22.106762 51.363079 9.6277113
22.10088 51.37088 9.4438124
22.070162 51.360054 9.254118
22.04591 51.353985 9.0672607
22.905416 51.591419 16.808931
22.902155 51.604652 16.573267
22.889791 51.611156 16.33366
22.889729 51.626423 16.10437
22.887777 51.640194 15.875781
22.876732 51.647228 15.643402
22.527105 51.507122 13.718138
22.435715 51.521263 12.455502
22.082054 51.374561 10.5837
22.052027 51.36459 10.387635
22.036055 51.365028 10.197467
22.026459 51.370167 10.010313
21.992134 51.356731 9.8167038
21.97978 51.359673 9.6307592
21.96608 51.361542 9.4453163
21.951036 51.362347 9.2603912
21.93466 51.362091 9.0759983
22.889603 51.622578 17.583157
22.892664 51.64093 17.344574
22.865618 51.637337 17.086805
22.871601 51.657497 16.854891
22.854399 51.660698 16.609125
22.400154 51.504696 13.707347
22.483234 51.579792 13.543699
22.338404 51.540596 12.461684
21.931931 51.366009 10.38843
21.90818 51.360577 10.19628
21.890772 51.359821 10.007319
21.871979 51.357956 9.8189974
21.85181 51.354988 9.6313314
21.830275 51.350918 9.4443369
21.823009 51.35754 9.262146
21.798788 51.351318 9.0763731
22.809048 51.637196 17.838152
22.869732 51.69759 17.639935
22.85911 51.706169 17.390652
22.288763 51.512878 13.703472
22.173752 51.509247 12.436432
21.724239 51.350273 9.6310816
21.710459 51.352036 9.4468231
21.679747 51.340919 9.2589579
21.663292 51.34053 9.075922
22.679247 51.634254 17.811287
22.542288 51.614338 16.528532
22.149157 51.500725 13.683043
22.025795 51.49033 12.416938
21.553871 51.336704 9.2588539
21.545197 51.342163 9.0783901
22.858276 51.712917 20.345596
22.850981 51.725746 20.06872
22.531618 51.630268 17.767082
22.439711 51.626492 16.750956
22.471186 51.665131 16.54121
22.050228 51.52792 13.679096
21.911955 51.505081 12.407591
22.888977 51.795017 21.279118
22.805731 51.753323 20.919933
22.405649 51.649273 17.729906
22.403137 51.663265 17.487356
22.26413 51.607231 16.681511
21.922457 51.538658 13.651081
21.731194 51.473682 12.359135
22.299835 51.680397 17.69566
22.087803 51.584259 16.599806
21.77774 51.533913 13.604116
21.778259 51.547451 13.401334
22.016846 51.633671 16.593117
21.896698 51.63744 16.561951
19.201178 51.180489 3.4195442
19.20648 51.195652 3.2566109
19.218285 51.216263 3.0921767
19.206051 51.216896 2.93085
19.209681 51.206703 4.3970337
19.20619 51.214634 4.236176
19.19393 51.215294 4.0758181
19.195936 51.227814 3.9141676
19.18119 51.266769 4.410903
19.274654 51.271297 6.6899152
19.278662 51.285694 6.5281243
19.270859 51.293766 7.5269318
19.265022 51.300255 7.3624134
19.265747 51.312126 7.1991429
19.257692 51.316746 7.0349145
19.248529 51.320423 6.870894
19.245945 51.329517 6.7078991
19.234579 51.331337 6.5442448
18.859625 51.229538 3.4900599
19.271126 51.315971 8.3740721
19.263279 51.321102 8.2066565
19.246653 51.318974 8.0380297
19.244158 51.328438 7.8727045
19.232891 51.330647 7.7061939
19.235804 51.344517 7.5424938
19.22995 51.351135 7.3776345
19.230646 51.363148 7.2140241
19.199572 51.348858 7.0465093
18.794699 51.235493 3.8220205
18.762962 51.231136 3.5044191
18.737907 51.221191 3.3468268
18.726988 51.223202 3.1873374
18.699841 51.211472 3.0302145
19.24037 51.332226 8.8879843
19.251106 51.352882 8.7233086
19.24552 51.360096 8.5550203
19.231169 51.360062 8.3853207
19.230892 51.371578 8.2192392
19.214235 51.369553 8.050272
19.211691 51.379135 7.8846073
19.139277 51.330925 7.7071347
19.14208 51.344833 7.5437851
18.758368 51.24062 4.4659667
18.739603 51.236084 4.3075204
18.727417 51.237095 4.1487322
18.721792 51.243652 3.9893534
18.699869 51.236431 3.8314121
18.668087 51.232185 3.514514
19.174086 51.36002 8.8910189
19.192327 51.386967 8.7281847
19.194286 51.400471 8.5615702
18.996408 51.295395 7.6969295
19.052532 51.353592 7.5431247
18.67585 51.255177 4.4699349
18.577848 51.24025 3.5204809
19.061611 51.352371 8.8805809
18.909252 51.319233 7.5318656
18.903183 51.325684 7.3684816
18.865482 51.305706 7.2010221
18.834293 51.291092 7.03543
18.809631 51.281883 6.8714581
18.79916 51.2845 6.7096643
18.787605 51.28619 6.5481052
18.59383 51.269653 4.4719148
18.94245 51.34127 8.8634043
18.945364 51.355339 8.6979809
18.969866 51.387329 8.5378847
18.894768 51.336441 8.3557348
18.871498 51.328587 8.1864538
18.847073 51.319706 8.0178089
18.813898 51.303459 7.8484082
18.794781 51.298889 7.6824822
18.79738 51.312431 7.5207591
18.776041 51.305923 7.3555956
18.776455 51.317593 7.1941423
18.760536 51.315556 7.0307665
18.766409 51.331776 6.8704333
18.748314 51.327854 6.7075768
18.736765 51.329407 6.5458417
19.19846 51.435715 11.923431
19.273306 51.509655 11.775354
19.266598 51.51675 11.590978
18.766069 51.316807 8.3400002
18.773064 51.33403 8.1777077
18.756214 51.331287 8.0109005
18.753414 51.340263 7.847374
18.696337 51.303711 7.674788
18.729307 51.342621 7.5183163
18.723198 51.34874 7.3554406
19.218184 51.471889 12.894046
19.262815 51.521412 12.728999
19.153173 51.457405 12.302521
18.732166 51.337849 8.8445406
18.734947 51.351635 8.6799603
18.721514 51.351818 8.5119715
18.72205 51.363663 8.3477373
19.273796 51.56789 13.35247
18.652267 51.349434 8.8532724
18.539034 51.333958 8.8607693
18.439327 51.34103 7.537848
18.904926 51.464283 12.702984
18.34861 51.345718 7.5528841
18.86972 51.478508 13.301085
18.866825 51.489315 13.110169
18.869646 51.504761 12.923554
18.885412 51.530849 12.744707
18.747517 51.442276 12.306094
18.191532 51.293358 7.5534115
19.253407 51.620365 17.353781
19.170126 51.599125 16.61828
19.191826 51.631947 16.416058
19.191771 51.646927 16.199184
19.183218 51.654831 15.978117
19.099066 51.630146 16.642317
19.154358 51.690403 16.465202
19.141205 51.694584 16.237963
15.487419 51.197365 2.600028
15.481263 51.196186 2.4481294
15.447946 51.203541 3.6678369
15.431669 51.204468 3.066107
15.421537 51.19907 2.9161592
15.565732 51.358944 8.7071962
15.541392 51.339779 8.5453196
15.544882 51.346359 8.3910542
15.590803 51.392235 8.2466202
15.57784 51.383568 8.089016
15.592867 51.400829 7.9376841
11.606146 51.258259 5.7574177
11.609091 51.257133 5.6159968
11.603396 51.331577 5.8952165
11.607219 51.331264 5.7530274
11.610175 51.330063 5.6108217
11.239663 51.136753 0.27629286
26.184748 52.26936 33.032303
23.765032 51.955025 25.319193
23.648891 52.032799 26.383873
23.421682 51.976151 26.284109
23.443073 51.978916 25.755495
23.264193 51.976601 26.226616
23.251451 51.948868 25.677761
23.113354 52.027634 27.82762
23.087223 51.938354 25.622925
22.928335 51.948479 26.115652
23.002279 51.999107 25.624012
22.596243 51.949921 26.530722
22.605871 51.92572 25.460596
22.430676 51.970852 27.554199
22.476374 51.978901 26.491484
22.439795 51.928787 25.927994
22.472235 51.941921 25.413996
22.314058 52.028641 28.639563
22.334295 52.029987 28.09503
22.35025 52.02755 27.552237
22.329008 51.991093 26.988892
22.34956 51.993172 26.458933
22.352726 51.979435 25.921947
22.351707 51.962002 25.386936
22.248972 52.29245 35.208046
22.245798 52.251118 33.953438
22.24552 52.232002 33.338264
22.25255 52.219872 32.736214
22.273417 52.220753 32.152081
22.270536 52.199844 31.554743
22.230927 52.145164 30.934929
22.262703 52.156696 30.377726
22.225842 52.104977 29.773592
22.241995 52.102417 29.215733
22.254465 52.079475 28.101229
22.27553 52.065083 27.013124
22.276361 52.049171 26.469749
22.259659 52.017265 25.919815
22.105974 52.239872 33.905724
22.095785 52.139118 30.89629
21.998514 52.170532 30.884624
21.693356 52.262234 34.994659
21.729776 52.167324 30.794422
21.62303 52.191307 30.763889
21.387011 52.109608 31.215715
21.477959 52.177376 30.70668
21.365751 52.185833 30.682035
21.206223 52.141537 30.618744
21.148203 52.174309 30.054697
21.062714 52.007919 27.206038
20.93582 52.118042 31.088646
21.025442 52.185795 30.58201
21.003952 52.045795 26.668869
19.903973 51.594158 15.56465
19.483746 51.549297 15.496747
19.301884 51.550339 15.464294
19.300583 51.534901 15.017259
19.303162 51.523335 14.573966
19.220247 51.528893 14.561543
19.132416 51.524059 14.551229
19.053747 51.52182 14.549492
18.829102 51.529339 14.515925
18.835232 51.521503 14.078694
18.759348 51.563847 15.389633
18.750826 51.541203 14.942836
18.759867 51.536083 14.505024
18.772875 51.534962 14.070581
18.817142 51.523331 12.347392
18.692659 51.61145 16.725239
18.693253 51.597614 16.274931
18.711189 51.601139 15.834249
18.705713 51.581413 15.386271
18.710878 51.572357 14.944875
18.713087 51.560429 14.504531
18.732973 51.566154 14.072621
18.720291 51.511761 12.763206
18.735712 51.513271 12.336782
18.626701 51.683231 19.00654
18.636198 51.677967 18.546967
18.622423 51.649513 18.079016
18.63895 51.651463 17.628428
18.632193 51.630211 17.169714
18.635778 51.619392 16.718426
18.636288 51.605576 16.268366
18.681313 51.636276 15.839077
18.641756 51.582626 15.377503
18.660484 51.587212 14.941677
18.66263 51.575325 14.501499
18.67557 51.574261 14.067309
18.69034 51.547462 12.767427
18.691875 51.535275 12.336699
18.580494 51.773823 21.373135
18.59326 51.771465 20.899624
18.569777 51.732807 20.409384
18.575745 51.723839 19.938992
18.5977 51.716251 19.012632
18.600513 51.704407 18.54969
18.626877 51.716248 18.100948
18.623348 51.698227 17.640505
18.596432 51.656879 17.172428
18.620251 51.666409 16.729998
18.627563 51.659496 16.282557
18.604683 51.622467 15.825072
18.646744 51.650436 15.396423
18.638227 51.627922 14.949619
18.647224 51.622974 14.511805
18.640455 51.56115 12.765735
18.545052 52.04377 29.098242
18.524734 51.889523 24.837885
18.519207 51.852055 23.821583
18.517199 51.834293 23.320503
18.537294 51.838947 22.837383
18.528027 51.814114 22.339825
18.534607 51.805382 21.855831
18.531183 51.786686 21.369623
18.557001 51.797539 20.903662
18.540127 51.76553 20.417028
18.552721 51.763279 19.950085
18.568129 51.749226 19.020027
18.564308 51.730766 18.553715
18.570599 51.722553 18.095366
18.593851 51.731441 17.647646
18.580444 51.70364 17.185556
18.597565 51.706532 16.739922
18.59568 51.676342 15.840228
18.595251 51.647919 14.951007
18.482183 52.028008 28.531534
18.496622 52.0256 27.999477
18.463707 51.925663 25.85454
18.508263 51.954517 25.368303
18.473305 51.90303 24.830959
18.50419 51.918304 24.343258
18.51239 51.910759 23.844187
18.478426 51.860741 23.322218
18.492054 51.858944 22.835073
18.482759 51.834126 22.337584
18.489304 51.825413 21.853661
18.51845 51.839611 21.386404
18.537792 51.844013 20.916416
18.520994 51.812099 20.429531
18.546825 51.823235 19.969398
18.502693 51.749367 19.008188
18.518759 51.750961 18.552053
18.531694 51.749489 18.096983
18.541517 51.744968 17.643015
18.386364 51.928795 25.830225
18.432919 51.927616 24.324165
18.472988 51.952328 23.84622
18.432714 51.895851 23.320004
18.433508 51.881073 22.824755
18.424221 51.856232 22.327354
18.456724 51.873737 21.858946
18.444164 51.771378 18.998589
18.466879 51.779671 18.545832
18.372887 51.975243 25.840218
18.32329 51.845337 23.26737
18.3752 51.882412 22.805208
18.391617 51.883633 22.323874
18.404598 51.881481 21.843893
18.327881 51.989197 25.829348
18.303537 51.88504 23.27367
18.291143 51.856995 22.771187
18.281498 51.831871 22.274748
18.326542 51.862305 21.815008
18.283255 52.002491 25.818567
18.207451 51.830948 22.737259
18.28142 51.890812 22.29262
18.294146 51.888557 21.8132
18.288692 51.779881 18.499207
18.176756 51.857357 22.732763
18.192591 51.858303 22.252705
18.24383 51.895348 21.797131
18.21525 51.778248 18.936377
18.167719 52.001408 25.762554
18.089449 51.828262 22.685547
18.13714 51.861778 22.225866
18.118767 51.740597 18.891632
18.071739 51.874603 22.678202
18.087187 51.875244 22.198694
18.047979 51.732578 18.856117
18.02285 52.119049 29.969151
18.002193 51.870319 22.636782
18.010965 51.864105 22.153826
17.983286 51.732731 18.821999
17.920862 51.850647 22.589508
17.961454 51.877056 22.12681
17.926048 51.73774 18.793367
17.870533 51.859982 22.569546
17.859577 51.83363 22.075705
17.821873 51.692471 18.748533
17.780941 51.828072 22.529919
17.801781 51.834488 22.056404
17.80253 51.733307 18.751621
17.774895 51.88142 22.541927
17.725245 51.815384 22.024965
17.724436 51.713264 18.724161
17.671858 51.83815 22.49217
17.653957 51.804802 21.995697
17.68475 51.735344 18.715065
17.725073 51.762718 18.276756
17.729439 51.75322 17.822943
17.605247 51.834526 22.469059
17.612841 51.827442 21.988663
17.597546 51.710289 18.685158
17.530617 51.821495 22.449287
17.518942 51.794437 21.957615
17.548584 51.723297 18.682682
17.599522 51.747604 17.795399
17.481812 51.833675 22.446255
17.482935 51.819828 21.96258
17.4802 51.715038 18.670887
17.544184 51.752857 17.79081
17.404503 51.797371 21.938972
17.427002 51.718899 18.664663
17.466959 51.746086 18.227848
17.49086 51.756729 17.785086
17.475309 51.644455 14.671244
17.367865 51.714584 18.657116
17.401167 51.734982 18.217365
17.392052 51.711521 17.759073
17.415686 51.640095 14.666687
17.294582 51.696125 18.645401
17.360575 51.750515 18.222515
17.338352 51.713444 17.757919
17.23793 51.811611 22.403521
17.251558 51.810852 21.929054
17.24127 51.698414 18.642488
17.300671 51.746017 18.216589
17.291609 51.722542 17.758703
17.288681 51.623432 14.658799
17.212486 51.828484 21.92713
17.208981 51.722549 18.644495
17.255299 51.75655 18.212049
17.259392 51.746677 17.760714
17.220253 51.62302 15.081352
17.129892 51.814434 22.375332
17.117979 51.78688 21.885725
17.132524 51.699566 18.618855
17.159048 51.712975 18.17716
17.176073 51.716553 17.733034
17.093956 51.830711 22.370373
17.069336 51.789803 21.872997
17.083456 51.70195 18.607834
17.149126 51.756245 18.186033
17.133425 51.72567 17.7257
17.113379 51.621468 15.059429
17.071251 51.858337 22.375959
17.07206 51.844097 21.894203
17.034908 51.702766 18.599335
17.100464 51.757076 18.177782
17.091265 51.733311 17.720888
17.067286 51.611622 14.62018
17.018774 51.736561 18.609539
17.038639 51.743191 18.164898
17.003151 51.691975 17.695642
17.004723 51.597466 14.610613
16.951288 51.702408 18.136997
16.90909 51.644176 17.665289
16.895954 51.534782 14.580877
16.996161 51.626064 14.188514
16.939753 51.553841 13.73861
16.851366 51.51334 13.713148
16.925184 51.486153 10.377169
16.801291 51.409176 10.348853
16.814684 51.410374 9.9403419
16.791365 51.373325 9.524354
16.868074 51.440598 9.1321735
16.819065 51.376858 8.7133656
16.801697 51.346146 8.3031063
16.72127 51.353226 9.5129709
16.763638 51.384811 9.1138153
16.721382 51.328106 8.6973696
16.67951 51.350739 9.0996199
14.957108 51.319653 8.1274805
14.963437 51.314411 7.7332997
14.965155 51.267803 6.1613293
14.91158 51.3424 8.9142313
14.929279 51.349651 8.5206604
14.924629 51.332317 8.1233368
14.930924 51.327068 7.7292423
14.948223 51.333946 7.3378873
14.936434 51.308861 6.9424181
14.935658 51.295914 6.5497503
14.92583 51.273048 6.1567321
14.88843 51.465347 12.139008
14.874686 51.42503 11.318618
14.887034 51.426197 10.916785
14.863947 51.38826 10.506303
14.882923 51.384487 9.7079668
14.885467 51.374989 9.3088131
14.89223 51.370182 8.9118176
14.909901 51.377438 8.5181589
14.905239 51.360096 8.1207495
14.898175 51.340145 7.7241011
14.915428 51.347012 7.3328314
14.910301 51.329254 6.9385104
14.92958 51.33839 6.5487633
14.906356 51.300777 6.1537137
14.839878 51.485897 12.951833
14.842641 51.47625 12.540548
14.86246 51.485554 12.136711
14.853597 51.463131 11.724937
14.86843 51.466999 11.322347
14.861069 51.446346 10.914491
14.838 51.408371 10.504011
14.838787 51.396839 10.101959
14.843734 51.389946 9.7023458
14.872759 51.409698 9.309679
14.846357 51.368244 8.9050493
14.863987 51.375465 8.5116491
14.885924 51.387463 8.1197786
14.892204 51.382202 7.7255101
14.88278 51.359646 7.3293943
14.897692 51.363956 6.9383402
14.896909 51.350983 6.5455003
14.887086 51.328079 6.1523118
14.851879 51.805706 21.265198
14.826331 51.720398 19.415396
14.820647 51.645401 17.193075
14.805618 51.615192 16.750576
14.819505 51.617287 16.324886
14.808579 51.51358 13.360774
14.839938 51.535583 12.958003
14.842764 51.525955 12.54638
14.849563 51.52079 12.137846
14.853837 51.512875 11.730089
14.855596 51.502216 11.323141
14.848271 51.481544 10.915116
14.80549 51.42165 10.498962
14.812868 51.417377 10.098747
14.817818 51.410458 9.6991339
14.800479 51.37891 9.2954206
14.833714 51.403355 8.9048223
14.864639 51.425255 8.5140591
14.828822 51.7873 19.881174
14.782278 51.652412 17.182554
14.805284 51.664593 16.758835
14.825593 51.673832 16.335831
14.789284 51.541584 13.359065
14.840129 51.585274 12.963246
14.83649 51.568428 12.549023
14.830258 51.548759 12.135881
14.835555 51.516735 10.914819
14.759911 51.420292 10.489326
14.780429 51.430584 10.092867
14.798567 51.438263 9.6966658
14.781244 51.406681 9.2928696
14.794578 51.409103 8.8977098
14.788709 51.70742 17.196306
14.799113 51.705528 16.765968
14.757604 51.553909 13.354469
14.72814 51.432396 10.485332
14.742041 51.43536 10.08721
14.76014 51.443016 9.6911793
14.75603 51.426056 9.2907104
14.736242 51.391754 8.8880987
14.775087 51.712761 16.332975
14.719382 51.558689 13.348924
14.696314 51.444294 10.482814
14.703608 51.439938 10.083028
14.695288 51.418266 9.6805201
14.717542 51.430607 9.2868729
14.71098 51.410973 8.887414
14.62769 51.556023 14.99603
14.661491 51.541824 13.33613
14.664967 51.444515 10.078894
14.676407 51.444817 9.6815443
14.659049 51.413116 9.2783537
14.678896 51.42284 8.8852863
14.598377 51.650925 17.573715
14.648959 51.575153 13.340627
14.600164 51.419331 10.068023
14.604958 51.412235 9.6695261
14.607343 51.402493 9.2716646
14.627148 51.412182 8.8789396
14.61882 51.595303 13.338573
14.543758 51.410118 10.058892
14.555081 51.410328 9.6623907
14.557428 51.400562 9.2647772
14.583789 51.417599 8.8737907
14.537534 51.574364 13.317984
14.495259 51.425167 10.051238
14.513211 51.432713 9.6564999
14.509037 51.415581 9.2573223
14.515643 51.410522 8.8619661
14.468028 51.541 13.302485
14.451332 51.420609 10.047506
14.462671 51.420807 9.6513624
14.465049 51.411015 9.2541056
14.465033 51.398586 8.8575172
14.424352 51.536091 13.298621
14.387688 51.393745 10.040425
14.41209 51.408642 9.6481256
14.434163 51.420956 9.2559452
14.420959 51.393818 8.8564587
14.38097 51.530083 13.296664
14.376913 51.42461 10.049251
14.381648 51.417526 9.6517859
14.364264 51.385693 9.2502193
14.38394 51.395424 8.8587961
14.383285 51.574757 13.310517
14.327323 51.411293 10.046344
14.338574 51.411583 9.6508875
14.340885 51.401878 9.2543154
14.340813 51.389534 8.8584118
14.353918 51.583656 13.309842
14.291283 51.412991 10.044586
14.276276 51.383839 9.6426353
14.311343 51.410988 9.2544823
14.2981 51.383904 8.8556747
14.257442 51.647484 17.517956
14.324502 51.592613 13.308876
14.242234 51.399887 10.039036
14.266503 51.414925 9.6474295
14.242521 51.375721 9.2448769
14.275226 51.400299 8.8571339
14.228257 51.656956 17.515123
14.295156 51.602028 13.306877
14.212882 51.409218 10.037715
14.217491 51.402145 9.6411934
14.21316 51.385048 9.2437277
14.232701 51.394859 8.8530827
14.221678 51.56007 13.287085
14.164735 51.395897 10.030394
14.169297 51.388794 9.6342154
14.184587 51.393814 9.2418365
14.171291 51.366653 8.8438034
14.205978 51.58326 13.290059
14.123108 51.389755 10.02567
14.147253 51.404774 9.6347504
14.155988 51.402424 9.2407913
14.136136 51.367859 8.8413486
14.170727 51.585121 13.285327
14.094172 51.398861 10.024051
14.092149 51.384361 9.6265488
14.107364 51.389378 9.2346001
14.120253 51.391792 8.8429766
14.040223 51.377888 10.014262
14.051198 51.378113 9.6205244
14.040202 51.353519 9.2225103
14.079207 51.385509 8.8374681
14.012132 51.38699 10.009956
14.04266 51.409367 9.6213036
14.031687 51.384769 9.2231178
14.03795 51.37973 8.83043
13.970336 51.382004 10.002034
13.974732 51.374756 9.6069736
14.009424 51.40189 9.2204514
14.002605 51.381996 8.8247766
13.993714 51.680168 17.464947
14.032473 51.593609 13.257831
13.942288 51.391014 9.9985485
13.953197 51.391136 9.6052399
13.948709 51.373817 9.20924
13.948382 51.361259 8.8155775
13.972268 51.69656 17.463434
13.907688 51.392551 9.9935379
13.89902 51.370449 9.5954056
13.907519 51.367901 9.2029943
13.920219 51.370159 8.8125763
13.857905 51.363972 9.5911369
13.866356 51.361427 9.1989832
13.872477 51.356266 8.8073301
13.823647 51.364395 9.5899267
13.851611 51.384136 9.2026844
13.838155 51.356739 8.8064642
13.790983 51.380787 9.9814615
13.788711 51.366077 9.58568
13.797087 51.363552 9.1938696
13.816181 51.373276 8.8055468
13.776139 51.404404 9.9817867
13.754387 51.367443 9.5809221
13.756225 51.357471 9.187705
13.762239 51.352299 8.7966547
13.715882 51.37627 9.9699249
13.720045 51.368916 9.5762386
13.71536 51.351486 9.1816149
13.727852 51.353722 8.7923155
13.756423 51.693115 17.414776
13.680281 51.353645 9.1763964
13.68623 51.348415 8.7857761
13.692117 51.659138 17.390993
13.646179 51.354832 9.1723385
13.6586 51.35704 8.7833824
13.618547 51.363441 9.1699076
13.63094 51.36565 8.7810373
13.589786 51.359722 8.775959
13.469224 51.342579 8.7483263
13.408759 51.352287 8.7388039
10.983989 51.583046 12.236357
10.873249 51.814968 21.401823
10.812891 51.917099 24.664934
10.8092 51.896549 24.183081
10.835169 51.914181 23.730417
10.825153 51.885818 23.252232
10.83407 51.881855 22.793667
10.823315 51.85284 22.323799
10.831778 51.848564 21.872868
10.837333 51.840687 21.423443
10.851259 51.843636 20.983673
10.845435 51.821445 20.53327
10.867818 51.806492 19.230371
10.867921 51.792328 18.797596
10.80855 51.287785 5.778759
10.832068 52.389187 36.752819
10.812966 52.304131 34.87846
10.800289 52.268177 34.263855
10.807508 52.258305 33.682056
10.83515 52.275146 33.132088
10.82893 52.248344 32.549252
10.828403 52.229164 31.980661
10.843881 52.230927 31.437263
10.845301 52.214722 30.884804
10.852937 52.206768 30.3458
10.851577 52.187401 29.803591
10.851494 52.169895 29.269175
10.863206 52.167809 28.75297
10.800575 52.493126 39.324551
10.849572 52.535488 38.728424
10.838074 52.499222 38.057102
10.727188 52.490833 39.298092
10.739161 52.484566 38.650478
10.769419 52.502525 38.037731
10.660245 52.493225 39.293243
10.667737 52.480881 38.639351
10.688753 52.486595 38.014057
10.68624 52.461792 37.36586
10.701384 52.418949 35.507904
10.177587 52.496822 39.714878
10.770508 52.057358 26.49461
10.846605 52.179604 29.262543
10.829391 51.952297 23.739506
10.820346 51.92506 23.070612
10.862189 51.805965 19.85495
10.988992 51.608227 14.840357
11.01519 51.598839 13.595288
11.007565 51.575138 12.970934
10.987162 51.523163 11.72738
10.981732 51.50164 11.109386
10.994265 51.552002 13.577899
11.01877 51.472607 9.8719263
11.015982 51.453217 9.2584085
11.003783 51.544624 14.217591
11.036872 51.557766 13.599988
11.036766 51.540501 12.976576
11.008305 51.41246 9.2685347
11.049669 51.416615 8.0506649
11.0452 51.528473 13.613111
11.037882 51.504616 12.987901
11.034427 51.416401 9.8959045
11.140604 51.49078 10.526643
11.120173 51.455017 9.9071045
11.161825 51.475876 9.2980471
11.125919 51.426102 8.6794834
11.137501 51.419624 8.0684185
11.130352 51.396118 7.4562602
11.167833 51.398857 7.4382377
11.149191 51.346954 6.2158136
11.140092 51.438156 10.466492
11.102763 51.367695 9.229167
11.162767 51.403919 8.6230106
11.178808 51.363949 6.7881784
11.213782 51.642231 16.082739
11.214096 51.565945 13.556415
11.16777 51.373596 8.5879593
11.243083 51.583317 14.195704
11.225893 51.548615 13.563039
11.219079 51.523392 12.934963
11.281398 51.560863 12.322501
11.254341 51.498512 11.072336
11.169985 51.309898 7.3645883
11.218103 51.49324 12.991787
11.261747 51.51672 13.700975
11.274179 51.491608 12.44988
11.303559 51.500027 11.83119
11.321497 51.498154 11.211522
11.320339 51.407482 8.1186171
11.342177 51.557968 13.770315
11.372901 51.515804 11.27086
11.335978 51.460739 11.284803
11.394114 51.495968 10.672172
11.365687 51.528782 13.130954
11.328634 51.38982 9.381937
11.419216 51.453392 8.7750044
11.352329 51.408161 9.3669519
11.381249 51.398281 8.1335306
11.420738 51.465561 9.3743954
11.413383 51.508591 11.244052
11.355181 51.421947 9.9877462
11.401484 51.622948 15.633962
11.389731 51.494781 11.206119
11.369464 51.377613 7.4750695
11.388324 51.655697 16.244884
11.340693 51.458221 10.543013
11.374096 51.420197 8.0615711
11.288031 51.455559 11.114459
11.319672 51.469055 9.8125134
11.316922 51.431526 8.5685921
11.251813 51.516182 12.891628
11.269218 51.478931 11.010094
11.290965 51.577389 12.262493
11.104166 51.49324 12.253432
11.088878 51.445194 10.995455
11.065131 51.490524 11.599284
11.093378 51.480621 10.351209
11.023035 51.383667 9.0947313
11.043818 51.673691 14.733806
11.025583 51.621277 13.457072
11.009967 51.589405 12.82075
10.990039 51.553783 12.185861
11.010346 51.553844 11.560363
10.856421 51.832146 21.899727
10.867929 51.76601 19.254452
10.868147 51.831932 19.239376
10.803707 51.625084 14.056978
10.800862 52.028133 25.21085
22.758406 51.145885 2.4547501
22.758423 51.158798 2.2726603
22.750786 51.190586 3.3565142
22.749229 51.202213 3.1760256
22.737411 51.230789 4.2557759
22.734203 51.241001 4.0760994
22.833132 51.268517 6.4210072
22.608339 51.410095 8.8490334
22.813274 51.460491 12.252673
22.788828 51.455856 12.040632
22.793486 51.472256 11.842012
22.773537 51.470707 11.634588
22.782898 51.490398 11.439795
22.767595 51.492073 11.236565
22.419533 51.385414 8.8456926
22.77166 51.468887 13.535919
22.779922 51.488373 13.33037
22.771517 51.495697 13.117921
22.776588 51.512714 12.913221
22.780098 51.52853 12.708895
22.774443 51.537601 12.501587
22.729036 51.517628 12.278401
22.259758 51.38345 8.8510418
22.673111 51.514751 13.550154
22.741482 51.578018 13.374319
22.710766 51.569004 13.15043
22.585331 51.529831 12.273329
22.116726 51.392601 8.8556814
22.777964 51.563942 15.857849
22.774811 51.576237 15.628243
22.536255 51.528004 13.533828
22.333735 51.457935 12.210953
22.339603 51.47504 12.014035
22.313442 51.468441 11.80488
22.346941 51.505829 11.621085
22.27932 51.468407 11.398395
22.286882 51.486492 11.20637
21.946856 51.377911 8.8451977
22.7624 51.595474 17.082632
22.755056 51.605377 16.838991
22.731453 51.603336 16.586657
22.741322 51.625431 16.359232
22.763655 51.656483 16.141632
22.755508 51.66526 15.905953
22.345243 51.504307 13.487701
22.323135 51.501274 13.269114
22.321791 51.513439 13.062386
22.3339 51.535458 12.863265
22.321882 51.539585 12.653975
22.247723 51.497639 12.418377
22.239901 51.504646 12.214509
22.693968 51.639542 17.589287
22.704899 51.662838 17.353798
22.73493 51.699921 17.133751
22.570156 51.609753 16.545044
22.23398 51.54327 13.482709
22.241747 51.562115 13.279177
22.053528 51.473637 12.3774
22.113623 51.530983 12.204349
22.530235 51.644119 17.536663
22.372143 51.601952 16.24151
21.832712 51.427231 12.320069
21.945238 51.523861 12.171547
22.19409 51.574589 16.408747
22.246 51.666275 17.449898
19.056334 51.171844 2.8720298
19.043541 51.172184 2.7089972
19.044855 51.184319 2.5433187
19.029825 51.182823 2.3801332
19.013683 51.180412 2.2169764
19.048063 51.197067 3.8608582
19.034256 51.196507 3.6986101
19.034668 51.207806 3.5348601
19.026314 51.211811 3.3717651
19.001579 51.202141 3.2105739
19.006285 51.217083 3.0454466
18.986996 51.211971 2.8833966
19.005997 51.234562 4.2000828
18.986734 51.229454 4.0381155
18.974056 51.229839 3.8757746
18.967937 51.235714 3.7128122
18.929493 51.225533 3.3893337
18.86672 51.183891 3.2332473
19.105227 51.267544 6.3368959
18.923006 51.259834 4.2125626
18.800791 51.212593 3.4075329
18.753378 51.183754 3.2500989
18.726477 51.194382 2.7631807
18.674931 51.161961 2.6077535
18.652641 51.154251 2.4476008
19.085268 51.287205 7.1735673
19.070366 51.286213 7.0063815
19.062002 51.290604 6.8405137
19.052523 51.294048 6.6748571
19.034256 51.290176 6.5086508
19.076267 51.336346 6.3483458
18.793903 51.246017 4.2230663
18.746712 51.228622 3.9013963
18.694838 51.196053 3.743552
18.672438 51.188301 3.5835016
18.595036 51.167534 2.9428539
18.574919 51.16169 2.7828648
18.553736 51.154942 2.6230483
18.554125 51.166519 2.4592166
18.538311 51.164356 2.2980373
18.506367 51.148476 2.1400402
19.070633 51.308533 8.0183764
19.076635 51.325035 7.8524656
19.073883 51.334282 7.6851368
19.034418 51.324551 7.3461046
18.545532 51.184383 3.4311459
18.525805 51.190071 3.1090038
18.537016 51.210854 2.9444633
18.516848 51.204979 2.7843051
18.503159 51.204628 2.6230052
18.488382 51.203358 2.4617178
19.015646 51.323524 8.5309706
19.08576 51.393139 8.3785152
18.920511 51.324993 7.3444505
18.531193 51.210651 4.2379913
18.512033 51.205513 4.0780306
18.499428 51.205929 3.917697
18.500957 51.218349 3.7560325
18.4862 51.216949 3.5957119
18.46279 51.208183 3.4363859
18.417463 51.208504 4.2502074
18.413624 51.216244 4.0896087
18.385912 51.203659 3.9307711
18.577469 51.270596 6.6894093
18.582174 51.285648 6.5275221
18.570543 51.286934 6.364141
18.568609 51.329891 8.3971949
19.037271 51.59901 16.188265
19.029837 51.607643 15.965363
19.013828 51.6091 15.738494
18.958471 51.621998 16.443428
18.993343 51.665363 16.24946
18.972908 51.663155 16.016226
18.964085 51.670345 15.793777
15.425666 51.316711 8.1318769
15.427805 51.321377 7.9762173
11.404974 51.27816 5.6992602
11.416093 51.284573 5.5554595
11.419367 51.282913 5.4114327
11.400842 51.258854 5.2675543
11.383169 51.347183 6.1419439
11.309178 51.176666 1.4834348
11.287806 51.149376 1.3401659
11.279147 51.135014 1.1922807
11.283126 51.133484 1.0392835
11.286117 51.130924 0.8859399
11.29487 51.134186 0.72954959
11.29586 51.129536 0.57546937
11.295851 51.123844 0.42108303
