# .PCD v0.7 - Point Cloud Data file format
VERSION 0.7
FIELDS x y z
SIZE 4 4 4
TYPE F F F
COUNT 1 1 1
WIDTH 1611
HEIGHT 1
VIEWPOINT 0 0 0 1 0 0 0
POINTS 1611
DATA ascii
10.891307 52.354481 10.442894
10.880495 52.327652 10.050218
10.885541 52.321392 9.6638212
10.819242 52.09782 5.4643183
10.792888 52.051529 5.0865965
10.809698 52.695122 21.286684
10.811384 52.68219 20.834257
10.821399 52.68029 20.391235
10.811834 52.652859 19.938124
10.827574 52.658672 19.505539
10.835027 52.653744 19.070414
10.828471 52.630589 18.629463
10.83627 52.626312 18.200653
10.830048 52.603806 17.766268
10.844101 52.607891 17.346773
10.844158 52.593777 16.921782
10.830118 52.561359 16.491829
10.825043 52.540741 16.06975
10.858087 52.569923 15.670043
10.853915 52.550644 15.253191
10.847275 52.528229 14.837681
10.855749 52.525589 14.431771
10.867748 52.527599 14.029431
10.871552 52.519005 13.625298
10.861219 52.492088 13.217171
10.866261 52.485241 12.81761
10.863092 52.467781 12.416614
10.881404 52.478294 12.025639
10.867742 52.447319 11.624362
10.881627 52.452183 11.234727
10.86941 52.423214 10.837685
10.866922 52.406929 10.445649
10.879415 52.397156 9.6712294
10.876031 52.354145 8.5129557
10.802247 52.157455 5.4645104
10.794346 52.134743 5.0884905
10.828072 53.126381 30.8193
10.831594 53.076122 29.191029
10.832038 53.058823 28.66
10.828802 53.036854 28.131273
10.837521 53.030891 27.620085
10.827081 52.999786 27.095926
10.828808 52.984951 26.588974
10.832399 52.972752 26.088947
10.843269 52.970333 25.600424
10.845579 52.956768 25.108971
10.833902 52.924923 24.610273
10.845843 52.924381 24.136503
10.849305 52.912804 23.659885
10.838787 52.882965 23.17634
10.846956 52.877876 22.712109
10.846673 52.861797 22.245258
10.837882 52.834671 21.776075
10.853752 52.840096 21.329138
10.866847 52.841984 20.883453
10.860435 52.818367 20.427402
10.87916 52.827869 19.992214
10.883987 52.819237 19.550634
10.880449 52.799736 19.10684
10.87983 52.784176 18.668243
10.882208 52.772652 18.234646
10.887657 52.765247 17.805843
10.873343 52.732063 17.368355
10.890816 52.740589 16.952089
10.888553 52.72337 16.52722
10.883745 52.702919 16.103739
10.882205 52.686829 15.684677
10.883999 52.675179 15.269821
10.7979 52.246361 5.8273506
10.810333 52.249783 5.4525795
10.81465 52.242722 5.0772295
10.81602 53.161976 29.768126
10.816662 53.09169 27.651703
10.811642 53.067741 27.132145
10.824072 53.067093 26.634552
10.812081 53.034279 26.119419
10.820252 53.01173 25.133995
10.814093 52.987152 24.639585
10.820798 52.97974 24.160904
10.802759 52.939793 23.666195
10.814026 52.938698 23.200109
10.827774 52.94101 22.739851
10.833128 52.932373 22.276812
10.824528 52.905472 21.807148
10.846075 52.918434 21.363783
10.842691 52.898663 20.905632
10.853131 52.897221 20.460924
10.849636 52.877548 20.009939
10.86017 52.876446 19.571844
10.851119 52.849697 19.124075
10.850596 52.834278 18.685232
10.858743 52.830349 18.254873
10.858597 52.815628 17.822338
10.872982 52.82008 17.401197
10.844725 52.768665 16.958376
10.85976 52.774147 16.542967
10.872362 52.776512 16.12845
10.865173 52.753021 15.705898
10.861275 52.733929 15.287719
10.878201 52.742188 14.882165
10.869443 52.716892 14.466365
10.881662 52.719124 14.062594
10.801464 52.33918 5.8403816
10.820041 52.350609 5.4656816
10.812242 52.327839 5.0881896
10.795083 52.878666 19.575418
10.808595 52.881626 19.142483
10.802546 52.858913 18.699986
10.805108 52.847656 18.266138
10.810729 52.840523 17.837088
10.808065 52.822582 17.405983
10.825706 52.83144 16.989313
10.806436 52.791851 16.554546
10.819096 52.794331 16.140116
10.835116 52.8013 15.729608
10.819775 52.767159 15.305354
10.819343 52.752682 14.891247
10.833981 52.758053 14.48657
10.828767 52.73745 14.074663
10.838738 52.736832 13.671756
10.834661 52.717869 13.264681
10.840019 52.711334 12.863598
10.849004 52.709606 12.465714
10.849827 52.69725 12.066339
10.848388 52.681995 11.667912
10.856585 52.679401 11.274592
10.850675 52.658413 10.87799
10.84253 52.634563 10.482434
10.862056 52.646915 10.096995
10.855515 52.625263 9.7049255
10.852789 52.608639 9.315465
10.853914 52.597092 8.9283867
10.805425 52.418495 5.484139
10.761249 52.348404 5.1021099
10.796616 53.142761 24.710316
10.793007 53.121601 24.2215
10.78619 53.09634 23.734739
10.803263 53.102924 23.271927
10.790211 53.069695 22.789045
10.80133 53.068649 22.329424
10.79858 53.049358 21.863016
10.803882 53.040863 21.406548
10.811855 53.036026 20.955614
10.800362 53.005554 20.494463
10.808259 53.000854 20.050531
10.830225 53.014854 19.619169
10.821507 52.988411 19.170504
10.843845 53.003094 18.745033
10.82404 52.962231 18.296022
10.846884 52.977764 17.876282
10.83307 52.945026 17.437386
10.833731 52.931484 17.010006
10.837575 52.92223 16.58713
10.838916 52.90976 16.165474
10.837766 52.8941 15.745077
10.851503 52.898117 15.334698
10.833847 52.860905 14.911036
10.8486 52.866405 14.50552
10.843528 52.845905 14.092776
10.859467 52.853096 13.691597
10.855536 52.83424 13.283597
10.766988 52.468853 5.8543024
10.79776 52.496231 5.4803576
10.784032 52.465618 5.1012244
10.798839 53.470387 31.548031
10.800385 53.453484 30.989166
10.808043 53.444984 30.443628
10.796738 53.411327 29.884266
10.801821 53.399818 29.348782
10.803213 53.383579 28.815525
10.816363 53.383251 28.299953
10.795014 53.337029 27.755945
10.811462 53.341484 27.254658
10.808908 53.320747 26.740376
10.80814 53.302574 26.233154
10.803978 53.280056 25.728075
10.828282 53.295635 25.253248
10.828218 53.2789 24.761354
10.824925 53.258026 24.271458
10.818423 53.233044 23.783615
10.841178 53.247124 23.324066
10.833896 53.221397 22.844301
10.834423 53.206196 22.375002
10.821004 53.172615 21.899233
10.843036 53.186237 21.453955
10.840243 53.167023 20.993887
10.845653 53.158817 20.543365
10.837137 53.132271 20.086723
10.864895 53.153912 19.658031
10.85644 53.12767 19.208241
10.867726 53.127689 18.774494
10.853801 53.094437 18.327999
10.85981 53.087673 17.896984
10.856682 53.039986 16.60853
10.812972 52.619019 5.8539243
10.78921 52.575134 5.4717836
10.811888 52.591957 5.0962029
10.775953 53.325142 25.260588
10.776008 53.308437 24.768692
10.783535 53.301865 24.28784
10.778498 53.262367 23.322672
10.78214 53.251057 22.851637
10.788225 53.243141 22.386545
10.791373 53.231441 21.92308
10.797093 53.223301 21.46534
10.788923 53.1968 21.001221
10.788896 53.181267 20.54681
10.797159 53.176876 20.101673
10.819439 53.191212 19.669098
10.805525 53.157578 19.215574
10.816899 53.157635 18.78183
10.820029 53.146847 18.345783
10.831853 53.147694 17.917927
10.818415 53.115139 17.477886
10.830796 53.116913 17.055832
10.806396 53.070045 16.61586
10.819461 53.072903 16.19944
10.818603 53.057407 15.777965
10.821037 53.046356 15.360691
10.832614 53.04747 14.950227
10.836033 53.037872 14.537893
10.848711 53.040581 14.13194
10.847415 53.024895 13.721619
10.843762 53.006172 13.312441
10.84949 52.999897 12.909245
10.841184 52.975174 12.502294
10.836444 52.955223 12.098824
10.741178 52.617985 5.8578081
10.759871 52.629555 5.4813709
10.764454 52.62265 5.1034975
10.764653 53.262447 21.030542
10.76218 53.228134 20.122568
10.762294 53.212959 19.674835
10.787614 53.231464 19.246929
10.771122 53.194401 18.794859
10.78562 53.198692 18.365702
10.786267 53.184654 17.930792
10.784303 53.167248 17.497307
10.796806 53.169163 17.075008
10.784005 53.137554 16.641092
10.791499 53.132996 16.221184
10.808026 53.140503 15.808348
10.804901 53.122013 15.387581
10.799313 53.100342 14.968145
10.808652 53.098541 14.5583
10.809838 53.086006 14.146701
10.820306 53.085838 13.741352
10.822641 53.074966 13.334321
10.816808 53.053352 12.925897
10.832107 53.059761 12.527958
10.815791 53.024422 12.119423
10.814816 53.009434 11.718785
10.835214 53.022739 11.327376
10.829796 53.001995 10.928385
10.834003 52.994011 10.534222
10.830091 52.975365 10.138986
10.734797 52.704628 5.8731618
10.765656 52.732178 5.4976568
10.740131 52.685684 5.1155939
10.772812 53.617443 28.419466
10.779777 53.591217 27.380968
10.772826 53.56435 26.860027
10.772812 53.546997 26.351126
10.764159 53.518219 25.839602
10.773205 53.51339 25.349133
10.779062 53.504433 24.860445
10.77109 53.477077 24.364546
10.77593 53.467072 23.884184
10.793828 53.474712 23.418707
10.770978 53.427891 22.924576
10.788312 53.435043 22.466639
10.770098 53.394741 21.985224
10.80352 53.423676 21.546621
10.801334 53.405083 21.084949
10.80178 53.390137 20.628933
10.81048 53.386341 20.182186
10.810895 53.37159 19.733078
10.825304 53.375633 19.296494
10.831495 53.368809 18.857473
10.818176 53.336063 18.409338
10.819037 53.322346 17.97328
10.828608 53.320332 17.545288
10.824292 53.299908 17.111952
10.834485 53.298901 16.689587
10.825063 53.271873 16.25905
10.830283 53.264423 15.839067
10.83306 53.253803 15.420207
10.821872 53.224701 14.996863
10.831332 53.223125 14.58601
10.832648 53.2108 14.173403
10.765332 52.839981 5.8791232
10.759985 52.819981 5.4978795
10.782767 52.837036 5.1206527
10.774442 53.808586 31.192675
10.788254 53.8083 30.650007
10.768217 53.762444 30.07728
10.769373 53.745476 29.533998
10.797263 53.764839 29.02433
10.770707 53.710854 28.464851
10.77618 53.700333 27.943874
10.772989 53.678307 27.420013
10.787024 53.679703 26.918098
10.782111 53.655724 26.403452
10.773759 53.6273 25.891085
10.798883 53.644123 25.413803
10.794495 53.621372 24.914831
10.786834 53.594387 24.417999
10.791961 53.584759 23.936701
10.794005 53.571133 23.457184
10.803775 53.568027 22.988075
10.805174 53.553822 22.516325
10.787264 53.51384 22.033958
10.809972 53.528492 21.586298
10.813497 53.517529 21.127798
10.80316 53.488117 20.663118
10.817567 53.491982 20.219454
10.82374 53.484924 19.77327
10.827203 53.47435 19.328495
10.822375 53.452793 18.881609
10.82044 53.435219 18.439871
10.82147 53.421715 18.003077
10.831192 53.419922 17.574345
10.831145 53.333099 15.024259
10.76513 52.935303 5.885118
10.783912 52.947128 5.5062466
10.78864 52.940414 5.1259351
10.743698 53.660122 24.927183
10.741466 53.623631 23.948895
10.743651 53.610069 23.469299
10.737392 53.585281 22.987244
10.744268 53.578331 22.519861
10.748214 53.567566 22.054094
10.749246 53.553017 21.589993
10.747379 53.534698 21.127602
10.742633 53.512642 20.666969
10.757105 53.516529 20.223389
10.774442 53.524368 19.784746
10.772469 53.506386 19.336243
10.790094 53.514809 18.903627
10.765941 53.4673 18.447615
10.783947 53.476437 18.021034
10.771251 53.444519 17.578766
10.789844 53.454617 17.157728
10.783286 53.431126 16.724901
10.785552 53.41954 16.299765
10.791047 53.412357 15.878866
10.794102 53.401997 15.459089
10.794727 53.38847 15.040471
10.7987 53.379494 14.625789
10.81384 53.3573 13.395745
10.806507 53.319599 12.57836
10.796448 53.292332 12.170272
10.80753 53.293304 11.772058
10.719886 52.976109 5.8936734
10.744745 52.995945 5.5154881
10.749572 52.989269 5.1350031
10.736673 53.7243 23.986118
10.740263 53.679623 22.554966
10.740294 53.647362 21.619619
10.733189 53.621834 21.152618
10.750607 53.62949 20.706993
10.748802 53.611359 20.251095
10.738663 53.582127 19.793156
10.764563 53.601532 19.362656
10.77679 53.602627 18.925821
10.764049 53.57024 18.476213
10.759791 53.549381 18.03528
10.769781 53.547771 17.605892
10.771602 53.535278 17.174395
10.776544 53.527073 16.747387
10.790362 53.530865 16.327734
10.784655 53.508541 15.900025
10.787881 53.498291 15.479583
10.788679 53.484867 15.060297
10.781308 53.460583 14.639466
10.788806 53.456295 14.228003
10.805539 53.464439 13.822616
10.808412 53.45409 13.412885
10.78572 53.409615 12.994545
10.789744 53.400955 12.589512
10.80271 53.390381 11.786489
10.805852 53.380714 11.386162
10.802015 53.334343 10.190326
10.728904 53.089428 5.8995028
10.741817 53.093372 5.5189104
10.74071 53.078724 5.1370497
10.739038 54.043533 30.214216
10.746119 54.034271 29.674299
10.744209 53.994469 28.596003
10.74542 53.977829 28.068018
10.763622 53.984501 27.562208
10.747541 53.944721 27.02865
10.758981 53.942554 26.526749
10.761934 53.929028 26.021904
10.761581 53.911182 25.519079
10.757945 53.88905 25.018333
10.756335 53.869839 24.524242
10.767484 53.868088 24.045521
10.770262 53.855137 23.564047
10.769981 53.838188 23.084398
10.782826 53.839157 22.619251
10.765725 53.799728 22.134907
10.772703 53.793026 21.673107
10.782288 53.789974 21.216822
10.772639 53.761051 20.750299
10.793093 53.772926 20.308594
10.799865 53.766426 19.860472
10.798388 53.748901 19.410107
10.794177 53.727806 18.961351
10.787248 53.703163 18.514254
10.788823 53.690094 18.075661
10.804653 53.696339 17.648441
10.806719 53.684124 17.21571
10.794919 53.653339 16.777996
10.809071 53.642872 15.931633
10.750483 53.218571 5.9025459
10.745451 53.198627 5.5186086
10.756353 53.199917 5.1373253
10.732658 54.161041 30.825638
10.74382 54.157104 30.282703
10.729894 54.081776 28.641273
10.736475 54.072414 28.117746
10.73444 54.051491 27.591324
10.744337 54.047035 27.081924
10.735355 54.017021 26.559933
10.74892 54.017918 26.064138
10.754057 54.007492 25.565376
10.755962 53.992836 25.068533
10.765221 53.988342 24.582712
10.739541 53.936501 24.071934
10.76381 53.952724 23.607538
10.774503 53.950626 23.135757
10.749974 53.900845 22.640274
10.787067 53.93486 22.196915
10.767269 53.8918 21.713743
10.771634 53.881657 21.252769
10.773163 53.867794 20.793385
10.771872 53.850239 20.335634
10.778802 53.843937 19.887028
10.788561 53.841576 19.44347
10.784562 53.820705 18.994064
10.794567 53.818886 18.556767
10.801224 53.797493 17.682507
10.803493 53.785515 17.249031
10.795076 53.729603 15.956734
10.763891 53.475471 9.8110809
10.745546 53.316212 5.9135137
10.728651 53.280369 5.5273442
10.751567 53.297699 5.1469002
10.708014 54.040424 25.084782
10.717415 54.036041 24.598806
10.726965 54.01511 23.632055
10.711115 53.976768 23.138512
10.724298 53.97813 22.672579
10.723821 53.961025 22.199827
10.720388 53.940041 21.728888
10.714019 53.915203 21.259808
10.721107 53.908794 20.804314
10.730903 53.906185 20.354107
10.737984 53.900002 19.905256
10.742364 53.890263 19.457808
10.749599 53.884506 19.015373
10.759762 53.882824 18.577751
10.767344 53.877739 18.141333
10.761156 53.854092 17.699512
10.769194 53.849823 17.26903
10.76345 53.826988 16.833393
10.772103 53.823734 16.408512
10.772637 53.809582 15.981715
10.7707 53.792175 15.556197
10.783419 53.79467 15.140471
10.782345 53.778595 14.720117
10.778867 53.759354 14.300988
10.783029 53.721802 13.063348
10.761213 53.594017 10.230364
10.726489 53.533501 9.8232527
10.679495 53.334805 5.9187965
10.728334 53.386826 5.5412555
10.721483 53.364288 5.1566229
10.701882 54.142319 25.120621
10.700974 54.123764 24.624899
10.702165 54.10825 24.135649
10.700238 54.088627 23.648319
10.700548 54.072216 23.167255
10.708542 54.066448 22.69648
10.724378 54.071522 22.235567
10.721183 54.050747 21.763834
10.725907 54.040913 21.301901
10.727801 54.027348 20.841555
10.737821 54.024982 20.390461
10.734143 54.00407 19.933264
10.749729 54.00951 19.492384
10.73505 53.973862 19.034786
10.761994 53.994961 18.607048
10.753047 53.967339 18.159599
10.758188 53.958977 17.723852
10.749557 53.932007 17.282909
10.749563 53.916874 16.849936
10.75833 53.913727 16.424475
10.76465 53.907341 16.000088
10.774212 53.905437 15.57972
10.769992 53.884926 15.154686
10.763325 53.861187 14.731008
10.771403 53.85751 14.316689
10.713874 53.637486 10.226645
10.661625 53.553146 9.8142977
10.703841 53.47361 5.9244199
10.716938 53.477734 5.5411325
10.722062 53.471165 5.1572561
10.712196 54.4286 29.867966
10.701741 54.395103 29.31188
10.722766 54.405209 28.794428
10.704917 54.361961 28.243284
10.698597 54.334812 27.709919
10.709202 54.331146 27.198626
10.731923 54.344315 26.70372
10.710076 54.296394 26.17227
10.710687 54.279526 25.666986
10.728933 54.287045 25.182169
10.738873 54.28331 24.694332
10.740449 54.268253 24.203756
10.738906 54.249081 23.715099
10.734262 54.225811 23.228413
10.742585 54.220459 22.756372
10.747985 54.211239 22.285931
10.728897 54.168648 21.800936
10.750077 54.18129 21.350035
10.76312 54.182915 20.896345
10.757051 54.158535 20.432535
10.770066 54.160355 19.985476
10.763916 54.136112 19.528708
10.771563 54.130825 19.0844
10.771034 54.114491 18.637932
10.762285 54.087055 18.189587
10.778755 54.094109 17.759575
10.77035 54.067356 17.317564
10.746178 53.636387 5.930696
10.729592 53.600533 5.5421844
10.728787 53.58596 5.156672
10.696424 54.55965 31.033699
10.69249 54.496071 29.371681
10.691322 54.456799 28.296524
10.695514 54.444061 27.772444
10.696247 54.426746 27.2505
10.693542 54.404881 26.730749
10.697752 54.392735 26.222765
10.703862 54.383377 25.721466
10.717185 54.384121 25.231277
10.716922 54.366318 24.733692
10.71874 54.351547 24.242571
10.717444 54.332645 23.753363
10.718366 54.316952 23.270411
10.742947 54.333908 22.810369
10.727215 54.295628 22.322531
10.740699 54.297604 21.861279
10.735165 54.273609 21.389486
10.732141 54.253201 20.923483
10.731711 54.236477 20.463078
10.733955 54.223541 20.008074
10.749931 54.22953 19.565573
10.735747 54.194336 19.106346
10.75749 54.208424 18.673491
10.748981 54.181229 18.224485
10.760066 54.180931 17.790497
10.757882 54.147343 16.916435
10.692686 53.825981 10.253936
10.71546 53.828972 9.4649439
10.747417 53.844543 8.6822462
10.739689 53.820267 8.2864904
10.70814 53.69556 5.9408655
10.709461 53.683788 5.5543904
10.720625 53.685326 5.1697154
10.689438 54.516617 26.790646
10.684977 54.474442 25.765633
10.682961 54.453922 25.261019
10.674454 54.407223 24.262636
10.683894 54.403015 23.781929
10.674424 54.372879 23.290003
10.699124 54.389988 22.829729
10.678242 54.344437 22.337515
10.686468 54.339127 21.872055
10.70804 54.352306 21.420042
10.699833 54.324635 20.949663
10.71592 54.330505 20.50029
10.707502 54.302807 20.037178
10.707224 54.286419 19.583242
10.704223 54.266415 19.130905
10.726111 54.280685 18.697645
10.717808 54.253624 18.248228
10.723498 54.245869 17.810507
10.726638 54.234715 17.374065
10.732833 54.227844 16.942099
10.742149 54.225334 16.5144
10.737761 54.204155 16.081785
10.742165 54.195095 15.656425
10.732821 54.16732 15.226559
10.670156 53.879875 9.4748993
10.696024 53.901066 9.0855799
10.672935 53.855755 8.6845484
10.688767 53.863373 8.2945547
10.690779 53.852253 7.9022064
10.708369 53.862312 7.5140705
10.706235 53.845627 7.1226969
10.731539 53.866188 6.7371368
10.731196 53.85199 6.3476295
10.663723 53.746853 5.9492526
10.682898 53.759186 5.5649109
10.676366 53.736713 5.1777554
10.670185 54.605247 26.817753
10.690388 54.615067 26.32266
10.681602 54.584866 25.80571
10.674644 54.557381 25.295725
10.664388 54.525513 24.788006
10.698069 54.554638 24.322628
10.69204 54.528942 23.827644
10.693458 54.513714 23.343355
10.707801 54.516495 22.873554
10.68189 54.463802 22.376266
10.706434 54.480949 21.922085
10.690577 54.442448 21.441151
10.693347 54.429798 20.977999
10.698737 54.420887 20.520277
10.728621 54.445854 20.082714
10.739565 54.444813 19.634943
10.736887 54.425125 19.181307
10.731501 54.401825 18.729311
10.734477 54.390152 18.285805
10.740398 54.382629 17.847017
10.749334 54.379349 17.412745
10.739015 54.349705 16.970154
10.731698 54.324295 16.532322
10.744308 54.326344 16.108017
10.745383 54.29755 15.253784
10.623704 53.858303 7.5014582
10.621532 53.841522 7.1105204
10.629073 53.837986 6.7223048
10.646371 53.84774 6.3363199
10.627042 53.780338 5.1718574
10.671369 54.85891 30.633862
10.675941 54.845619 30.082905
10.676807 54.827377 29.534266
10.662487 54.769176 28.439148
10.67926 54.755131 27.398561
10.677463 54.734211 26.876453
10.677389 54.715885 26.361343
10.679141 54.700279 25.853062
10.708747 54.723549 25.374437
10.693714 54.684959 24.860802
10.706771 54.685547 24.376312
10.701035 54.660206 23.880314
10.697442 54.638004 23.390717
10.712005 54.641125 22.919968
10.691715 54.596088 22.425865
10.705768 54.598778 21.962545
10.706276 54.582844 21.492649
10.693124 54.548145 21.016705
10.720377 54.569469 20.573338
10.723292 54.557243 20.115913
10.734389 54.556442 19.667334
10.720927 54.521832 19.205753
10.732172 54.521458 18.763561
10.729805 54.502403 18.315752
10.735872 54.49509 17.876144
10.73606 54.403332 15.275121
10.655634 54.817406 26.419275
10.662911 54.80938 25.9149
10.677327 54.81147 25.421623
10.657444 54.765938 24.902834
10.66554 54.759556 24.413351
10.665326 54.741764 23.921246
10.683116 54.749172 23.448254
10.671539 54.715885 22.95558
10.667502 54.693237 22.473387
10.676502 54.688847 22.005299
10.693391 54.695541 21.546677
10.691388 54.676132 21.077625
10.686534 54.652901 20.610348
10.695128 54.648453 20.156086
10.69558 54.632832 19.699556
10.69878 54.62114 19.248186
10.699314 54.605865 18.798285
10.713716 54.609898 18.360113
10.709015 54.587597 17.913036
10.718323 54.584778 17.477282
10.725128 54.57859 17.042671
10.712705 54.545929 16.600021
10.714489 54.532997 16.16807
10.708194 54.509003 15.734477
10.716301 54.504978 15.310829
10.641031 54.916088 26.467247
10.643456 54.901211 25.957499
10.643733 54.865597 24.948713
10.636458 54.837696 24.445187
10.652174 54.842056 23.965717
10.653648 54.809418 22.994421
10.669758 54.797764 22.050974
10.670841 54.782429 21.579634
10.674434 54.770718 21.113913
10.659034 54.732716 20.638363
10.673217 54.736 20.187349
10.663002 54.705475 19.72295
10.682729 54.71669 19.281879
10.69991 54.724461 18.841787
10.692575 54.698288 18.389091
10.682563 54.668522 17.938116
10.680958 54.650532 17.495382
10.704534 54.667561 17.069918
10.703456 54.650494 16.632837
10.699865 54.630047 16.197144
10.699379 54.613991 15.765791
10.702057 54.602409 15.338565
10.70796 54.595371 14.915255
10.705847 54.577324 14.49033
10.712675 54.57172 14.071801
10.633292 55.07737 28.07892
10.635851 55.06213 27.552425
10.650223 55.063671 27.042604
10.640932 55.032173 26.515526
10.653858 55.03204 26.014292
10.643005 54.998726 25.496376
10.633994 54.968185 24.985392
10.637327 54.955116 24.490059
10.637558 54.937862 23.99662
10.65046 54.938499 23.518002
10.639336 54.90567 23.024063
10.656905 54.91312 22.557127
10.67167 54.916775 22.091501
10.656934 54.879341 21.607365
10.660659 54.867844 21.141001
10.672351 54.867588 20.68387
10.675933 54.856136 20.22434
10.693061 54.863689 19.777302
10.685806 54.83736 19.317083
10.681275 54.814957 18.862143
10.695994 54.819473 18.422497
10.691682 54.797592 17.97394
10.706833 54.802902 17.539942
10.697363 54.774055 17.094286
10.696413 54.757168 16.65646
10.704102 54.752377 16.226004
10.706589 54.725151 15.365588
10.629547 55.291183 30.877861
10.631311 55.215187 28.675371
10.652721 55.226295 28.160744
10.635562 55.183216 27.613394
10.624905 55.149525 27.078487
10.620932 55.125446 26.555628
10.649414 55.147232 26.067822
10.63374 55.107052 25.544451
10.650862 55.113174 25.055317
10.654575 55.100601 24.558813
10.639536 55.061852 24.05109
10.642235 55.04818 23.562946
10.647179 55.037811 23.080853
10.654455 55.030861 22.604622
10.674766 55.042313 22.142172
10.676338 55.02763 21.668993
10.65899 54.98658 21.185854
10.665537 54.979137 20.724026
10.669339 54.967976 20.263687
10.681241 54.968262 19.812187
10.685071 54.957371 19.358374
10.675329 54.927628 18.899048
10.679282 54.917137 18.451771
10.691624 54.918461 18.012526
10.611299 55.200039 25.587959
10.649274 55.235596 25.116316
10.606698 55.157722 24.578833
10.623059 55.163113 24.097094
10.631253 55.157143 23.612532
10.636479 55.147137 23.129648
10.633477 55.125698 22.644356
10.627494 55.10022 22.161001
10.639827 55.100636 21.69553
10.654728 55.104782 21.235348
10.645466 55.075111 20.761192
10.649483 55.06422 20.300207
10.656175 55.057201 19.844408
10.65477 55.03894 19.386454
10.672435 55.047535 18.944077
10.682107 55.045017 18.499306
10.67278 55.015991 18.045776
10.671795 54.99876 17.600487
10.679272 54.993477 17.162981
10.684443 54.938667 15.425122
10.597712 55.320175 26.139036
10.608133 55.316715 25.6376
10.605129 55.294426 25.128885
10.604086 55.275082 24.626762
10.61029 55.266148 24.13542
10.618682 55.26046 23.65015
10.603142 55.221119 23.149702
10.621319 55.229542 22.68055
10.620839 55.211765 22.200533
10.654602 55.242416 21.750158
10.643126 55.209404 21.269384
10.628725 55.172417 20.790689
10.643646 55.176868 20.336523
10.634355 55.147346 19.868958
10.649329 55.1521 19.421144
10.672586 55.168598 18.98144
10.66065 55.135715 18.522139
10.656944 55.114521 18.071362
10.678057 55.128292 17.63838
10.674726 55.107826 17.193563
10.67703 55.079784 16.317469
10.677238 55.064579 15.882861
10.599778 55.582237 29.932684
10.596151 55.49968 27.760244
10.601505 55.488461 27.237629
10.608582 55.479877 26.721834
10.602219 55.452377 26.198643
10.623175 55.46386 25.705412
10.620557 55.442032 25.195534
10.599248 55.393867 24.674446
10.616077 55.399971 24.190983
10.640388 55.416817 23.717566
10.630488 55.385326 23.220068
10.638515 55.379383 22.741301
10.633104 55.354557 22.256035
10.635326 55.340683 21.780697
10.634693 55.322903 21.307068
10.64724 55.323887 20.846638
10.662447 55.328743 20.391258
10.658867 55.307178 19.926128
10.657935 55.289474 19.466301
10.665145 55.283382 19.01507
10.669748 55.273716 18.56517
10.660235 55.228329 17.663061
10.665178 55.188091 16.343155
10.607818 55.807594 32.293957
10.588149 55.718033 30.555073
10.596547 55.690308 29.452641
10.592854 55.665489 28.902367
10.585549 55.635731 28.35457
10.589649 55.622471 27.824055
10.590342 55.604546 27.295689
10.597746 55.596382 26.779051
10.596811 55.576511 26.259695
10.602779 55.566658 25.751722
10.600447 55.545155 25.241144
10.615501 55.548576 24.750496
10.617214 55.533161 24.252668
10.610658 55.506149 23.752476
10.616654 55.497143 23.267063
10.614464 55.47665 22.779232
10.619824 55.46703 22.301437
10.6276 55.460976 21.829275
10.637872 55.458591 21.362553
10.629407 55.42976 20.885818
10.634123 55.419754 20.422247
10.636114 55.406006 19.960199
10.662335 55.426693 19.517576
10.659019 55.405655 19.058304
10.65302 55.380939 18.600689
10.655244 55.367977 18.151426
10.660352 55.359192 17.706821
10.572795 55.69141 26.820684
10.573228 55.655006 25.787516
10.576234 55.64106 25.28092
10.576084 55.622776 24.776299
10.588281 55.622284 24.286823
10.5975 55.617687 23.798958
10.582932 55.579319 23.295897
10.596615 55.581387 22.819996
10.596957 55.564583 22.337429
10.615481 55.573811 21.872578
10.599516 55.534061 21.385576
10.617797 55.543194 20.927511
10.61208 55.518307 20.455664
10.619628 55.512413 19.99662
10.646011 55.53339 19.553267
10.626734 55.489609 19.082787
10.653389 55.511169 18.645128
10.634143 55.467678 18.181576
10.628525 55.443653 17.729826
10.631245 55.431557 17.286018
10.64566 55.420372 16.411427
10.569642 55.798134 26.354769
10.555824 55.759842 25.826828
10.569367 55.742844 24.823112
10.561204 55.713196 24.315289
10.580914 55.723621 23.835459
10.597759 55.73008 23.356974
10.580445 55.68782 22.855074
10.586227 55.678749 22.375845
10.599669 55.680756 21.906219
10.605065 55.671394 21.434078
10.597061 55.643032 20.955893
10.623469 55.663914 20.505802
10.620596 55.643127 20.038317
10.631068 55.641495 19.583271
10.622572 55.596615 18.663439
10.630584 55.591808 18.216022
10.639434 55.556374 16.88142
10.636809 55.505501 15.564802
10.55634 55.73439 21.44338
10.622637 55.795525 20.54822
10.577172 55.697144 19.588032
10.601164 55.714981 19.144571
10.625477 55.717098 18.250219
10.614855 55.685776 17.793415
10.618502 55.658993 16.903656
10.627524 55.656017 16.466799
10.61458 55.807434 17.390108
10.609949 55.784794 16.94182
10.604827 55.714394 15.183601
10.600196 55.615726 12.61925
10.540874 57.285961 38.059769
10.523599 57.411522 38.142834
10.429728 56.230309 4.9422007
10.415243 56.194744 4.5380507
10.507249 57.989048 37.872295
10.52477 57.991837 37.236996
10.445671 58.050732 37.891285
10.476469 58.073902 37.27359
10.480998 58.057354 36.628647
10.503578 58.068573 36.015587
10.481621 58.012333 35.35323
10.491426 58.004696 34.739742
10.488095 57.977379 34.117645
10.51534 57.975025 32.93668
10.417872 58.122501 36.64452
10.436683 58.105129 35.391586
10.446686 58.097778 34.777599
10.443586 58.070717 34.154995
10.440972 58.044682 33.540825
10.461983 58.054901 32.962135
10.460805 58.03157 32.364033
10.451115 57.995548 31.76335
10.484421 58.025166 31.217758
10.481402 57.99976 30.637684
10.488931 57.990612 30.075432
10.483429 57.961899 29.505434
10.483932 57.94252 28.947872
10.402673 58.271702 36.731621
10.395593 58.214333 35.442192
10.443976 58.243095 34.254559
10.423692 58.189785 33.617043
10.403771 58.137337 32.988388
10.398187 58.107098 32.38456
10.416591 58.11377 31.815323
10.391055 58.032623 30.626471
10.431668 58.073856 30.099836
10.426379 58.045273 29.529463
10.422298 58.018757 28.966608
10.44354 58.031025 28.435307
10.437463 58.001888 27.881857
10.452242 58.004688 27.354328
10.463877 58.00288 26.828581
10.457685 57.974152 26.291079
10.458091 57.955635 25.764847
10.470197 57.955067 25.253847
10.386874 58.280415 33.066322
10.377136 58.243652 32.4561
10.386624 58.236649 31.875324
10.378475 58.202847 31.281225
10.389975 58.199402 30.715683
10.388543 58.176373 30.142172
10.393004 58.16259 29.581177
10.403532 58.158306 29.03231
10.38198 58.105164 28.456465
10.39051 58.09824 27.916996
10.42482 58.130882 27.407675
10.417282 58.099781 26.862642
10.425978 58.093651 26.33819
10.441388 58.097931 25.824537
10.424211 58.052689 25.28627
10.443419 58.063091 24.785007
10.424919 58.016201 24.255651
10.438242 58.017948 23.757854
10.438684 58.000233 23.253471
10.451334 58.00124 22.76293
10.45109 57.982777 22.266062
10.391041 58.450996 33.164234
10.374828 58.361229 31.364716
10.382044 58.351231 30.792835
10.390409 58.34322 30.228333
10.381113 58.308289 29.651079
10.368207 58.268051 29.076572
10.394705 58.288528 28.548437
10.379672 58.245461 27.983698
10.380448 58.22686 27.440495
10.397345 58.233158 26.917965
10.406299 58.227455 26.392582
10.426839 58.239666 25.882446
10.414923 58.202351 25.347536
10.404746 58.167889 24.819393
10.421212 58.174347 24.318928
10.409901 58.138493 23.79925
10.435581 58.159321 23.314363
10.41835 58.11475 22.798748
10.428385 58.111961 22.308956
10.435665 58.105103 21.820684
10.387425 58.5966 32.653275
10.361024 58.534046 32.027443
10.381539 58.544281 31.46249
10.36596 58.498981 30.863483
10.38876 58.513184 30.313131
10.351681 58.4352 29.704651
10.358075 58.424534 29.148973
10.361088 58.408863 28.595495
10.360738 58.388214 28.044283
10.36667 58.377445 27.504766
10.383883 58.384224 26.981155
10.368876 58.341606 26.43203
10.384714 58.346619 25.916739
10.377948 58.317055 25.385578
10.382813 58.305538 24.869617
10.399525 58.312374 24.368204
10.388534 58.276836 23.847574
10.409433 58.290394 23.357676
10.412559 58.276821 22.857098
10.397737 58.235893 22.346611
10.415331 58.244785 21.86517
10.35094 58.958149 39.110935
10.345996 58.737091 33.309982
10.33927 58.682449 32.101776
10.355574 58.686043 31.530569
10.349775 58.655575 30.940878
10.344953 58.626865 30.358999
10.3553 58.621902 29.799755
10.381145 58.641148 29.2623
10.361069 58.589493 28.682877
10.361253 58.569427 28.130287
10.367693 58.559242 27.589388
10.366089 58.536808 27.045952
10.370921 58.524517 26.513865
10.358012 58.485016 25.970453
10.400525 58.531246 25.482103
10.391216 58.49765 24.951527
10.378778 58.459419 24.423309
10.383052 58.447124 23.914066
10.399337 58.453487 23.418835
10.392854 58.424931 22.909103
10.398496 58.415195 22.413168
10.401348 58.401306 21.918905
10.354447 58.956196 34.034954
10.382442 58.97715 33.455132
10.352216 58.90749 32.812801
10.340698 58.867321 32.20063
10.325278 58.82135 31.591501
10.338419 58.820141 31.021481
10.334095 58.791962 30.438404
10.372999 58.831287 29.9079
10.36642 58.800045 29.334373
10.34211 58.741467 28.74897
10.352222 58.736626 28.204834
10.344747 58.704666 27.648649
10.348329 58.690079 27.10882
10.34388 58.663227 26.566586
10.370173 58.684238 26.057865
10.364323 58.655579 25.524202
10.360226 58.629822 24.997135
10.372725 58.62994 24.48914
10.382335 58.625736 23.982765
10.398993 58.632587 23.486183
10.377995 58.581352 22.963158
10.383967 58.571976 22.466103
10.392175 58.566196 21.974531
10.31402 59.193745 37.281937
10.313539 59.168621 36.626148
10.326364 59.16473 35.99633
10.308568 59.113041 35.335152
10.322735 59.088703 34.100586
10.314908 59.05357 33.476387
10.357568 59.097832 32.919594
10.314689 59.008331 32.268913
10.345634 59.03471 31.710979
10.322415 58.976559 31.098112
10.318528 58.948914 30.51391
10.306355 58.908562 29.927374
10.365674 58.980118 29.422356
10.327756 58.900013 28.821064
10.333494 58.888298 28.271019
10.335949 58.871662 27.723129
10.344726 58.865078 27.186672
10.345535 58.846268 26.64765
10.333489 58.807625 26.101902
10.34736 58.809525 25.584955
10.348501 58.791786 25.061085
10.356419 58.784752 24.547686
10.35648 58.765667 24.031927
10.37832 58.780575 23.538448
10.377558 58.760521 23.030298
10.363936 58.720661 22.516287
10.382426 58.730785 22.031305
10.296924 59.277382 35.433868
10.294208 59.226326 34.174797
10.302581 59.193867 32.959713
10.301046 59.169037 32.356125
10.33405 59.155136 30.627939
10.303891 59.086353 30.019775
10.349479 59.136665 29.498652
10.326208 59.079174 28.910732
10.32768 59.060707 28.354546
10.330577 59.044682 27.805347
10.344547 59.046188 27.272184
10.341014 59.020485 26.727234
10.353553 59.020111 26.202425
10.348532 58.992462 25.666256
10.369581 59.00573 25.158155
10.343764 58.945957 24.613497
10.35892 58.95034 24.108963
10.371247 58.950459 23.605934
10.360951 58.91544 23.088549
10.367585 58.906979 22.589006
10.361452 58.878769 22.083487
10.309813 59.488544 35.561436
10.30851 59.439228 34.299038
10.283882 59.377094 33.650459
10.313714 59.401356 33.075222
10.330986 59.405994 32.491177
10.317297 59.361988 31.877964
10.318112 59.341145 31.288416
10.306065 59.300262 30.691307
10.322805 59.305016 30.132076
10.298875 59.245903 29.535479
10.322844 59.262474 28.995344
10.310653 59.222321 28.423492
10.323433 59.221676 27.882513
10.313997 59.186291 27.324997
10.339521 59.206055 26.806301
10.347675 59.198692 26.275637
10.309284 59.118435 25.707518
10.3451 59.154858 25.211517
10.329445 59.11068 24.674271
10.335132 59.100151 24.160273
10.347743 59.100632 23.65621
10.347671 59.08139 23.145744
10.28285 59.547428 33.139778
10.314041 59.574059 32.570637
10.305418 59.537766 31.961458
10.302146 59.510223 31.365503
10.299801 59.484406 30.77733
10.279972 59.431152 30.176821
10.298286 59.438526 29.623701
10.299311 59.418751 29.057926
10.296947 59.393841 28.494534
10.277041 59.341434 27.919531
10.320125 59.388737 27.412006
10.322222 59.371483 26.869106
10.316356 59.341854 26.323919
10.312111 59.314987 25.785484
10.314412 59.298626 25.257921
10.318549 59.285332 24.736597
10.334364 59.290592 24.229605
10.317947 59.24527 23.699766
10.328009 59.241791 23.196299
10.34022 59.241833 22.69833
10.336519 59.198143 21.691967
10.274021 59.681103 32.029736
10.280274 59.668568 31.443092
10.282961 59.650593 30.858858
10.268263 59.605213 30.262133
10.286994 59.613232 29.707724
10.274496 59.571835 29.126141
10.286587 59.569721 28.57596
10.300167 59.570171 28.032444
10.298856 59.526485 26.933004
10.288596 59.489727 26.382273
10.289505 59.470863 25.847195
10.311446 59.485481 25.335711
10.325694 59.488071 24.821398
10.307873 59.440094 24.283863
10.316257 59.433743 23.773275
10.253486 59.936275 34.567341
10.235048 59.882996 33.920624
10.239299 59.866371 33.309532
10.248757 59.858356 32.711658
10.272647 59.873684 32.137058
10.265822 59.840115 31.533497
10.282721 59.844727 30.963186
10.26864 59.800068 30.36495
10.246267 59.742432 29.764791
10.275968 59.768162 29.225918
10.260539 59.722092 28.645634
10.283862 59.738033 28.110413
10.275821 59.704178 27.549112
10.278684 59.687904 27.003962
10.28315 59.674377 26.465416
10.289304 59.663723 25.933302
10.287615 59.640774 25.398848
10.297351 59.636169 24.879215
10.289622 59.603981 24.348921
10.308092 59.613571 23.845255
10.309129 59.595634 23.331036
10.292563 59.549934 22.807034
10.237229 60.131195 35.296253
10.219009 60.077721 34.639656
10.218727 60.053455 34.013741
10.260241 60.073444 32.834011
10.235101 60.010025 32.200329
10.242233 59.998753 31.611294
10.259485 60.003971 31.039858
10.236687 59.945137 30.430506
10.251597 59.94706 29.868683
10.240051 59.906784 29.284658
10.248267 59.898411 28.727266
10.267263 59.907505 28.186052
10.254943 59.866657 27.618908
10.258166 59.850903 27.072592
10.262981 59.837887 26.532877
10.274244 59.835361 26.003962
10.272935 59.812923 25.46825
10.283009 59.808846 24.947353
10.289577 59.77951 23.906794
10.204294 60.114208 31.077488
10.204618 60.092419 30.492489
10.196843 60.057823 29.905106
10.199387 60.040092 29.33499
10.217127 60.047039 28.78628
10.208388 60.011581 28.215954
10.219714 60.00861 27.671309
10.246759 60.031086 27.146713
10.247214 60.011013 26.601221
10.249291 59.993736 26.062305
10.253074 59.979382 25.529787
10.253846 59.960377 24.999273
10.256444 59.944473 24.474955
10.265788 59.939548 23.960707
10.267435 59.922451 23.44417
10.18053 60.110634 26.623732
10.187551 60.10112 26.088722
10.172508 60.056217 25.538479
10.206892 60.091167 25.037239
10.214571 60.083229 24.516266
10.204894 60.04752 23.984917
10.211597 60.038345 23.4718
10.220349 60.032623 22.964321
10.216575 60.006908 22.45084
10.24429 60.031952 21.965509
10.24486 60.013504 21.46283
10.257527 60.014626 20.972647
10.247773 59.979889 20.469837
10.146619 60.126488 22.981157
10.156229 60.102341 21.970339
10.161843 60.091793 21.471153
10.174627 60.092945 20.980726
10.170005 60.066158 20.481167
10.172616 60.051174 19.990301
10.182578 60.048161 19.507685
10.180042 60.025139 19.019892
10.184951 60.014229 18.54011
10.222529 60.055984 18.083282
10.217537 60.029354 17.602772
10.220152 60.015068 17.129742
10.230475 60.013279 16.663733
10.228275 59.991467 16.193306
10.116549 60.020016 16.183609
10.117041 60.002556 15.717546
10.13555 60.014236 15.263111
10.131391 59.989464 14.799397
10.145374 59.994011 14.346717
10.167397 60.011566 13.899449
10.176963 60.009132 13.448171
10.163692 59.970036 12.989123
10.163628 59.952271 12.537839
10.182058 59.964306 12.095572
10.120476 60.451687 20.409311
10.095861 60.374428 18.395552
10.122994 60.392162 17.74262
10.127808 60.382576 17.084324
10.122605 60.360771 16.425356
10.088703 60.258114 13.811238
10.152144 60.320618 13.180953
10.149004 60.287495 21.747066
10.166672 60.215466 17.738247
10.190036 60.228596 17.086611
10.242235 59.156979 16.844963
10.281086 59.054127 20.113663
10.286676 58.965496 16.172527
10.325614 58.753815 15.51998
10.313511 58.680603 12.950485
10.333507 58.576126 18.109314
10.361502 58.580688 16.813911
10.339526 58.513191 14.868992
10.352106 58.375298 18.738142
10.347909 58.312973 26.077753
10.392538 58.250187 20.668312
10.381042 58.208977 19.340677
10.391413 58.138691 15.441865
10.51859 56.01292 16.339134
10.513186 55.95863 19.51193
10.58053 55.967556 16.952288
10.509436 55.842892 15.022245
10.577866 55.901398 14.408473
10.489366 55.774174 13.129769
10.573332 55.849609 12.52298
10.531573 55.946564 23.436333
10.518779 55.848579 20.121611
10.568254 55.771526 14.99829
10.58999 55.778961 14.37232
10.554277 55.724392 13.73395
10.59515 55.752586 13.116126
10.544534 55.666214 11.855983
10.567346 55.67503 11.238671
10.540204 55.747765 20.75507
10.564354 55.757412 20.109571
10.547359 55.674164 17.514616
10.565479 55.629837 14.973653
10.573571 55.62273 14.344854
10.557642 55.589825 13.712146
10.571431 55.588947 13.08867
10.581415 55.584015 12.465917
10.587602 55.575039 11.843936
10.568324 55.523205 10.598908
10.563639 55.561005 18.163734
10.528113 55.491848 16.870609
10.523116 55.455727 15.59817
10.608589 55.532078 14.989195
10.519571 55.406212 13.70813
10.529263 55.38636 12.461049
10.575709 55.421036 11.848487
10.599492 55.479641 19.490784
10.595195 55.459999 18.841322
10.593419 55.443127 18.195713
10.556918 55.359577 16.266153
10.592558 55.382927 15.642097
10.617646 55.395042 15.016585
10.585012 55.34557 14.377889
10.609075 55.356674 13.755886
10.588795 55.320503 13.125099
10.550049 55.250263 11.871073
10.579144 55.266888 11.256604
10.570946 55.32555 20.142502
10.62414 55.338367 18.219049
10.580651 55.248753 16.28772
10.59611 55.250885 15.658163
10.627872 55.270405 15.034894
10.634346 55.2066 11.906187
10.573232 55.113724 10.655744
10.602469 55.203777 18.84075
10.613826 55.201283 18.200453
10.603509 55.147057 16.280817
10.632421 55.163395 15.65522
10.61022 55.125595 15.017483
10.604282 55.105095 14.386683
10.562916 55.018951 12.502334
10.616152 55.061272 11.892223
10.597592 55.027637 11.268809
10.672862 55.188419 20.120581
10.649621 55.089577 16.890388
10.603486 55.011578 15.607438
10.635179 55.030506 14.985013
10.656259 55.038261 14.361271
10.653129 55.020504 13.733253
10.625701 54.977161 13.101783
10.635155 54.972778 12.48083
10.627154 54.950027 11.857902
10.581178 54.887283 11.229704
10.585945 54.878086 10.613193
10.633363 55.079258 22.017031
10.613379 55.027046 20.694641
10.60358 55.001266 20.038845
10.596204 54.978123 19.387299
10.651583 55.02121 18.760601
10.631669 54.939667 16.196196
10.613138 54.905174 15.557985
10.597337 54.873623 14.923298
10.638624 54.902184 14.305631
10.669323 54.919636 13.686447
10.648548 54.883003 13.056811
10.608847 54.811848 11.805089
10.665213 54.856403 11.196852
10.628821 54.878761 18.706276
10.67351 54.910114 18.078194
10.60934 54.811802 16.779984
10.635246 54.823608 16.152851
10.664015 54.838459 15.528248
10.654952 54.813683 14.895204
10.590807 54.716084 13.625366
10.604837 54.685616 11.763472
10.640662 54.708134 11.151895
10.652178 54.705235 10.536759
10.63724 54.734451 17.395411
10.646809 54.728897 16.761274
10.63203 54.697948 16.12236
10.681088 54.733776 15.503897
10.651498 54.687469 14.865743
10.679174 54.701038 14.244893
10.696179 54.703503 13.622882
10.634121 54.623489 12.984686
10.634932 54.594017 11.743442
10.650157 54.594799 11.12812
10.661598 54.591663 10.513331
10.638119 54.704121 21.25621
10.619403 54.605862 18.010612
10.63961 54.611389 17.378057
10.676153 54.63398 16.752537
10.668035 54.610104 16.115673
10.646463 54.556984 14.848311
10.701348 54.598843 14.234792
10.649882 54.530102 13.596766
10.662837 54.528423 12.976468
10.670324 54.506039 11.736757
10.651099 54.471043 11.115069
10.590852 54.348824 8.6502037
10.637072 54.573746 21.230871
10.652838 54.482113 16.724607
10.658009 54.472309 16.092436
10.638718 54.437191 15.455806
10.63585 54.419167 14.826276
10.649528 54.418346 14.203128
10.610291 54.347847 12.947048
10.701577 54.427536 12.34594
10.684583 54.36557 10.488823
10.615174 54.235176 8.0291557
10.61433 54.219727 7.4200644
10.680796 54.474228 20.550741
10.66318 54.440598 19.894119
10.662361 54.409206 18.603123
10.667327 54.369022 16.689646
10.665366 54.352013 16.055859
10.645095 54.242306 12.298965
10.62991 54.197426 11.061013
10.630206 54.154179 9.2203388
10.618391 54.113136 7.99825
10.693692 54.17625 7.3978181
10.652487 54.105091 6.1782985
10.656302 54.337112 20.487207
10.699018 54.365658 19.853525
10.683611 54.334293 19.201344
10.657156 54.291615 18.548794
10.695399 54.285255 16.647057
10.713729 54.288994 16.019218
10.707556 54.267548 15.386615
10.683638 54.227894 14.751847
10.710606 54.240673 14.132422
10.658031 54.171658 13.49578
10.669973 54.12471 11.02183
10.635033 54.044819 9.1759081
10.717664 54.115021 8.5762587
10.699294 54.081577 7.9636555
10.691055 54.058563 7.3536611
10.706923 54.060295 6.7471108
10.677979 54.174667 17.230522
10.693384 54.174931 16.600208
10.656864 54.121944 15.957227
10.725888 54.177341 15.346215
10.660625 54.095001 14.701
10.694373 54.114288 14.083941
10.669135 54.073135 13.454361
10.64121 54.014122 12.207583
10.673266 54.03183 11.596342
10.729272 54.074078 10.99028
10.686353 54.213928 23.036558
10.66659 54.063843 17.825319
10.66705 54.032608 16.554331
10.657723 54.007309 15.919916
10.713022 54.048157 15.30559
10.709444 54.028839 14.676956
10.674286 53.977314 14.042867
10.6972 53.98518 13.425188
10.681667 53.953823 12.80047
10.729435 53.956348 10.956437
10.691108 53.886635 9.7220945
10.646588 53.795616 7.8856363
10.701002 53.835876 7.283742
10.716783 53.836796 6.6778851
10.707846 53.812569 6.0705347
10.726192 53.993908 17.171858
10.720826 53.972595 16.535723
10.697617 53.933159 15.897182
10.752871 53.973743 15.282747
10.721553 53.926174 14.646966
10.713761 53.902634 14.019881
10.750404 53.924377 13.405301
10.712291 53.839207 11.538778
10.722988 53.819374 10.310473
10.722589 53.803665 9.6974506
10.711386 53.777023 9.0842552
10.710334 53.760723 8.4739037
10.698497 53.733505 7.8634758
10.710869 53.730888 7.2569232
10.748908 54.093136 24.990137
10.742269 53.955952 19.704157
10.687352 53.852562 17.759415
10.685676 53.835159 17.122803
10.776068 53.91135 16.515903
10.711285 53.829956 15.86551
10.745649 53.849323 15.245756
10.742176 53.799522 13.369865
10.716949 53.728123 11.507589
10.720097 53.700977 10.278816
10.679901 53.630104 9.0495319
10.741538 53.677425 8.4480581
10.749289 53.924759 22.942406
10.743378 53.791969 17.742563
10.749227 53.766914 16.474291
10.780499 53.783161 15.851748
10.718005 53.704594 15.205705
10.727395 53.698814 14.581809
10.760549 53.717106 13.965557
10.727336 53.668354 13.335319
10.710934 53.636654 12.711495
10.697523 53.608032 12.09053
10.763646 53.644756 10.871252
10.738585 53.604492 10.253097
10.690782 53.526455 9.0231991
10.710179 53.531158 8.4165831
10.725818 53.532089 7.8101892
10.716622 53.508015 7.2018986
10.750453 53.649052 15.824342
10.777658 53.661106 15.202981
10.745456 53.613323 14.568105
10.743861 53.596455 13.94357
10.717412 53.5546 13.315446
10.721761 53.543819 12.696562
10.760312 53.537388 10.85435
10.748065 53.495098 9.6266241
10.743178 53.47525 9.0152121
10.734466 53.451595 8.4046707
10.714903 53.417072 7.79424
10.712635 53.399956 7.1871095
10.734763 53.407352 6.5831757
10.735117 53.645771 20.281723
10.718725 53.550179 17.070816
10.715489 53.500275 15.178945
10.697021 53.466282 14.548618
10.751 53.505119 13.938325
10.738463 53.477188 13.313549
10.784731 53.508335 12.703668
10.757313 53.465565 12.079539
10.718904 53.411831 11.45575
10.721323 53.38398 10.228893
10.762397 53.410057 9.6236734
10.694262 53.326736 9.0035248
10.713656 53.33115 8.3974295
10.743372 53.345909 7.7931714
10.727048 53.314598 7.1845164
10.742194 53.314812 6.5800385
10.751803 53.660942 24.244413
10.7729 53.506882 17.092295
10.74599 53.464409 16.451233
10.756725 53.413784 13.945938
10.786008 53.427879 13.330855
10.741522 53.368195 12.701116
10.776953 53.388515 12.090492
10.717448 53.313931 11.462706
10.698721 53.265202 10.232897
10.732766 53.284264 9.6271343
10.748962 53.285511 9.0193615
10.768414 53.290031 8.4128332
10.727649 53.234467 7.8000607
10.746565 53.238499 7.1954417
10.742188 53.392044 17.745909
10.764952 53.369717 15.854293
10.757436 53.347301 15.224207
10.738876 53.313919 14.593765
10.765079 53.325264 13.976707
10.731457 53.276966 13.347388
10.707761 53.238628 12.722989
10.79221 53.308174 12.122923
10.732578 53.234104 11.495087
10.732144 53.21909 10.880877
10.7419 53.214268 10.269887
10.775995 53.233707 9.6637888
10.742845 53.186214 9.0487623
10.734033 53.162994 8.4388981
10.799111 53.213322 7.838892
10.727108 53.112919 6.6188211
10.742642 53.234413 15.267603
10.724003 53.201653 14.637471
10.722239 53.185741 14.014026
10.779468 53.228539 13.40614
10.727745 53.163036 12.775218
10.749142 53.170273 12.162293
10.808849 53.215603 11.557863
10.766258 53.159321 10.935336
10.712624 53.092136 10.313574
10.753773 53.119106 9.7090979
10.748782 53.100296 9.0984325
10.718738 53.056656 8.4859104
10.790958 53.114491 7.8871241
10.767429 53.07737 7.277678
10.768417 53.064583 6.6719961
10.743498 53.212986 18.475122
10.768134 53.182251 15.947244
10.766711 53.112968 12.829136
10.779924 53.072487 10.370738
10.792928 53.072048 9.7612448
10.745519 53.011852 9.1442099
10.772049 53.024853 8.5391312
10.759372 52.999088 7.929956
10.771229 52.997608 7.3246961
10.758013 52.971363 6.7177835
10.748092 52.948399 6.1123118
10.766235 53.19566 20.442133
10.787898 53.203304 19.803251
10.777767 53.179497 19.15588
10.76327 53.124207 17.237291
10.752935 53.073559 15.344165
10.783261 53.090183 14.726547
10.794887 53.048588 12.246387
10.735019 52.976276 11.618707
10.755774 52.98365 11.008604
10.793884 53.008175 10.402406
10.785752 52.987076 9.7895508
10.752492 52.941212 9.1746645
10.764943 52.940483 8.5677586
10.787777 52.950016 7.9629002
10.771324 52.920822 7.3544025
10.772361 52.908897 6.748877
10.773572 53.140591 20.452621
10.788588 53.141296 19.811197
10.757923 53.096905 19.156681
10.786493 53.069447 16.619011
10.754134 52.888466 9.7920656
10.749349 52.87043 9.1816349
10.747802 52.85561 8.5729809
