# .PCD v0.7 - Point Cloud Data file format
VERSION 0.7
FIELDS x y z
SIZE 4 4 4
TYPE F F F
COUNT 1 1 1
WIDTH 1611
HEIGHT 1
VIEWPOINT 0 0 0 1 0 0 0
POINTS 1611
DATA ascii
18.130047 50.574707 4.566432
18.128819 50.584118 4.4127755
17.884909 50.547043 1.9643804
17.851131 50.529041 1.8148001
17.8388 50.529278 1.6598887
17.765732 50.477806 1.5209062
19.294834 50.995403 13.978813
19.291765 51.006405 13.781029
19.280046 51.01041 13.579712
19.273903 51.018749 13.383225
19.251909 51.014328 13.179434
19.242708 51.020008 12.984408
19.239231 51.030174 12.793874
19.227079 51.033302 12.600146
19.213457 51.035145 12.407137
19.19109 51.029865 12.211296
18.234545 50.64772 6.1181402
18.227816 50.67403 5.6532502
18.210701 50.670383 5.4978771
18.184881 50.659439 5.3426547
18.104338 50.602703 5.1873941
18.009892 50.565716 4.5753732
17.772562 50.545403 1.9804732
17.716417 50.508293 1.8368134
17.726551 50.527763 1.676844
17.675959 50.495361 1.5322844
19.280773 51.029568 14.615467
19.261465 51.028072 14.402047
19.254507 51.036285 14.198367
19.231829 51.03183 13.986824
19.228716 51.04287 13.788961
19.216965 51.046898 13.587568
19.203646 51.049557 13.386953
19.18877 51.05085 13.187139
19.179533 51.056557 12.992034
19.154394 51.049385 12.789989
18.094929 50.652267 5.6544929
18.10078 50.66782 5.5005698
18.074949 50.656818 5.3457875
17.979162 50.58707 5.1908255
17.655409 50.536022 1.994977
17.62178 50.518047 1.8463482
17.602085 50.512016 1.6943016
17.581364 50.505112 1.5423403
19.257799 51.049702 15.478371
19.245474 51.054237 15.261244
19.231382 51.05722 15.045027
19.208597 51.053127 14.825143
19.211889 51.069706 14.624463
19.185635 51.062553 14.406519
19.171656 51.065075 14.198469
19.163076 51.071793 13.99558
19.138762 51.065773 13.785008
19.141172 51.081078 13.592031
17.982302 50.650135 5.6572666
17.972841 50.652763 5.5032773
17.970003 50.660957 5.3495913
17.859072 50.578091 5.1948376
17.780111 50.553402 4.5868187
17.615841 50.572151 2.3041744
17.584255 50.55579 2.155092
17.536762 50.525753 2.0098958
17.495815 50.501312 1.8636148
17.491131 50.508057 1.7083317
17.448246 50.48193 1.5628068
19.217016 51.071064 16.155407
19.203423 51.074917 15.930561
19.187967 51.077129 15.7067
19.184345 51.088631 15.493516
19.172136 51.09314 15.276307
19.144361 51.085049 15.050649
19.142437 51.097496 14.844639
19.138885 51.108524 14.639278
19.112764 51.101315 14.421247
17.861189 50.640923 5.6650915
17.844156 50.637028 5.5113697
17.833746 50.638706 5.3581271
17.659761 50.543484 4.5982361
17.765209 50.64344 4.4415593
17.539165 50.513523 3.5449851
17.606594 50.581596 3.384057
17.529259 50.525921 3.241379
17.503901 50.514671 3.0922408
17.492636 50.515491 2.9409721
17.465305 50.502541 2.7923198
17.467052 50.514553 2.6384134
17.445234 50.50634 2.4886336
17.429911 50.503719 2.3374779
17.428513 50.513107 2.1830413
17.396212 50.495888 2.0352862
17.392721 50.503517 1.8806137
17.36587 50.491009 1.7314171
17.360268 50.496872 1.5764713
19.174128 51.083393 16.857201
19.173006 51.097618 16.634693
19.163342 51.104881 16.407804
19.145052 51.105095 16.176779
19.131594 51.109005 15.951852
19.123075 51.116711 15.732821
19.126431 51.133781 15.524323
19.114408 51.138401 15.306879
17.742689 50.630558 5.6785564
17.741001 50.639557 5.5258608
17.707788 50.62183 5.3724542
17.658327 50.590267 5.2195578
17.549685 50.539303 4.6149712
17.533375 50.535736 4.4644632
17.470915 50.513405 4.0149236
17.473398 50.525875 3.8633485
17.459709 50.524517 3.7130954
17.43746 50.51582 3.5638216
17.421787 50.512756 3.4138744
17.397575 50.502361 3.2651026
17.394995 50.510548 3.1132355
17.383856 50.511395 2.9623938
17.371704 50.511383 2.8115399
17.35104 50.504047 2.6620808
17.329386 50.495857 2.5128057
17.31422 50.493271 2.3621583
17.305502 50.496269 2.2098923
17.288296 50.491951 2.0592401
17.284943 50.499645 1.904996
17.258265 50.487152 1.7562112
17.245405 50.486652 1.603687
17.135504 50.401894 1.4781435
19.159117 51.109547 17.609364
19.137747 51.108261 17.362196
19.140631 51.126102 17.137756
19.121761 51.126438 16.898132
19.107512 51.130272 16.6649
19.118082 51.15379 16.453295
19.106773 51.159664 16.226959
19.093588 51.163872 16.001577
17.623564 50.617889 5.6953263
17.629545 50.633419 5.5434213
17.611666 50.628662 5.3907781
17.554714 50.590611 5.2380137
17.405447 50.525398 4.3350601
17.39484 50.526672 4.1849084
17.375662 50.520592 4.0354328
17.363071 50.520157 3.8855164
17.341927 50.512371 3.7364726
17.334909 50.516727 3.5859685
17.326883 50.520229 3.4354048
17.302782 50.509888 3.2868767
17.292757 50.511681 3.1364019
17.259184 50.493153 2.989547
17.254677 50.499718 2.8379917
17.241648 50.49894 2.6876497
17.235086 50.503777 2.5358434
17.212563 50.494801 2.3870068
17.196507 50.491436 2.2367291
17.186878 50.493668 2.0847642
17.168791 50.488571 1.9345021
17.149694 50.482609 1.7843086
17.144371 50.488655 1.6302171
17.064228 50.429527 1.4966195
19.134665 51.14072 18.145357
19.111341 51.138393 17.889956
19.105337 51.149651 17.652451
19.103867 51.164349 17.421326
19.107046 51.182598 17.196386
19.101746 51.193909 16.966843
17.503828 50.604633 5.7132139
17.509851 50.620258 5.5618458
17.499657 50.622047 5.4098988
17.442844 50.583992 5.2575192
17.303713 50.516911 4.5068469
17.301767 50.525639 4.3566461
17.276102 50.513977 4.2078652
17.257036 50.507977 4.0588994
17.236994 50.501122 3.9101865
17.238628 50.512951 3.7594161
17.216618 50.504395 3.610981
17.208704 50.508003 3.4609373
17.192261 50.504253 3.3118784
17.174833 50.499649 3.1629548
17.156424 50.494194 3.0141778
17.152012 50.500881 2.8629715
17.131615 50.493717 2.7143493
17.132639 50.505165 2.5615091
17.102791 50.489803 2.4145539
17.08687 50.486553 2.2646976
17.069946 50.482441 2.1148844
17.044607 50.471001 1.9669363
17.04788 50.484543 1.811643
17.027912 50.477825 1.6618584
16.977482 50.444477 1.5204306
19.109705 51.153309 18.944733
19.112463 51.172455 18.702965
19.106747 51.184662 18.456257
19.092457 51.189838 18.204857
19.088926 51.203396 17.965809
19.096378 51.225555 17.738716
17.393692 50.597698 5.7353644
17.399786 50.61343 5.5844479
17.389688 50.615299 5.4329314
17.35582 50.596775 5.2812424
17.15966 50.50119 4.2346559
17.148293 50.501797 4.0856056
17.135937 50.501556 3.9366326
17.122597 50.500462 3.7877479
17.108274 50.498516 3.6389625
17.100491 50.502243 3.4893508
17.069168 50.485554 3.3427601
17.066917 50.494095 3.1922069
17.04866 50.488743 3.0438468
17.036907 50.489052 2.8943591
17.016685 50.481998 2.7462363
16.995487 50.474094 2.5982926
16.995647 50.484829 2.4459116
16.965033 50.468719 2.2997298
16.963139 50.477711 2.1470752
16.945385 50.472858 1.9977306
16.934019 50.473618 1.8465645
16.906878 50.460567 1.6992463
16.886126 50.453125 1.55013
19.095377 51.198864 19.544434
19.071653 51.197407 19.270361
19.070723 51.213863 19.021309
19.061277 51.22332 18.767342
19.049612 51.230789 18.514458
19.035744 51.236286 18.262688
19.006771 51.229462 18.000845
17.272871 50.58474 5.7603993
17.279093 50.600548 5.6100225
17.276733 50.608994 5.4592261
17.250635 50.597012 5.3080454
17.082811 50.504322 4.5609269
17.073576 50.506714 4.4120107
17.055805 50.501713 4.2636375
17.044609 50.502399 4.1149244
17.024897 50.495697 3.9669514
17.011745 50.494682 3.8184872
17.005135 50.499355 3.6692822
16.990017 50.496639 3.5209377
16.973923 50.493069 3.3727138
16.956852 50.488651 3.2246218
16.938805 50.483383 3.0766726
16.912315 50.470741 2.9301493
16.914711 50.483341 2.7785318
16.886276 50.468998 2.6323512
16.8792 50.473351 2.4819391
16.86368 50.470329 2.3329988
16.854572 50.472946 2.1823947
16.837048 50.468197 2.033458
16.811152 50.456097 1.8864577
16.813736 50.469067 1.7318637
16.800541 50.468182 1.5809329
19.06151 51.220589 20.40925
19.076431 51.250469 20.161919
19.083023 51.273518 19.909107
19.062506 51.274719 19.632919
18.970606 51.218586 19.292398
18.982513 51.245163 19.055229
18.9734 51.254715 18.801182
18.936583 51.24181 18.525162
17.142883 50.56604 5.7833056
17.17198 50.601448 5.6344643
17.154659 50.596848 5.4835811
17.143915 50.597908 5.3331485
16.969706 50.498535 4.5878472
16.935593 50.489399 4.2918744
16.93215 50.496662 4.1431036
16.912668 50.489967 3.9955397
16.892223 50.482422 3.8482342
16.885839 50.487133 3.6995437
16.870962 50.484444 3.5517011
16.862606 50.48745 3.402976
16.838293 50.476513 3.2563829
16.827974 50.477814 3.1077554
16.801744 50.465187 2.9616289
16.789465 50.464787 2.8131444
16.783634 50.470058 2.6632285
16.761938 50.461414 2.5161932
16.746689 50.458443 2.3677497
16.737846 50.461124 2.2176511
16.720602 50.456425 2.0692065
16.709736 50.457363 1.9189588
16.697847 50.457428 1.7686116
16.670263 50.443645 1.6222451
16.590481 50.38369 1.4909799
19.086857 51.272495 21.651209
19.076235 51.282917 21.360676
19.062933 51.290924 21.071434
19.059078 51.306194 20.796171
19.058832 51.324097 20.528267
18.871677 51.243893 19.311441
18.839815 51.235062 19.032969
18.830713 51.244308 18.779474
17.067234 50.60239 5.655962
17.050114 50.59774 5.5054059
17.032007 50.592216 5.3551683
16.944941 50.526836 5.2047868
16.825314 50.48325 4.31668
16.799511 50.470802 4.1700115
16.787794 50.470638 4.0224748
16.790119 50.482761 3.873559
16.753946 50.461205 3.7284796
16.769291 50.484753 3.5776937
16.738707 50.468071 3.4322798
16.729607 50.470222 3.2841063
16.712061 50.46497 3.1370635
16.6861 50.452316 2.9914229
16.681515 50.458466 2.8421037
16.661066 50.450665 2.6954601
16.6619 50.461628 2.5444701
16.646893 50.458652 2.3963516
16.638287 50.461342 2.2465856
16.606546 50.4436 2.101999
16.603312 50.451077 1.950398
16.584343 50.444649 1.802403
16.56439 50.437363 1.6544892
16.499584 50.390285 1.5193291
19.019913 51.285248 22.282373
19.003405 51.291332 21.975988
19.049116 51.346737 21.742943
18.758968 51.255825 19.319595
18.721083 51.241806 19.03537
16.96031 50.571667 6.1274471
16.945639 50.589027 5.6778336
16.936258 50.5909 5.5280156
16.918352 50.585342 5.3781905
16.846676 50.532948 5.2282538
16.72076 50.482666 4.3420219
16.702692 50.476776 4.1951213
16.691174 50.476616 4.0478311
16.678686 50.475605 3.9006224
16.665234 50.473747 3.7535067
16.643335 50.464466 3.6073899
16.635431 50.467491 3.4595993
16.611624 50.45652 3.3138976
16.601778 50.457844 3.1661978
16.590948 50.458313 3.0184736
16.579138 50.457928 2.8707366
16.558928 50.450134 2.724412
16.55257 50.454594 2.5752697
16.530422 50.445095 2.4291492
16.514696 50.441288 2.2815614
16.512716 50.449688 2.1305017
16.502346 50.450676 1.9809989
16.476295 50.437756 1.8352515
16.46393 50.437004 1.6857245
16.435947 50.422375 1.5403179
18.967472 51.303955 22.971121
18.951677 51.311092 22.654873
18.91543 51.301575 22.320087
18.899387 51.307846 22.013683
18.534883 51.173092 19.236805
18.59671 51.239632 19.048861
17.184244 50.745888 7.8785138
16.897261 50.60899 6.1627131
16.815451 50.567585 5.7095017
16.806309 50.569511 5.5602803
16.80372 50.577152 5.4113669
16.762501 50.551037 5.2620354
16.61739 50.47316 4.5249577
16.600552 50.468189 4.3783164
16.597761 50.475555 4.2308445
16.579004 50.468884 4.0845022
16.566786 50.46796 3.9377091
16.546127 50.459599 3.7917976
16.539463 50.463573 3.6444051
16.531822 50.466698 3.4969516
16.515751 50.462383 3.3505008
16.49872 50.457222 3.2041852
16.480734 50.451214 3.0580163
16.476631 50.457508 2.9093816
16.449303 50.44323 2.7647641
16.435835 50.441242 2.6175306
16.406626 50.425282 2.4734564
16.40597 50.434704 2.3231316
16.396927 50.436695 2.1742465
16.386875 50.437813 2.025243
16.368492 50.431526 1.8780466
16.35644 50.430904 1.7289276
16.336084 50.422886 1.5818101
16.227423 50.33593 1.460826
18.842039 51.291435 22.98811
18.815065 51.289528 22.658588
18.784924 51.284729 22.330812
18.769161 51.291119 22.024714
18.370449 51.126938 19.214005
18.450762 51.208607 19.044857
18.442141 51.217728 18.792467
17.285524 50.814465 9.5490694
17.26462 50.807251 9.3810635
17.219303 50.789616 9.0471458
17.180073 50.766457 8.8770885
17.169373 50.767735 8.7161198
17.142698 50.755222 8.5517273
17.107447 50.735256 8.3862686
17.093433 50.733513 8.2270002
17.078342 50.730801 8.068182
17.069656 50.73357 7.9114022
17.059921 50.735397 7.7549276
17.034164 50.723331 7.5959668
16.980547 50.707321 7.127759
16.711926 50.563091 5.7480202
16.703024 50.565151 5.5991354
16.69315 50.566349 5.4503889
16.667261 50.553501 5.3015947
16.523518 50.476189 4.5655012
16.506939 50.471352 4.4190879
16.496902 50.472271 4.2723927
16.478418 50.465736 4.1263609
16.473944 50.471569 3.9792097
16.438618 50.45013 3.8350601
16.424765 50.447666 3.6889544
16.424862 50.457554 3.5410678
16.409081 50.453392 3.39502
16.377478 50.435192 3.2513423
16.374655 50.442532 3.1033323
16.356014 50.435829 2.9577148
16.351221 50.441452 2.8095064
16.330656 50.433052 2.6640589
16.323895 50.436954 2.5156977
16.31613 50.439991 2.3671918
16.292669 50.429035 2.2219977
16.275597 50.423786 2.075217
16.264868 50.424229 1.9266037
16.245832 50.417255 1.7798718
16.240396 50.422482 1.6290945
16.161217 50.361607 1.4995745
18.723146 51.286194 23.021532
18.702394 51.289185 22.698862
18.643887 51.261463 22.337555
18.640032 51.277344 22.045113
18.263535 51.129757 19.254049
18.343964 51.211735 19.085215
18.316977 51.205772 18.815199
18.287575 51.19759 18.546677
17.74192 50.935093 15.241815
17.282841 50.803608 11.111493
17.244074 50.781727 10.926031
17.298172 50.83894 10.78124
17.285952 50.839565 10.608953
17.25794 50.826626 10.431513
17.235947 50.818741 10.25779
17.198088 50.797188 10.079447
17.180925 50.79327 9.9100895
17.162571 50.788261 9.7413778
17.128325 50.769535 9.5684309
17.129694 50.781326 9.4083176
17.085688 50.754051 9.2347136
17.06263 50.744709 9.0689068
17.04583 50.740692 8.9059305
17.042744 50.748444 8.7475662
17.01631 50.736008 8.5836248
16.988752 50.72253 8.4204464
16.974968 50.720898 8.2615805
16.975018 50.731197 8.1065254
16.966572 50.734112 7.9499931
16.934675 50.716656 7.7892356
16.924118 50.717655 7.6335783
16.905045 50.71122 7.4769125
16.884926 50.703831 7.3207598
16.575109 50.532444 5.787518
16.588999 50.55442 5.6402016
16.579382 50.555767 5.4918756
16.576305 50.562851 5.3438177
16.489685 50.496403 5.1953802
16.395216 50.461666 4.4631872
16.385456 50.462749 4.3169117
16.374741 50.462986 4.1706986
16.363068 50.462379 4.024559
16.342979 50.454304 3.8792555
16.329405 50.452003 3.7333841
16.314877 50.448856 3.5876198
16.299398 50.444862 3.4419737
16.282969 50.440025 3.2964568
16.265591 50.434341 3.1510801
16.254667 50.434418 3.0045843
16.242773 50.43364 2.858078
16.22253 50.425411 2.7130163
16.223444 50.436104 2.5635502
16.201275 50.426174 2.418611
16.192842 50.428551 2.2704754
16.176086 50.423485 2.1240025
16.165672 50.424126 1.9757143
16.146959 50.417339 1.8292836
16.127277 50.409691 1.6829339
16.099361 50.39465 1.5388063
18.601971 51.285786 23.066534
18.570423 51.279865 22.730309
18.552904 51.284904 22.416117
18.509214 51.268456 22.076803
18.567377 51.334133 21.858295
18.113184 51.102348 19.262371
18.21216 51.199635 19.112249
17.712385 50.964054 15.960096
17.697901 50.965584 15.741019
17.694944 50.976589 15.532877
17.670252 50.969296 15.31078
17.737825 51.039059 15.157305
17.273415 50.819946 12.23442
17.285856 50.842022 12.065163
17.268623 50.838799 11.881824
17.178638 50.773502 11.664583
17.165659 50.773659 11.487051
17.144207 50.766502 11.306878
17.143026 50.776569 11.13722
17.111778 50.760868 10.95537
17.108124 50.768681 10.786798
17.117781 50.787842 10.624574
17.097254 50.781078 10.450867
17.075483 50.77317 10.277925
17.052481 50.764122 10.105762
17.035566 50.760227 9.9370365
17.024794 50.761551 9.7715101
17.005529 50.755505 9.604002
16.985096 50.748379 9.4371691
16.963499 50.740181 9.2710238
16.955509 50.743668 9.1100168
16.916857 50.7206 8.9408598
16.91403 50.728443 8.7830105
16.902727 50.728912 8.6234341
16.897764 50.734833 8.4661531
16.884312 50.733356 8.3073425
16.86235 50.724438 8.1472721
16.839308 50.714527 7.987833
16.822645 50.71011 7.8305693
16.812391 50.711231 7.6752367
16.488716 50.526585 6.1290603
16.474133 50.542801 5.6851616
16.472334 50.550892 5.5374842
16.462069 50.551517 5.3896337
16.405867 50.511566 5.2415981
16.29908 50.455559 4.6567349
16.283131 50.451015 4.5111194
16.27371 50.452255 4.3652601
16.263336 50.452648 4.2194605
16.244551 50.445564 4.0743718
16.232281 50.444267 3.9288113
16.211618 50.435497 3.7841575
16.204893 50.439137 3.6379795
16.174925 50.422054 3.4947057
16.173714 50.430626 3.3476071
16.16411 50.431725 3.2014601
16.146147 50.425354 3.0565352
16.134624 50.424751 2.9104357
16.129507 50.429905 2.7629135
16.108683 50.42099 2.6182404
16.108955 50.431015 2.4689822
16.078876 50.413807 2.3261259
16.069845 50.415516 2.1783628
16.059818 50.416351 2.0304825
16.041506 50.409744 1.8844327
16.022226 50.402283 1.7384602
16.023754 50.413609 1.5862573
15.908365 50.319382 1.4687085
18.481846 51.287323 23.111916
18.445295 51.277092 22.768873
18.399681 51.259125 22.421062
18.362232 51.247402 22.088766
18.432142 51.322655 21.884079
18.075472 51.184273 19.133541
18.061739 51.188766 18.875902
17.724154 51.055592 16.308348
17.613939 51.030411 15.188082
17.471979 50.974545 14.107168
17.401287 50.927147 13.871126
17.349293 50.895355 13.650124
17.323166 50.885303 13.447696
17.288509 50.867886 13.242239
17.210426 50.813446 13.01373
17.14085 50.789108 12.437337
17.086578 50.776844 11.884259
17.075241 50.778336 11.706219
17.062601 50.778633 11.528823
17.04151 50.771603 11.34876
17.040634 50.781822 11.179276
17.009766 50.766235 10.997507
16.999208 50.767998 10.82602
16.972961 50.756199 10.649103
16.967184 50.761925 10.481839
16.952967 50.760323 10.312173
16.944832 50.763901 10.145863
16.913647 50.747524 9.9720221
16.903152 50.748932 9.8068953
16.891512 50.74929 9.6422558
16.856718 50.729553 9.4708881
16.850117 50.73415 9.3098469
16.835051 50.731361 9.1469259
16.826242 50.733948 8.9867058
16.801571 50.72271 8.8227348
16.790565 50.723286 8.6634769
16.785887 50.729324 8.5065336
16.757908 50.715034 8.344408
16.743675 50.712662 8.1865234
16.72838 50.709316 8.0290947
16.70459 50.698509 7.8705788
16.694632 50.699734 7.7156568
16.649244 50.67979 7.4028988
16.464222 50.5951 6.1801438
16.360699 50.532513 5.7303014
16.359207 50.540749 5.583066
16.35675 50.548134 5.4357977
16.315908 50.521511 5.2881045
16.153353 50.443588 4.2684021
16.14237 50.443287 4.1230836
16.137882 50.448784 3.9771404
16.110132 50.43351 3.8334832
16.088896 50.424034 3.6893971
16.074148 50.420361 3.5446322
16.080679 50.435749 3.3968379
16.056622 50.423744 3.2532063
16.039032 50.417534 3.1086683
16.042627 50.430351 2.9603555
16.01576 50.415821 2.8172777
16.002684 50.413685 2.6715846
15.995983 50.417305 2.5243387
15.980969 50.413456 2.3786039
15.972305 50.415348 2.2311676
15.955353 50.409779 2.0854371
15.944721 50.409935 1.9378562
15.925828 50.402641 1.7921759
15.920475 50.407619 1.6424143
15.848984 50.352711 1.5119232
18.327942 51.273685 23.134314
18.280752 51.254303 22.77783
18.258615 51.254936 22.457382
18.221926 51.243362 22.125172
18.280527 51.309341 21.907671
17.923325 51.166279 19.15308
17.928581 51.186169 18.913702
17.900698 51.178375 18.645658
17.596857 51.053963 16.347309
17.291758 50.887775 14.689547
17.260529 50.87373 14.473314
17.213266 50.858067 14.058193
17.190578 50.85083 13.854492
17.166283 50.842098 13.65185
17.140392 50.831875 13.45029
17.119843 50.826073 13.253996
17.042133 50.79425 12.667087
17.015558 50.782829 12.474872
17.008631 50.788113 12.294991
16.986256 50.780079 12.108337
16.969563 50.776814 11.926211
16.951517 50.772297 11.744872
16.939257 50.772655 11.56777
16.918566 50.765686 11.387974
16.896553 50.757488 11.209017
16.880411 50.754257 11.034105
16.877403 50.762276 10.866114
16.865995 50.762989 10.695493
16.853374 50.762585 10.525448
16.832302 50.754803 10.353138
16.810001 50.745876 10.181602
16.786482 50.735817 10.010855
16.790928 50.749935 9.8513317
16.765057 50.737701 9.6818752
16.745314 50.730713 9.5156918
16.731749 50.729031 9.352541
16.71706 50.726318 9.1899185
16.693895 50.716167 9.0256567
16.69908 50.730663 8.8705053
16.681084 50.724911 8.7093801
16.66938 50.724602 8.5507631
16.634407 50.703903 8.3870535
16.627951 50.70808 8.2313128
16.613035 50.704819 8.0741854
16.597067 50.700588 7.9175229
16.587484 50.70192 7.762835
16.561996 50.689247 7.6056466
16.55035 50.68869 7.4517813
16.530233 50.680649 7.2970233
16.243891 50.522549 5.7790966
16.250244 50.537544 5.6325831
16.240686 50.538414 5.4854712
16.230173 50.538425 5.3385086
16.136526 50.464458 5.1914911
16.066406 50.439087 4.6106057
16.057716 50.440605 4.4654908
16.04808 50.441277 4.3204284
16.022623 50.427792 4.1766105
16.025976 50.44009 4.0305061
15.998661 50.424915 3.8871968
15.977853 50.415562 3.7434809
15.970936 50.418671 3.5981708
15.970462 50.427578 3.4517813
15.954234 50.42234 3.3073974
15.92969 50.409618 3.1643524
15.926334 50.415977 3.0177796
15.922 50.421474 2.8710237
15.89465 50.406223 2.7284679
15.873723 50.396767 2.5847263
15.873822 50.406315 2.4362931
15.865604 50.408375 2.2892663
15.8564 50.409561 2.1421146
15.831656 50.39669 1.9986231
15.827766 50.402737 1.8494556
15.80112 50.388153 1.7062001
15.795234 50.392441 1.5567791
18.138906 51.252209 23.1306
18.109438 51.246368 22.795067
18.071047 51.232857 22.454584
18.052246 51.235088 22.142984
18.09967 51.291515 21.912781
17.742723 51.141033 19.155785
17.754549 51.165821 18.923037
17.461426 50.991997 17.482437
16.863987 50.773727 12.326344
16.835066 50.759521 12.136396
16.832943 50.768303 11.96203
16.794151 50.745384 11.770412
16.789408 50.751743 11.597385
16.762054 50.738495 11.414716
16.761908 50.748684 11.246231
16.74625 50.745388 11.071678
16.729332 50.740925 10.897831
16.739941 50.760262 10.736899
16.706173 50.741039 10.558251
16.700018 50.745712 10.392218
16.670969 50.730423 10.218226
16.640673 50.713959 10.04519
16.630962 50.715347 9.8810139
16.620113 50.715687 9.7173204
16.630041 50.7341 9.5615082
16.609655 50.726021 9.3961897
16.588125 50.716877 9.2315664
16.565454 50.706673 9.0676508
16.541655 50.695412 8.904458
16.546186 50.708916 8.7501516
16.534941 50.708565 8.5920105
16.500477 50.68779 8.4286928
16.487074 50.685444 8.2716675
16.487421 50.695141 8.1184816
16.464521 50.684364 7.9605875
16.455399 50.685669 7.8063865
16.437826 50.679493 7.6510649
16.41922 50.672367 7.496244
16.407026 50.670856 7.3432002
16.13258 50.527542 5.6825824
16.123507 50.528435 5.5358763
16.098558 50.515156 5.3890491
16.050287 50.481022 5.2425885
15.935013 50.431355 4.3736625
15.924938 50.431225 4.2290659
15.899077 50.416912 4.0858412
15.894554 50.421761 3.9408343
15.866854 50.405769 3.7982199
15.86045 50.408936 3.6533234
15.838311 50.39793 3.5103645
15.830021 50.399406 3.3655355
15.82078 50.400036 3.2206702
15.803224 50.393166 3.0770378
15.799438 50.398746 2.9308758
15.78 50.390186 2.7873998
15.788937 50.407326 2.6380372
15.767591 50.39706 2.4945898
15.752619 50.392574 2.3496566
15.751264 50.400463 2.2012165
15.71981 50.381039 2.0599296
15.716489 50.387188 1.9112659
15.69767 50.379261 1.7664001
15.677896 50.37048 1.6216224
15.606709 50.314838 1.492358
17.939611 51.234791 23.105661
17.905191 51.223713 22.763865
17.884398 51.22356 22.444422
17.871943 51.230015 22.140076
17.908237 51.276627 21.89719
16.733765 50.766464 12.533536
16.72076 50.765427 12.350691
16.699379 50.757046 12.164863
16.683638 50.75346 11.983603
16.666552 50.748623 11.803123
16.65521 50.748692 11.626925
16.628387 50.735237 11.444576
16.628687 50.74527 11.2765
16.61352 50.741791 11.102308
16.597095 50.737144 10.928821
16.579422 50.731339 10.756052
16.574892 50.736923 10.589994
16.554781 50.728855 10.418549
16.54067 50.72596 10.25069
16.525379 50.72197 10.08345
16.501657 50.710541 9.9141884
16.49855 50.717098 9.7534485
16.487057 50.716259 9.5905495
16.474438 50.714386 9.4281588
16.446083 50.698643 9.2616587
16.445856 50.70755 9.1049566
16.429905 50.702595 8.9441738
16.412855 50.696625 8.7839556
16.402073 50.696125 8.6262894
16.390226 50.694645 8.4690437
16.377321 50.692196 8.312233
16.370749 50.695293 8.1575851
16.340965 50.677853 7.9983311
16.324911 50.672493 7.8429847
16.300415 50.659622 7.6866651
16.272684 50.661308 7.2301822
16.251528 50.651241 7.0771303
16.051514 50.524902 6.1666059
16.009121 50.512558 5.7254424
16.01544 50.526699 5.5797167
15.991006 50.513325 5.4331594
15.965632 50.499073 5.2871046
15.799244 50.408688 4.2770348
15.788755 50.407661 4.1330829
15.784739 50.412472 3.9884949
15.757578 50.396404 3.8462279
15.759081 50.406208 3.7008557
15.744854 50.40181 3.5571988
15.722322 50.389904 3.4147263
15.720973 50.397163 3.2691154
15.711302 50.396904 3.1245382
15.708024 50.402454 2.9786222
15.689112 50.393837 2.8353434
15.676592 50.391026 2.690748
15.663123 50.387363 2.5461693
15.655998 50.389484 2.3999519
15.640616 50.384106 2.2553539
15.638817 50.391113 2.1071305
15.614253 50.377399 1.964397
15.610478 50.382652 1.8158803
15.598469 50.380421 1.6692011
15.563863 50.357559 1.5289867
17.74999 51.23119 23.090092
17.727512 51.228745 22.762512
17.707504 51.228065 22.443447
17.673134 51.215107 22.112492
16.569426 50.751987 12.367039
16.555525 50.749371 12.185455
16.547287 50.75161 12.008296
16.537752 50.752651 11.831753
16.519869 50.746334 11.65234
16.50774 50.744968 11.47716
16.480145 50.730015 11.295971
16.479673 50.738701 11.12882
16.463753 50.73381 10.955693
16.446585 50.72776 10.783283
16.44252 50.733131 10.617622
16.430107 50.731133 10.449455
16.416506 50.728027 10.281886
16.387283 50.71114 10.109417
16.385771 50.718544 9.9486065
16.36865 50.712177 9.7829266
16.350376 50.704731 9.6179066
16.345509 50.709049 9.4584026
16.33226 50.705936 9.2969122
16.3106 50.695351 9.1337061
16.29513 50.690174 8.9733829
16.285894 50.690464 8.8157034
16.268253 50.683281 8.6564341
16.271578 50.694611 8.5034828
16.251812 50.685467 8.3451481
16.238344 50.681858 8.189168
16.223831 50.677284 8.0336447
16.200895 50.665195 7.8770261
16.199089 50.671833 7.7255034
16.170265 50.662624 7.4190001
15.884829 50.496159 5.7642431
15.899062 50.516865 5.6193185
15.88259 50.510017 5.4733009
15.872615 50.508991 5.3276997
15.727026 50.417419 4.6061578
15.711488 50.411274 4.4626579
15.695027 50.404289 4.319387
15.692458 50.409847 4.1751418
15.674148 50.40118 4.0321865
15.669703 50.405056 3.8879311
15.649549 50.394707 3.7453349
15.635857 50.390213 3.6020672
15.621239 50.384876 3.4589193
15.620409 50.392056 3.3136468
15.611269 50.391705 3.1693838
15.60852 50.397175 3.0237999
15.582825 50.381794 2.8821957
15.578173 50.385559 2.7365184
15.557946 50.375156 2.5938015
15.558667 50.383846 2.4463439
15.543838 50.378384 2.3020415
15.528061 50.372066 2.1577866
15.518585 50.371513 2.0116866
15.489485 50.361187 1.7212685
15.491494 50.371208 1.5706663
16.465023 50.754959 12.756594
16.449196 50.759209 12.395638
16.414867 50.738125 12.202962
16.414032 50.746254 12.029947
16.383879 50.728645 11.842973
16.373423 50.728214 11.667682
16.375807 50.738983 11.499918
16.362844 50.736229 11.325777
16.341522 50.726067 11.149043
16.333143 50.727211 10.979558
16.31642 50.720959 10.807512
16.298462 50.713554 10.6362
16.293615 50.717644 10.471522
16.26606 50.701656 10.298694
16.266073 50.70993 10.137919
16.250542 50.704441 9.9720526
16.241083 50.704262 9.8094368
16.230501 50.703041 9.6473112
16.211536 50.694363 9.4832487
16.198708 50.691063 9.3222284
16.184774 50.686741 9.1617413
16.169743 50.681396 9.0017996
16.160931 50.68153 8.8445177
16.151056 50.680683 8.6876392
16.13279 50.672344 8.5292482
16.128139 50.676071 8.375145
16.115108 50.67231 8.2195549
16.101036 50.667587 8.0644197
16.10067 50.675045 7.9129257
16.069788 50.655273 7.755568
16.060011 50.654282 7.6032901
16.037443 50.649525 7.2997465
15.746643 50.464317 5.7994618
15.783579 50.505013 5.6561232
15.782426 50.51144 5.51089
15.772903 50.510326 5.365521
15.688187 50.44138 5.2200823
15.622294 50.411503 4.6452127
15.607224 50.405273 4.5020175
15.591235 50.398201 4.3590488
15.589123 50.403698 4.2151423
15.563898 50.388248 4.0731578
15.56731 50.398762 3.9285617
15.547638 50.388336 3.786257
15.541794 50.390465 3.6423626
15.527649 50.385056 3.4994338
15.534634 50.398872 3.3533077
15.518614 50.391773 3.210386
15.494341 50.377151 3.0688958
15.483809 50.375053 2.9250038
15.472335 50.372101 2.781111
15.452621 50.361641 2.6387687
15.453845 50.370304 2.4917405
15.446803 50.371441 2.3461134
15.446049 50.378349 2.1985605
15.429807 50.371105 2.0544879
15.405391 50.356388 1.9124522
15.394488 50.354053 1.7665553
15.397009 50.364052 1.6162964
15.319484 50.300613 1.4901074
16.325241 50.746815 12.594257
16.313549 50.745113 12.412587
16.286592 50.729931 12.224085
16.272154 50.725662 12.044067
16.256378 50.72015 11.864823
16.260334 50.731937 11.696992
16.249016 50.730225 11.522563
16.222311 50.714882 11.342045
16.222588 50.723267 11.175712
16.21459 50.724308 11.006535
16.198271 50.717937 10.834776
16.180717 50.710419 10.663746
16.16194 50.701752 10.493463
16.149115 50.698299 10.32682
16.149487 50.706486 10.166381
16.112749 50.681732 9.992671
16.118059 50.694214 9.8358755
16.107845 50.692886 9.6741419
16.08927 50.684086 9.5104513
16.076817 50.680676 9.3498201
16.063261 50.676243 9.1897192
16.048609 50.670792 9.0301628
16.047462 50.67733 8.8754034
16.037971 50.676403 8.7188396
16.020103 50.667973 8.5607414
16.008497 50.665089 8.4051056
15.995846 50.661236 8.2499094
15.996853 50.669559 8.0985498
15.97479 50.657234 7.9424953
15.966413 50.657112 7.7901311
15.957028 50.656063 7.6380858
15.920482 50.637955 7.33248
15.685973 50.505997 5.6935663
15.67037 50.499001 5.5481567
15.653832 50.491142 5.4030681
15.621531 50.469006 5.2582264
15.520214 50.405434 4.684361
15.50556 50.399174 4.5414743
15.497383 50.398788 4.3983312
15.488282 50.397564 4.2552476
15.470874 50.388786 4.1128898
15.467307 50.392593 3.9693053
15.455434 50.388847 3.8264675
15.442639 50.384262 3.6837335
15.428924 50.378838 3.5411139
15.436321 50.39267 3.3953543
15.420738 50.385559 3.2527363
15.411561 50.384293 3.1090038
15.416073 50.39555 2.9625604
15.404995 50.392574 2.8186369
15.400267 50.395424 2.6732004
15.394574 50.397404 2.5276103
15.402447 50.411827 2.3784928
15.39479 50.412052 2.2324593
15.325985 50.363449 1.9537004
15.301092 50.347866 1.8120167
15.28968 50.344673 1.6663481
15.270115 50.334 1.5228128
16.183802 50.730778 12.618676
16.172571 50.728912 12.437449
16.139103 50.71526 12.073488
16.123817 50.70961 11.894598
16.114206 50.708908 11.720061
16.117361 50.719448 11.553131
16.098213 50.710197 11.376334
16.091887 50.712238 11.207014
16.077272 50.706882 11.034987
16.054317 50.694073 10.860519
16.044329 50.692707 10.693083
16.033154 50.690235 10.526223
16.035101 50.699387 10.365764
16.014439 50.688389 10.197118
15.999763 50.682663 10.031999
15.998329 50.688686 9.8728209
15.981377 50.680843 9.7088242
15.963282 50.671936 9.5454941
15.951295 50.668427 9.3852463
15.945464 50.67038 9.2278395
15.938565 50.671345 9.0708036
15.91604 50.658306 8.9098654
15.914289 50.663807 8.7558413
15.904205 50.661823 8.6000853
15.885759 50.652317 8.4428663
15.880901 50.654949 8.2898598
15.875025 50.656647 8.1371326
15.853451 50.644234 7.9814358
15.845535 50.644043 7.8294754
15.836616 50.642929 7.6778312
15.808407 50.631306 7.3742552
15.789114 50.620781 7.2225204
15.611648 50.50795 6.1749406
15.549715 50.471909 5.7370815
15.556828 50.484997 5.5930452
15.555598 50.490532 5.4486485
15.531216 50.475067 5.3040295
15.395269 50.391228 4.4456863
15.41619 50.416889 4.3007517
15.406639 50.41481 4.1577072
15.396166 50.411892 4.0147414
15.399496 50.42157 3.8702583
15.394519 50.423679 3.7264185
15.388605 50.424938 3.5825167
15.389092 50.43206 3.4374995
15.388622 50.438324 3.2922692
15.379872 50.437027 3.1480744
15.392112 50.454956 2.9998906
15.26154 50.382576 1.9986826
15.215514 50.347061 1.8629525
15.204632 50.343884 1.7175031
15.199957 50.346443 1.569795
16.046093 50.725346 12.466082
16.020174 50.709816 12.278215
16.006691 50.705246 12.098916
15.998836 50.705601 11.92405
15.989699 50.704769 11.749809
15.979291 50.702751 11.576208
15.96762 50.699558 11.403265
15.954694 50.695194 11.230997
15.954643 50.70224 11.065933
15.939271 50.695595 10.894899
15.929767 50.694126 10.727681
15.904844 50.67886 10.55502
15.892941 50.675156 10.389132
15.879869 50.670361 10.223849
15.887135 50.683697 10.067461
15.871793 50.676792 9.903183
15.855302 50.668816 9.7395544
15.852096 50.672688 9.5816021
15.840587 50.66909 9.4215708
15.827978 50.664471 9.262064
15.821531 50.66534 9.1053476
15.806758 50.65871 8.946846
15.798182 50.657604 8.7909918
15.781267 50.648979 8.6335506
15.777885 50.652481 8.4805231
15.766174 50.648472 8.3259344
15.74611 50.636909 8.1700554
15.746984 50.644173 8.0197659
15.732196 50.637302 7.8664732
15.723733 50.636112 7.7151465
15.714273 50.633995 7.5641456
15.703819 50.630962 7.4134827
15.428295 50.450588 5.7773328
15.450651 50.477089 5.6343694
15.442483 50.475861 5.4901404
15.433385 50.473782 5.3460636
15.337265 50.423286 4.4867101
15.388107 50.475887 4.3395839
15.371618 50.467033 4.1965952
15.383668 50.484261 4.0510793
15.122304 50.338448 1.9122515
15.119144 50.341904 1.7650352
15.114988 50.344467 1.6175683
15.023923 50.266796 1.4968097
15.943595 50.725098 12.853177
15.93465 50.724216 12.671816
15.924347 50.722065 12.491164
15.898906 50.706375 12.303548
15.885863 50.70166 12.124533
15.892306 50.714256 11.957339
15.869717 50.70092 11.776026
15.859735 50.698772 11.602722
15.848491 50.695446 11.430073
15.843018 50.697224 11.261456
15.829295 50.691586 11.090085
15.814337 50.684788 10.919421
15.812312 50.689522 10.7557
15.794942 50.680473 10.586329
15.783477 50.676666 10.420658
15.777978 50.678169 10.258451
15.77135 50.678623 10.096693
15.756434 50.6716 9.9327078
15.740372 50.663506 9.7693701
15.730367 50.660812 9.6092205
15.733681 50.670063 9.4544611
15.71428 50.658855 9.2928162
15.708238 50.65963 9.1364202
15.701137 50.659424 8.9804049
15.685719 50.651695 8.8226805
15.68378 50.656082 8.6695652
15.673534 50.652958 8.5147686
15.66225 50.648869 8.360404
15.657239 50.650417 8.2082434
15.342669 50.448021 6.1032023
15.354556 50.476204 5.6726308
15.339423 50.468197 5.5284424
15.34553 50.479549 5.3849101
15.284225 50.429394 5.2409773
15.23728 50.415287 4.5271578
15.04505 50.343433 1.9543843
15.013595 50.32032 1.8155503
15.009958 50.322914 1.6685834
14.991013 50.311371 1.5258254
15.821132 50.718231 12.879621
15.80578 50.711163 12.694525
15.809577 50.721142 12.522141
15.777744 50.699223 12.330823
15.772024 50.700588 12.15588
15.76502 50.700756 11.981538
15.75674 50.69973 11.807815
15.740226 50.691284 11.631183
15.729396 50.687874 11.458829
15.731325 50.695866 11.293904
15.703988 50.677555 11.116146
15.696473 50.676987 10.949066
15.701898 50.688 10.788805
15.677885 50.672527 10.616584
15.673927 50.675037 10.454178
15.683072 50.689304 10.297971
15.669755 50.683327 10.13348
15.655284 50.676273 9.9696198
15.646832 50.674603 9.8090343
15.637273 50.671902 9.648941
15.641003 50.681156 9.494278
15.636482 50.682945 9.3374166
15.638123 50.690273 9.1832123
15.289155 50.485729 6.1460533
15.257967 50.473572 5.712893
15.243255 50.465553 5.5689225
15.235 50.463428 5.425406
15.211065 50.446953 5.2819562
15.114621 50.385605 4.5707364
14.981374 50.361107 1.9946806
14.950343 50.337971 1.8557543
14.925611 50.32066 1.7151349
14.907134 50.309143 1.5725772
15.692592 50.707035 12.724159
15.676236 50.698639 12.540126
15.665343 50.695084 12.360863
15.673756 50.708809 12.193762
15.667169 50.709026 12.019484
15.65238 50.701828 11.842175
15.650174 50.705894 11.67279
15.632814 50.696285 11.496925
15.63513 50.704334 11.332091
15.636283 50.711308 11.167612
15.608162 50.691868 10.990559
15.621027 50.709324 10.833469
15.618688 50.713043 10.670308
15.608125 50.709312 10.504575
15.6177 50.723724 10.348148
15.138924 50.449932 5.7512326
15.154069 50.46896 5.6087117
15.138809 50.460133 5.4651937
15.13 50.457207 5.3220725
15.01936 50.376175 4.7538934
15.116772 50.475994 4.4635668
14.856726 50.329666 1.903293
14.846766 50.325737 1.7587495
14.828694 50.314289 1.6163111
14.759738 50.255592 1.4898536
15.630384 50.725342 13.312903
15.625406 50.727024 13.130692
15.619054 50.727417 12.949142
15.624921 50.73875 12.776406
15.609077 50.730511 12.592091
15.605518 50.733273 12.416468
15.600667 50.734825 12.24142
15.608306 50.747593 12.074457
15.600938 50.746799 11.900451
15.599232 50.751068 11.730656
15.603258 50.760471 11.564844
15.59914 50.762493 11.395946
15.037934 50.439392 5.7884665
15.060747 50.465263 5.6466026
15.045832 50.456486 5.5033064
15.044723 50.460388 5.3605137
14.96909 50.395752 5.217701
14.989418 50.438992 4.5056467
14.772722 50.327892 1.9471885
14.755981 50.317402 1.8049538
14.766912 50.332645 1.6541568
14.712588 50.287212 1.5230111
15.614675 50.770462 14.704546
15.607307 50.770031 14.507687
15.604944 50.77404 14.316361
15.594506 50.770725 14.121096
15.58915 50.771927 13.931253
15.582328 50.771751 13.742146
15.58739 50.78223 13.562593
15.577715 50.779381 13.37486
15.580049 50.787312 13.196406
15.581057 50.793999 13.018451
15.573971 50.793339 12.836928
15.572323 50.797543 12.660104
15.56937 50.800529 12.483832
15.558274 50.796108 12.304287
15.545843 50.790432 12.125491
14.949654 50.449677 5.6798525
14.942442 50.447659 5.5371499
14.934315 50.444794 5.394598
14.888517 50.407192 5.2521095
14.813953 50.356777 4.6874366
14.859122 50.403103 4.5434651
14.700169 50.339691 1.9831233
14.655149 50.302532 1.8491713
14.666492 50.317871 1.6988295
14.648269 50.305679 1.5568238
15.581145 50.816093 15.980927
15.571447 50.813457 15.768426
15.572713 50.820625 15.567262
15.559593 50.814774 15.356593
15.557589 50.818871 15.157011
15.553996 50.82148 14.958181
15.555305 50.828453 14.765004
15.548597 50.828136 14.567669
15.540331 50.826355 14.371153
15.537086 50.829052 14.180126
15.525765 50.824398 13.985237
15.506292 50.812313 13.78674
15.505207 50.816807 13.60255
15.502727 50.819992 13.418973
15.485447 50.809727 13.227516
15.480147 50.810265 13.045384
14.852235 50.436333 6.135726
14.837126 50.435181 5.7080965
14.837606 50.439884 5.5660233
14.82249 50.430172 5.4236798
14.799123 50.412823 5.2816348
14.726024 50.362141 4.7174978
14.727507 50.367748 4.5762024
14.633536 50.357712 2.0123017
14.57458 50.307095 1.8823414
14.564872 50.302429 1.7385826
14.561341 50.303539 1.5925336
15.502577 50.842037 16.862988
15.512819 50.85704 16.657936
15.502792 50.853664 16.437016
15.490913 50.848541 16.217136
15.477194 50.841686 15.998328
15.480559 50.850227 15.796409
15.469634 50.845772 15.584789
15.469708 50.851219 15.384399
15.455386 50.843567 15.174658
15.458643 50.851791 14.980857
15.473307 50.870319 14.797452
15.447636 50.8522 14.585518
15.446312 50.856121 14.393796
15.426051 50.84782 14.003271
14.762894 50.444214 6.1560497
14.726752 50.422256 5.7279897
14.734881 50.433617 5.5865707
14.742103 50.444138 5.4449501
14.726417 50.433426 5.3030009
14.612542 50.346821 4.599791
14.48116 50.297604 1.9114436
14.48612 50.306187 1.7637706
14.475828 50.300522 1.6200881
14.400621 50.234116 1.4969447
15.44418 50.888493 18.264416
15.424342 50.875912 18.012812
15.426144 50.882881 17.786283
15.426019 50.888039 17.560629
15.43002 50.896885 17.341654
15.420035 50.89296 17.112053
15.408088 50.887188 16.883553
15.369597 50.857216 16.633936
15.378364 50.870144 16.429976
15.348181 50.84758 16.194124
15.359715 50.862923 15.997183
15.33827 50.848186 15.774405
15.321266 50.837429 15.558097
15.353253 50.871273 15.383895
14.693384 50.474072 6.170577
14.621594 50.417439 5.7406421
14.63001 50.428596 5.5995746
14.637522 50.438915 5.4583039
14.614837 50.421158 5.3166342
14.547322 50.361691 5.175693
14.522479 50.348511 4.7549357
14.620832 50.44677 4.4674773
14.399438 50.300743 1.9290738
14.383335 50.289097 1.7879107
14.387671 50.296612 1.6402438
14.341284 50.256588 1.5081543
15.397734 50.949333 20.065483
15.394515 50.951515 19.805174
15.411658 50.972164 19.571638
15.386766 50.954456 19.294384
15.393858 50.965816 19.056383
15.404678 50.980518 18.825436
15.384346 50.966743 18.564562
15.379282 50.966827 18.323351
15.383934 50.975719 18.095211
15.374747 50.971916 17.85606
15.221026 50.857594 16.396891
15.228279 50.868416 16.194195
15.196518 50.843452 15.960038
15.212845 50.862495 15.769623
15.189915 50.845524 15.548388
15.127152 50.791969 15.297703
14.507857 50.405907 5.7544103
14.509257 50.410053 5.6135497
14.51707 50.420177 5.4728065
14.51667 50.422649 5.3318114
14.449563 50.362885 5.1910644
14.398929 50.32692 4.632225
14.480781 50.406204 4.4869952
14.323877 50.311062 1.946157
14.308124 50.29921 1.8050603
14.284345 50.279827 1.6662461
14.266781 50.266281 1.525427
15.362713 51.020309 22.099848
15.372595 51.034214 21.82416
15.374574 51.040821 21.542599
15.379345 51.049908 21.269014
15.376157 51.05164 20.989769
15.375877 51.055962 20.718449
15.378648 51.063011 20.454901
15.373462 51.062706 20.185873
15.303392 51.011391 19.341938
15.305426 51.017433 19.097393
14.396368 50.393951 5.7735281
14.419976 50.418438 5.6338348
14.413483 50.414783 5.4929624
14.413395 50.417114 5.352314
14.346695 50.357117 5.2118211
14.357594 50.379353 4.5108938
14.229009 50.302578 1.9746718
14.213644 50.290619 1.8338931
14.211586 50.291183 1.6888393
14.18728 50.270817 1.5503461
15.296506 51.080292 22.793827
15.265929 51.05658 22.451744
15.273997 51.068298 22.167744
15.295309 51.092136 21.905653
15.166459 51.008656 19.342876
14.276358 50.373386 5.8022242
14.314828 50.411556 5.6636262
14.315954 50.414707 5.5232615
14.316188 50.417019 5.3828759
14.264484 50.37059 5.2424936
14.206161 50.322079 4.8250275
14.201964 50.320213 4.6859174
14.240572 50.358559 4.5442209
14.220028 50.341343 4.4057341
14.11104 50.276783 1.8746893
14.109386 50.277386 1.730058
14.09968 50.270401 1.5874345
14.01123 50.189148 1.4704487
15.143283 51.065487 22.779665
15.128759 51.055862 22.459187
15.116364 51.048138 22.147373
15.169527 51.100975 21.927582
14.961127 50.938435 19.270094
14.201365 50.397362 5.6958399
14.210087 50.407379 5.5561056
14.203356 50.402859 5.4159675
14.173889 50.376934 5.2759447
14.098183 50.312866 4.7205868
14.107981 50.323898 4.5810161
14.028659 50.283775 1.9119592
14.013168 50.271008 1.7717937
14.018024 50.277477 1.6250204
13.958269 50.222874 1.4987146
14.999209 51.06039 22.768848
14.97998 51.045654 22.441614
14.97839 51.047268 22.144272
15.021239 51.090179 21.910967
14.788176 50.898281 19.22521
14.886863 50.992901 19.09037
14.090423 50.383434 5.7245498
14.099432 50.393444 5.5852714
14.100286 50.395752 5.4456744
14.08571 50.383499 5.3060007
14.019351 50.322353 5.1670651
14.011333 50.319267 4.7511826
14.006903 50.316582 4.612618
14.095976 50.402229 4.4677038
13.941265 50.283333 1.9479319
13.911957 50.25713 1.812258
13.917199 50.263653 1.6659216
13.900261 50.249172 1.52609
14.818261 51.036247 22.712065
14.819867 51.04002 22.413939
14.82901 51.050816 22.131166
14.866878 51.088497 21.891338
14.649252 50.902588 19.222012
13.991596 50.384151 5.7510929
13.993667 50.387211 5.6118736
13.994855 50.389431 5.4726276
14.002421 50.39769 5.3334103
13.929234 50.329483 5.1944795
13.903677 50.307461 4.9181914
13.900476 50.305519 4.7800183
13.889147 50.295876 4.6422725
13.971213 50.374714 4.498528
13.875267 50.289276 3.8116784
13.850615 50.267002 3.6758335
13.84676 50.264442 3.5371943
13.844257 50.265373 3.1183722
13.836838 50.259438 2.9794559
13.835699 50.259464 2.839021
13.833651 50.258633 2.6984255
13.84499 50.2705 2.554296
13.826814 50.254372 2.4167976
13.894576 50.320911 2.1132164
13.838091 50.26844 1.9852923
13.830486 50.262352 1.8436285
13.829031 50.262104 1.6996782
13.81956 50.254253 1.5577792
14.671567 51.052612 22.71422
14.658481 51.041508 22.395002
14.662923 51.046928 22.105629
14.51594 50.9193 19.233301
13.87697 50.370831 5.7786717
13.879416 50.373775 5.6398931
13.895485 50.389652 5.501379
13.896174 50.390926 5.3623796
13.845228 50.343163 5.223567
13.798727 50.300232 4.948009
13.795921 50.298183 4.8101783
13.792243 50.295303 4.6723819
13.794936 50.298477 4.5341673
13.789511 50.293941 4.3963852
13.783216 50.288578 4.2586694
13.790509 50.296127 4.1195803
13.775236 50.282234 3.9826667
13.766322 50.274384 3.8451262
13.785395 50.293125 3.7037494
13.767509 50.276749 3.5671616
13.806366 50.314297 3.4215999
13.786708 50.296238 3.284935
13.759011 50.270538 3.1499274
13.766354 50.278145 3.0083306
13.751275 50.264439 2.8709044
13.76395 50.277111 2.7272937
13.754238 50.268509 2.5882208
13.736503 50.252277 2.4509437
13.760633 50.275852 2.3027833
13.748199 50.264664 2.1634963
13.734874 50.252632 2.0242741
13.734823 50.25322 1.8809159
13.733824 50.252907 1.7373035
13.738929 50.258404 1.5911727
13.64447 50.16922 1.477702
14.505467 51.0434 22.693083
14.503125 51.041458 22.388573
14.492745 51.03186 22.078388
14.355978 50.904335 19.217922
13.735973 50.329021 5.8100762
13.796709 50.387043 5.6741037
13.798673 50.389088 5.5353885
13.785278 50.376507 5.3964977
13.749283 50.342396 5.257977
13.701242 50.297161 4.8452535
13.690736 50.287327 4.7080693
13.693833 50.290451 4.5702109
13.688826 50.285858 4.4327645
13.690176 50.287319 4.2947617
13.683428 50.281063 4.1573672
13.675811 50.273983 4.0200572
13.674541 50.272945 3.8819616
13.665184 50.26421 3.7447662
13.669361 50.268364 3.6055772
13.665452 50.264816 3.46731
13.675034 50.274117 3.3265498
13.676522 50.275711 3.1867332
13.677111 50.276447 3.0467298
13.669637 50.269505 2.9080381
13.661276 50.261715 2.7693541
13.666309 50.266685 2.627368
13.627638 50.230022 2.4955442
13.645111 50.246845 2.349791
13.647392 50.249195 2.2072382
13.641641 50.243893 2.0664084
13.642055 50.244465 1.9233923
13.648592 50.25087 1.777945
13.654153 50.256348 1.6320826
13.609465 50.213951 1.5022259
14.341749 51.022091 22.676609
14.344945 51.024673 22.379719
14.335121 51.014797 22.069937
14.19238 50.873966 19.200716
13.677547 50.363575 5.7116513
13.679881 50.365627 5.5734653
13.681343 50.366848 5.435257
13.667469 50.353424 5.2970152
13.588831 50.277634 4.7483063
13.592313 50.280788 4.610806
13.587702 50.276211 4.4736948
13.582225 50.270809 4.3366446
13.590314 50.278358 4.1982937
13.583098 50.271297 4.0612235
13.589431 50.277168 3.9225254
13.587675 50.275318 3.7845302
13.570655 50.258892 3.6485438
13.567158 50.255379 3.5106132
13.577144 50.264736 3.3702281
13.571875 50.259533 3.2320573
13.565726 50.253487 3.0938697
13.565851 50.253429 2.9542084
13.572222 50.259331 2.8128252
13.563398 50.250732 2.674392
13.553692 50.241287 2.5359852
13.564442 50.251369 2.3921804
13.560033 50.246979 2.251704
13.568893 50.255257 2.1071494
13.548481 50.235592 1.9704258
13.555463 50.242069 1.8253393
13.561474 50.247623 1.6798342
13.552438 50.238815 1.5385705
14.20291 51.013897 22.687872
14.221749 51.030968 22.412699
14.197421 51.006489 22.081671
14.076725 50.880844 19.233976
13.873585 50.672668 15.300169
13.98581 50.779819 15.199593
13.59533 50.375885 6.1647873
13.565268 50.345745 5.7484851
13.589595 50.368595 5.6113601
13.584172 50.362957 5.4732122
13.570656 50.349567 5.3351932
13.520155 50.300766 5.1978002
13.504904 50.285721 5.0609188
13.493484 50.273899 4.7873116
13.49009 50.270206 4.6504879
13.500265 50.279503 4.5127287
13.487929 50.26725 4.3764172
13.481946 50.261078 4.2396832
13.496712 50.274765 4.1007681
13.488991 50.26693 3.963943
13.494795 50.272038 3.8253634
13.485338 50.262539 3.6885762
13.482201 50.259087 3.5508096
13.485361 50.261662 3.411814
13.466131 50.242813 3.276437
13.474689 50.250549 3.1359434
13.475186 50.250572 2.996542
13.481927 50.256569 2.8554361
13.473487 50.248039 2.717237
13.471286 50.245476 2.5773556
13.4824 50.25565 2.4337535
13.47127 50.244541 2.2953138
13.466341 50.239365 2.1549675
13.460503 50.233318 2.0145173
13.460813 50.23315 1.8718407
13.467231 50.238823 1.7266936
13.451578 50.223385 1.5880491
13.378892 50.153408 1.4686271
14.085763 51.020435 22.731361
14.06521 50.998905 22.398886
14.081821 51.013378 22.125143
13.91916 50.841583 19.218859
13.868583 50.778263 16.440117
13.45582 50.326969 5.7884417
13.487667 50.356846 5.6520567
13.489808 50.358204 5.5143824
13.498297 50.365654 5.3767452
13.45542 50.323795 5.239161
13.410359 50.27916 4.965909
13.397932 50.265846 4.6929374
13.401243 50.26833 4.5559416
13.403688 50.269978 4.4188271
13.405267 50.270798 4.2816048
13.391583 50.256973 4.1457472
13.384241 50.249233 4.0093331
13.397602 50.261353 3.8703017
13.402889 50.265724 3.7318492
13.392941 50.255482 3.5953252
13.39647 50.258167 3.4566
13.399112 50.259995 3.3176675
13.393709 50.254112 3.1798778
13.380286 50.240536 3.0435007
13.387412 50.246658 2.9027615
13.386497 50.245068 2.7632837
13.377566 50.235798 2.6253376
13.389073 50.246113 2.4821141
13.371258 50.228321 2.3458388
13.373831 50.230068 2.2039647
13.368404 50.224144 2.0638387
