# .PCD v0.7 - Point Cloud Data file format
VERSION 0.7
FIELDS x y z
SIZE 4 4 4
TYPE F F F
COUNT 1 1 1
WIDTH 1511
HEIGHT 1
VIEWPOINT 0 0 0 1 0 0 0
POINTS 1511
DATA ascii
10.400162 59.761692 25.255318
10.417591 59.760803 24.734236
10.427829 59.747391 24.210728
10.44886 59.75338 23.700956
10.453712 59.7309 23.180927
10.455863 59.703884 22.662838
10.446199 59.656204 22.13929
10.475036 59.676899 21.650909
10.478465 59.652851 21.14567
10.507032 59.673431 20.663137
10.500802 59.63274 20.15769
10.50595 59.61235 19.664276
10.499296 59.571358 19.166023
10.518235 59.575668 18.688696
10.51136 59.534687 18.197083
10.530323 59.539371 17.725325
9.7551565 60.094067 38.848907
9.8567896 60.082855 35.631973
9.3828735 60.070862 38.753204
9.4285536 60.076504 37.45462
9.4670286 60.070629 36.177639
9.5092726 60.036484 34.298119
9.0140162 60.063164 38.66695
7.325304 59.887356 31.963285
7.3358712 59.872902 31.378452
7.3510733 59.868156 30.806171
7.395225 59.785736 27.992886
7.4050241 59.772205 27.448278
7.4605546 59.817898 26.414436
7.4705262 59.805557 25.884209
7.4900374 59.812542 25.368835
7.4867697 59.774334 24.833912
7.5094342 59.78812 24.330357
6.9961405 59.841537 30.722681
7.0678549 59.782276 27.395615
7.0944672 59.80328 26.876705
7.0988159 59.779385 26.336906
7.1204076 59.790741 25.821217
7.1355572 59.789303 25.302725
7.1442204 59.774994 24.781719
7.1503882 59.755913 24.262632
7.166235 59.756657 23.757702
7.1797218 59.752865 23.254318
7.1867714 59.736317 22.748632
7.1914496 59.715229 22.244755
7.1978917 59.697937 21.746477
6.6697068 59.823948 30.084009
6.7240467 59.765499 27.32649
6.7345862 59.754101 26.790609
6.7581906 59.769882 26.274567
6.7675714 59.756672 25.746838
6.778378 59.746681 25.225382
6.7906809 59.740028 24.710014
6.8005581 59.728664 24.196413
6.8200445 59.737251 23.696814
6.8372378 59.741364 23.198606
6.8400202 59.716202 22.69014
6.8607249 59.727951 22.202749
6.8629308 59.702087 21.701618
6.8791909 59.70517 21.217035
6.407866 59.753479 26.742891
6.4078298 59.720669 26.201042
6.4323931 59.73946 25.692232
6.4467983 59.737331 25.17617
6.4509454 59.714111 24.653383
6.4605136 59.70245 24.140966
6.471662 59.694328 23.634434
6.5003734 59.722931 23.149529
6.4949627 59.680904 22.634375
6.5072074 59.67577 22.140627
6.517221 59.666229 21.648424
6.5452461 59.69421 21.176115
6.5468478 59.667667 20.683163
6.5584531 59.662041 20.202553
6.5887995 59.637062 18.775858
5.8944273 60.036556 37.909485
5.9031181 59.974567 36.585888
5.9125676 59.955338 35.946053
5.9632702 59.948421 34.110241
5.9751692 59.862556 32.281197
5.991015 59.860149 31.703304
6.0003519 59.844254 31.12248
6.0287933 59.834393 29.993189
6.051846 59.848759 29.44902
6.0499401 59.810432 28.877506
6.0989532 59.715866 25.643208
6.1323013 59.754349 25.149754
6.1324081 59.72287 24.623444
6.1534357 59.735813 24.124243
6.1448016 59.686459 23.59794
6.1690941 59.706757 23.110014
6.1833291 59.706085 22.615408
6.1834464 59.675941 22.110826
6.2051668 59.691452 21.630735
6.2167916 59.685944 21.14443
6.2182341 59.659271 20.652445
6.2307119 59.626705 19.68775
6.2540774 59.646595 19.224485
6.2591758 59.628399 18.749052
6.2662959 59.614616 18.278336
6.2795939 59.613934 17.815216
6.303576 59.579582 16.429998
5.6146655 59.949032 35.280132
5.6554365 59.99929 34.708168
5.7162151 59.910637 31.128479
5.3495374 60.012672 34.67054
5.4018521 59.907822 31.084475
4.9772515 59.92976 35.15395
5.0167561 59.979626 34.583801
5.063767 59.863575 30.99963
5.1387968 59.790539 27.137051
4.6955867 59.984066 34.508488
4.741838 59.864521 30.92964
4.7790842 59.912624 30.400066
4.8085504 59.771709 27.064234
4.4192119 59.86776 30.855259
4.4491682 59.89959 30.316427
4.4927621 59.786858 27.005529
4.195106 59.639706 23.809158
4.2129245 59.61475 22.81119
4.2370334 59.63755 22.334391
4.2407236 59.61372 21.839508
4.2831097 59.678825 21.387695
4.2529869 59.578018 20.866449
4.261673 59.566372 20.387886
4.3021641 59.627666 19.942368
4.2985988 59.557533 18.981682
3.958638 59.527374 19.404013
3.992507 59.543095 18.485815
4.0146265 59.501652 17.104626
4.0196195 59.482712 16.647982
4.0266237 59.468597 16.19558
4.0356846 59.459389 15.74721
4.0545173 59.472858 15.308002
4.0601435 59.456036 14.861717
4.0601859 59.426521 14.414159
4.0778389 59.437668 13.980124
3.7168641 59.450012 16.170343
3.7220628 59.431835 15.720138
3.7520547 59.471786 15.289955
3.7462623 59.428234 14.836663
3.7577636 59.425243 14.397623
3.7752602 59.436367 13.964352
3.4463358 59.393726 14.374812
3.4635775 59.404816 13.942554
3.1471133 59.416985 14.803936
2.8632019 59.381912 13.906415
2.274277 59.792156 29.921505
2.335233 59.712025 26.675421
2.3440058 59.696495 26.151239
2.3836093 59.759022 25.673754
2.4006844 59.728359 24.647282
2.4245057 59.751942 24.160259
2.4329653 59.737179 23.657816
2.4191213 59.666737 23.13282
2.4438391 59.693394 22.658562
2.5136786 59.595005 18.844269
2.5256109 59.591736 18.385395
2.5181465 59.54039 17.911888
2.0075858 59.855839 29.910574
2.040236 59.700817 26.623411
2.0587084 59.70977 26.113628
2.1069832 59.610378 23.065987
2.1448145 59.670734 22.608875
1.7668415 59.719322 26.588482
1.769123 59.686501 26.056469
1.863843 59.670479 22.569746
1.922451 59.540848 18.757809
1.4101429 59.797935 30.329823
1.5967338 59.700207 22.550608
1.5828487 59.627373 22.036222
1.6452807 59.543304 18.731264
11.021155 59.810822 26.679073
11.030672 59.819824 24.867064
10.84167 59.8582 30.886347
10.856626 59.864697 30.45763
10.853017 59.850658 30.01054
10.86053 59.849174 29.585468
10.854325 59.832565 29.149097
10.874857 59.845871 28.753824
10.876747 59.838566 28.340679
10.88031 59.833263 27.935757
10.890882 59.835884 27.5452
10.897114 59.824932 26.76269
10.763429 59.869072 31.313986
10.767561 59.862938 30.863123
10.782523 59.869072 30.434534
10.783888 59.860191 29.994268
10.781443 59.847229 29.556021
10.785295 59.841454 29.132969
10.795704 59.843136 28.724777
10.802684 59.841141 28.31826
10.801093 59.82975 27.90712
10.822028 59.843559 27.529343
10.818952 59.830791 27.127985
10.8178 59.820297 26.734674
10.824014 59.818119 26.355345
10.827141 59.812634 25.977604
10.837966 59.815807 25.61339
10.829626 59.797832 25.232964
10.840001 59.800732 24.877625
10.842085 59.79454 24.517912
10.852362 59.797535 24.171066
10.855799 59.776764 23.127636
10.595585 59.886864 32.068832
10.602041 59.882019 31.607887
10.609282 59.878258 31.155832
10.556819 59.871048 31.126495
10.579346 59.884739 30.703709
10.563742 59.855961 30.235363
10.573824 59.856091 29.809486
10.585277 59.857922 29.391993
10.59824 59.861595 28.98274
10.602667 59.8559 28.568665
10.598459 59.840736 28.150021
10.611372 59.844818 27.758718
10.626262 59.851238 27.375219
10.622277 59.836773 26.97459
10.625515 59.830498 26.588131
10.641537 59.838573 26.221539
10.638553 59.825642 25.838314
10.643217 59.821339 25.468719
10.655765 59.825916 25.112385
10.650436 59.801632 24.380934
10.51925 59.851025 30.686567
10.523037 59.84444 30.245316
10.532952 59.844868 29.81937
10.544241 59.846989 29.401806
10.551987 59.845314 28.985954
10.551115 59.834187 28.565407
10.562067 59.836388 28.166018
10.56452 59.829262 27.761915
10.5688 59.824318 27.365885
10.580289 59.827526 26.983973
10.578088 59.815639 26.591312
10.577962 59.806194 26.206545
10.590758 59.81123 25.841486
10.606032 59.81913 25.483725
10.602182 59.805912 25.109703
10.606239 59.801586 24.748987
10.601926 59.788094 24.384087
10.616838 59.796013 24.043423
10.482578 59.825432 29.826139
10.488689 59.822247 29.401974
10.491179 59.815182 28.979649
10.505363 59.821281 28.578629
10.505928 59.812366 28.16637
10.523714 59.822739 27.78133
10.52792 59.818142 27.385159
10.53934 59.82169 27.003109
10.547641 59.821896 26.622562
10.536864 59.801048 26.225391
10.544234 59.800461 25.854202
10.554011 59.802654 25.49045
10.550019 59.789696 25.116421
10.553938 59.785618 24.755703
10.565998 59.790657 24.407913
10.575345 59.792786 24.061399
10.570851 59.779697 23.705078
10.447926 59.839951 30.272772
10.453625 59.826782 29.408934
10.461038 59.825504 28.993008
10.464929 59.820446 28.578852
10.482945 59.822121 27.781408
10.398763 59.810722 25.81072
10.403482 59.799347 25.072941
10.417837 59.807095 24.723751
10.412928 59.793625 24.358717
10.319358 59.818428 26.937441
10.327033 59.818108 26.557089
10.331609 59.814465 26.178303
10.333105 59.807522 25.801128
10.336946 59.803295 25.431524
10.337816 59.795887 25.063492
10.346689 59.797447 24.708609
10.347254 59.789909 24.349413
10.356064 59.791595 24.003029
10.301564 59.794029 24.365347
10.310414 59.795887 24.018818
10.195944 59.907448 33.044224
10.204848 59.896755 32.093903
10.171005 59.91013 33.060757
10.170241 59.899433 32.573811
10.18429 59.905392 32.117027
10.179838 59.890934 31.641356
10.180912 59.882786 31.181667
10.192702 59.8867 30.744431
10.200726 59.88657 30.308983
10.159954 59.931175 32.602436
10.145144 59.90538 32.103458
10.15487 59.907017 31.64851
10.160621 59.904388 31.195473
10.172262 59.908443 30.757973
10.175175 59.90295 30.31555
10.184266 59.904446 29.888405
10.179627 59.890858 29.449877
10.171209 59.873215 29.013458
10.169274 59.862892 28.592113
10.179239 59.865868 28.191887
10.18068 59.859524 27.786966
10.189209 59.861134 27.396357
10.183979 59.847637 26.994978
10.082573 59.972851 35.618511
10.116697 59.94154 32.139492
10.131449 59.948719 31.691069
10.132543 59.94088 31.230747
10.1296 59.928711 30.772533
10.13257 59.923252 30.329916
10.136718 59.919239 29.895929
10.142183 59.916821 29.470438
10.13386 59.899254 29.03376
10.152507 59.911697 28.637949
10.142083 59.892059 28.211657
10.052442 60.023937 35.701447
10.056582 60.017788 35.17345
10.055886 60.006454 34.647816
10.091094 59.967766 30.829004
9.9982748 60.036995 35.744045
10.002804 60.031136 35.215816
10.020806 60.040512 34.719051
10.029723 60.03994 34.217026
10.034113 60.034512 33.717152
9.9625111 60.062454 35.80566
9.9583731 60.046936 35.262341
9.9858332 60.066879 34.779842
9.912961 60.070038 35.834606
9.9275513 60.064659 34.793873
9.6635447 60.079311 35.393459
9.5245123 60.078247 35.44479
9.4581146 60.060493 35.48719
9.4081249 60.049019 35.583157
9.3309317 60.015099 35.641205
9.2263918 59.968597 35.617706
9.1390514 59.980671 35.585201
9.0608597 60.019508 35.554558
8.9771109 60.035168 35.503334
8.9122038 60.031933 35.49432
8.8556814 60.002964 35.509521
8.8226185 59.987068 35.557083
8.9079514 60.070293 35.162048
8.7715454 59.9846 35.566879
8.8568058 60.068012 35.171787
8.7047024 59.995743 35.548817
8.7808304 60.068748 35.139091
8.6469707 60.025806 35.540592
8.3557911 59.826588 30.052536
8.3493929 59.808521 29.607382
8.3973398 59.790337 26.790855
8.4097338 59.794491 26.417358
8.4084578 59.783527 26.033247
8.4469528 59.817009 25.698568
8.3498392 59.672497 24.134552
8.3933601 59.694805 23.131924
8.3658524 59.614803 21.119558
8.3678608 59.6091 20.802763
8.2979603 59.753593 26.760706
8.3049593 59.751625 26.381527
8.3141966 59.752285 26.00996
8.3258018 59.755707 25.645844
8.3098135 59.674675 23.122404
8.3662071 59.728725 22.835608
8.3525772 59.705078 22.485064
8.3647089 59.710133 22.16251
8.3801632 59.718952 21.84622
8.3817492 59.712475 21.520741
8.3113356 59.62627 21.136431
8.3193283 59.627098 20.824421
8.1925688 59.687061 24.845934
8.2087946 59.676662 23.790871
8.2031183 59.661083 23.436571
8.2170458 59.667431 23.10578
8.2340918 59.677345 22.781511
8.2317019 59.665745 22.442335
8.2437906 59.670334 22.120378
8.2477398 59.66597 21.794365
8.2377062 59.646175 21.459463
8.2251053 59.623634 21.126192
8.2507133 59.643581 20.829149
8.1003094 59.658897 23.750221
8.1113596 59.661373 23.412954
8.119813 59.66106 23.076931
8.1313162 59.664253 22.747574
8.1403179 59.664764 22.419394
8.1297503 59.643593 22.076725
8.1336975 59.638683 21.75124
8.1351881 59.631142 21.427048
8.1400251 59.627419 21.109198
8.1599531 59.640556 20.807369
8.013567 59.683662 24.782984
8.0217505 59.671734 24.073532
8.0244026 59.664352 23.723867
8.0354319 59.666451 23.386744
8.0438671 59.665768 23.050869
8.0384665 59.649761 22.705523
8.0473518 59.649807 22.377714
8.042366 59.634499 22.040663
8.0519581 59.63554 21.720636
8.0591583 59.634018 21.401756
8.0639791 59.62994 21.084063
8.0664349 59.623333 20.767588
7.9425492 59.695141 25.137793
7.9455433 59.676849 24.413885
7.9564385 59.678421 24.068508
7.9701681 59.683277 23.730036
7.9534836 59.654278 23.365154
7.9618402 59.653378 23.029497
7.9845009 59.668552 22.71126
7.9708328 59.643307 22.362091
7.971499 59.634167 22.030422
7.9868045 59.641449 21.715624
7.9882703 59.633408 21.391666
7.9815087 59.616314 21.064041
8.0071621 59.635395 20.767508
7.8949237 59.670403 23.739496
7.8894606 59.653923 23.385725
7.8979764 59.653183 23.049997
7.8982878 59.643402 22.710176
7.9016275 59.637119 22.377138
7.9081082 59.634445 22.050697
7.9063978 59.622749 21.720358
7.9136753 59.621178 21.401632
7.9243584 59.623493 21.089098
7.9211097 59.610397 20.767767
7.8298769 59.628349 22.398102
7.8365092 59.625866 22.071665
7.840672 59.620735 21.746483
7.8423796 59.612972 21.422594
7.8416467 59.602596 21.100037
7.8559213 59.609024 20.793665
7.7602944 59.618156 22.075281
7.7702422 59.619415 21.755341
7.7720504 59.611702 21.431452
7.7656393 59.594933 21.103876
7.7799768 59.601379 20.797586
7.6858139 59.609989 21.734539
7.6876211 59.602001 21.410879
7.6985416 59.604282 21.098583
7.7129669 59.610561 20.792294
7.5866923 59.6203 22.355829
7.5977545 59.611336 21.705126
7.605341 59.609322 21.386787
7.6163239 59.611206 21.074642
7.4992976 59.632412 22.666552
7.5030112 59.625244 22.334122
7.5028162 59.602753 21.673414
7.5156426 59.595314 21.038532
7.4271879 59.634884 22.656221
7.4610376 59.616238 21.043612
7.3577032 59.634464 22.997246
7.3753376 59.597507 21.352694
7.3144875 59.601349 21.695166
6.9999151 59.583241 21.04491
6.8860188 59.666508 24.045874
6.8956304 59.663792 23.702797
6.8915296 59.645733 23.35
6.8957405 59.637234 23.009811
6.9028964 59.63221 22.676445
6.9131117 59.630783 22.349722
6.9038901 59.60759 22.008497
6.9147472 59.607166 21.689644
6.9232168 59.604187 21.371939
6.9293132 59.598663 21.05542
6.7648864 59.732368 27.012608
6.7804589 59.719677 26.250486
6.7994761 59.711704 25.512897
6.7991815 59.696877 25.140503
6.8066125 59.691006 24.781496
6.805769 59.675938 24.418236
6.8346839 59.694756 24.090769
6.8282332 59.673683 23.730499
6.8409605 59.674484 23.394171
6.8344488 59.65369 23.042683
6.8363233 59.64254 22.703707
6.8468008 59.641254 22.376842
6.8491492 59.630939 22.04595
6.8603263 59.630718 21.726807
6.8691144 59.627937 21.408806
6.8697834 59.616146 21.086966
6.7046461 59.755993 27.859858
6.7131076 59.750065 27.464926
6.7285814 59.752338 27.084194
6.7253742 59.733562 26.686394
6.7397447 59.734993 26.314993
6.7353201 59.71526 25.926899
6.7488837 59.716164 25.564619
6.7542129 59.707901 25.197832
6.7458429 59.684292 24.820967
6.7614322 59.68803 24.474838
6.7743139 59.688862 24.129967
6.7790265 59.680607 23.780773
6.7975283 59.688107 23.449707
6.7968674 59.674091 23.103308
6.8046508 59.669777 22.769285
6.8098702 59.662712 22.436579
6.8238297 59.665649 22.115742
6.8069987 59.634007 21.770105
6.833128 59.650925 21.467197
6.8283677 59.633171 21.139866
6.6940126 59.762268 27.545042
6.6942782 59.747879 27.144991
6.6963849 59.735802 26.753012
6.7056923 59.732105 26.375076
6.7171803 59.731071 26.004768
6.7309761 59.732834 25.64193
6.7365355 59.725433 25.274569
6.7283936 59.702698 24.897102
6.7442074 59.70726 24.550411
6.7355418 59.684292 24.182163
6.7567673 59.695282 23.849554
6.7809629 59.709763 23.523548
6.774971 59.690296 23.171062
6.7773538 59.680439 22.831108
6.7827158 59.674088 22.49795
6.7855268 59.664997 22.166143
6.7858019 59.653191 21.835732
6.7892647 59.645107 21.511866
6.7902851 59.634403 21.18932
6.8061905 59.64056 20.883024
6.631144 59.829838 30.545885
6.6316509 59.814781 30.09938
6.6820974 59.769451 27.224779
6.6947994 59.77005 26.844564
6.6782641 59.737682 26.435219
6.6898551 59.7374 26.064491
6.7090549 59.745903 25.707222
6.7040768 59.727203 25.327518
6.7067418 59.717331 24.96137
6.7281003 59.728752 24.619963
6.7304869 59.71888 24.262529
6.7300377 59.705967 23.906668
6.7433066 59.708683 23.569113
6.7428861 59.696102 23.221802
6.7564874 59.699467 22.892303
6.7563615 59.687496 22.553274
6.7705526 59.69178 22.231552
6.7709804 59.680695 21.900528
6.7688847 59.666908 21.57093
6.7700224 59.656879 21.247845
6.7975864 59.676643 20.950964
6.5638866 59.91032 33.906189
6.5702424 59.900452 33.409481
6.5767422 59.89106 32.922127
6.5788727 59.876965 32.43697
6.5954962 59.879738 31.982033
6.6215539 59.862423 30.628553
6.6126237 59.837078 30.167925
6.6094685 59.818581 29.723003
6.6664853 59.772091 26.505013
6.6625361 59.754608 26.115465
6.6818762 59.763657 25.757784
6.6716986 59.739487 25.371719
6.6905842 59.748341 25.022772
6.6851063 59.72982 24.651884
6.7038527 59.738808 24.311363
6.7035356 59.726425 23.955059
6.7114229 59.723442 23.611502
6.7166438 59.71759 23.269312
6.7303724 59.721455 22.939373
6.730372 59.709991 22.599894
6.7164607 59.683018 22.251356
6.722527 59.678642 21.925447
6.7318435 59.67804 21.60594
6.7387772 59.674873 21.287594
6.7375708 59.662682 20.965471
6.5598006 59.984268 34.009861
6.5439401 59.948772 33.47644
6.5462766 59.934483 32.981426
6.5581503 59.931423 32.509876
6.5564318 59.913097 32.026367
6.5448422 59.868008 31.073301
6.5592699 59.868973 30.637758
6.5601974 59.854778 30.190535
6.6014581 59.886799 29.805449
6.614799 59.887203 29.38834
6.6146188 59.87244 28.959862
6.6158018 59.859459 28.53989
6.6276445 59.791348 26.154268
6.6586933 59.800808 25.433386
6.6564994 59.78574 25.060318
6.6512895 59.767433 24.689003
6.6702924 59.776634 24.348057
6.6757107 59.770641 23.996962
6.6783757 59.761684 23.647333
6.6783032 59.749786 23.29921
6.681088 59.741253 22.958063
6.694912 59.689514 20.987797
6.3987904 59.923069 34.374947
6.4543962 59.882954 31.499979
6.4583597 59.87122 31.042135
6.4872832 59.88829 30.627176
6.4980869 59.884888 30.193426
6.304019 59.941494 34.832546
6.3373961 59.960819 34.361099
6.3510227 59.868713 31.423559
6.3834534 59.889027 31.00736
6.4075327 59.900013 30.585724
6.4377642 59.91827 30.179077
6.2400155 59.953091 34.784428
6.2775826 59.977024 34.320408
6.2564297 59.843502 31.33531
6.3410211 59.923462 30.994976
6.3408794 59.906464 30.539274
6.1704283 59.931198 34.720787
6.2253895 59.975445 34.28619
6.2111883 59.851334 31.315701
6.2715712 59.903713 30.941069
6.2854171 59.902969 30.506029
6.1849203 59.966759 34.29208
6.2248082 59.891262 30.939632
6.2335815 59.885166 30.497807
6.1441369 59.957214 34.312714
6.1785159 59.879009 30.952497
6.1919985 59.878773 30.51738
6.2407866 59.919094 30.137793
6.0972028 59.953159 34.318451
6.1353922 59.881668 30.964613
6.1584759 59.892696 30.542921
6.202395 59.927719 30.156355
6.0245471 59.937584 34.787945
6.0566192 59.956997 34.316345
6.1078663 59.902191 30.982584
6.1115212 59.891262 30.533516
6.1552496 59.926273 30.146927
5.9894214 59.939941 34.783813
6.0166883 59.95425 34.304859
6.0559449 59.888649 30.957382
6.0640483 59.883183 30.515213
6.1325402 59.851425 27.221535
5.9731688 59.954025 34.319557
6.0118685 59.89006 30.971182
6.0247555 59.890347 30.535656
6.0681529 59.925587 30.148903
5.8829317 59.914352 34.282593
5.9393926 59.871227 30.964159
5.9376802 59.854942 30.508436
5.9955864 59.906769 30.142151
5.8509336 59.958572 34.342533
5.8722548 59.873428 30.96595
5.8755226 59.862587 30.517004
5.9237938 59.903244 30.137239
5.7415981 59.922291 34.272774
5.7801714 59.854912 30.927479
5.7930255 59.854736 30.492407
5.8608117 59.917404 30.139671
5.8610506 59.821457 27.200872
5.9132919 59.74752 23.191595
5.6941032 59.947285 34.274136
5.7183685 59.862221 30.907503
5.7359686 59.867298 30.479267
5.789032 59.91304 30.106367
5.6301641 59.9487 34.261475
5.6443658 59.851395 30.881634
5.6715226 59.867298 30.467127
5.7245274 59.912895 30.094276
5.7334466 59.825104 27.169901
5.5669532 59.95919 34.295334
5.5883965 59.868748 30.921026
5.5965199 59.862732 30.479189
5.6545806 59.913956 30.113077
5.6666622 59.815266 26.795155
5.712482 59.743408 23.174337
5.5084081 59.961739 34.347126
5.5136275 59.852505 30.943682
5.5268278 59.852272 30.508623
5.5900054 59.909321 30.14922
5.5768461 59.79512 27.192156
5.6044741 59.813168 26.830183
5.6418233 59.731567 23.196989
5.4345031 59.916706 34.33239
5.4715223 59.847298 30.978506
5.4992967 59.86412 30.563597
5.5235715 59.877155 30.150105
5.5679846 59.818336 26.869162
5.6116304 59.74733 23.238541
5.4301615 59.929775 34.383152
5.4469705 59.843121 30.998775
5.4599395 59.843811 30.563318
5.4985075 59.873852 30.169964
5.5185404 59.805412 27.256042
5.5356646 59.812546 26.881153
5.5445247 59.810482 26.50153
5.5656004 59.732445 23.238073
5.4351592 59.851826 31.030495
5.4333558 59.836464 30.574366
5.4814267 59.877968 30.194298
5.5390954 59.737633 23.251808
5.3441167 59.911091 34.401756
5.3775959 59.85009 31.043802
5.3855438 59.845928 30.60117
5.4092512 59.859871 30.187332
5.4711347 59.72628 23.25276
5.2633562 59.918499 34.407104
5.272903 59.813782 30.559072
5.3307915 59.866261 30.192726
5.3620687 59.801971 26.896603
5.3742476 59.705967 23.236309
5.2897983 59.697182 23.214823
5.2430763 59.712051 23.201305
5.1687751 59.670578 22.818115
5.1671209 59.658596 22.479092
5.1402211 59.618359 22.120596
5.1673899 59.639008 21.815945
5.1751947 59.637993 21.496698
3.2722373 59.597042 22.384235
3.2726982 59.587063 22.052883
3.2820444 59.587189 21.733225
3.2832756 59.5783 21.40966
10.304123 59.763531 22.889557
10.324359 59.700413 20.400082
10.373785 59.545055 14.28797
10.385421 59.511772 12.935599
9.063879 60.093742 39.374397
8.9560308 60.135853 39.357533
8.7880468 60.085552 39.253887
8.6755047 60.126076 39.240734
8.5589809 60.156155 39.208961
8.424099 60.160866 39.151676
8.2683868 60.129642 39.08205
8.264986 60.094936 38.395199
8.0137691 60.15741 38.983971
7.8417206 60.09219 38.879887
7.7284899 60.119846 38.878761
7.7402186 60.111416 38.218147
7.580904 60.086063 38.804855
7.4608216 60.080879 38.099762
7.3063202 60.043007 38.03418
7.2141223 60.090771 37.391083
7.2391434 60.023731 34.849113
7.0183277 60.049664 38.587978
7.0326815 60.046204 37.93663
7.0664167 60.078419 37.323582
7.0927196 60.097424 36.706635
7.0950918 60.045124 35.422169
6.8874135 60.076736 38.563297
6.8736877 59.99205 37.204582
6.9374261 60.050781 35.998848
6.9444666 60.035221 35.370323
6.9636955 60.042282 34.767147
6.7065158 60.042015 39.147186
6.7548461 60.100441 38.542881
6.750185 60.061451 37.862091
6.7836523 60.09317 37.249962
6.7749572 60.047565 36.581196
6.7661476 60.002178 35.921677
6.8082728 60.050877 35.345612
6.8038259 60.014256 34.708923
6.8155007 60.007622 34.103241
6.8522916 59.96611 31.737871
6.5732603 60.031551 38.428501
6.5948105 60.040932 37.79097
6.5960045 59.983154 36.476467
6.6488953 60.051701 35.910778
6.6708503 60.034565 34.675587
6.6784954 60.020359 34.064693
6.4804449 60.121372 38.454697
6.4416265 60.018147 37.720825
6.4629397 60.027622 37.092445
6.4959588 60.059277 36.489895
6.4908695 60.020271 35.837166
6.5207739 60.04681 35.244869
6.5313463 60.009277 34.010384
6.543221 60.003273 33.413788
6.3008752 60.0266 37.68882
6.3448091 60.07851 37.096439
6.3435144 60.045906 36.441162
6.3498917 60.028095 35.806435
6.3796554 60.054462 35.214573
6.3516698 59.973068 34.545593
6.3940978 60.0238 33.986523
6.4025607 59.983353 32.780209
6.1565328 60.01395 36.996159
6.1853657 60.037811 36.388958
6.1916933 60.019558 35.754871
6.2059083 60.01656 35.140785
6.2166495 60.007374 34.529202
6.2278323 59.999371 33.925762
6.2434711 60.000092 33.335835
6.2518983 59.987576 32.742767
6.2570291 59.969193 32.152206
5.9902081 59.986431 36.921452
6.0451655 60.05994 36.35611
6.0362926 60.012527 35.699226
6.0694928 60.045376 35.114372
6.0455775 59.970245 34.452271
6.0875416 60.020378 33.894356
6.0875297 59.991302 33.282791
6.0919213 59.970921 32.684959
6.0947161 59.919857 31.502617
5.8764539 60.080547 37.590519
5.8787708 60.053421 36.93404
5.9035668 60.06971 36.321686
5.9022489 60.036461 35.676807
5.9162512 60.032879 35.063652
5.9378166 60.014511 33.850506
5.9547305 59.960178 32.063747
5.707417 60.073574 38.187962
5.5513091 60.06424 38.133644
5.4003329 60.072662 38.08807
5.249187 60.085838 38.052608
4.5050764 60.006523 35.286621
4.0210137 59.916847 34.500576
3.8846273 59.864986 32.665482
3.9091358 59.854748 31.521603
3.9206893 59.848679 30.958408
3.9553003 59.890846 30.433928
3.9315271 59.812027 29.833708
3.9607594 59.843609 29.312958
3.9347608 59.760902 28.723831
3.9776289 59.821297 28.231525
3.9953773 59.829865 27.710983
4.0029583 59.817642 27.182652
4.0271673 59.758755 25.112995
4.0460653 59.744808 24.114252
3.7512145 59.816971 30.899422
3.7597125 59.804863 30.339296
3.7653913 59.787186 29.781496
3.7908201 59.782185 28.703024
3.7995594 59.77182 28.166853
3.7980988 59.740463 27.623144
3.8015518 59.719654 27.091436
3.8559537 59.805267 26.627464
3.8275867 59.718704 26.067024
3.8697882 59.779312 25.595964
3.8477685 59.706551 25.054338
3.8659737 59.717686 24.563847
3.8975928 59.756878 24.09194
3.9199982 59.674282 21.644981
3.6297174 59.768726 28.668346
3.6346257 59.750259 28.127874
3.6524975 59.70322 26.543772
3.6737313 59.720131 26.044609
3.6811218 59.708244 25.53331
3.7053845 59.731949 25.046196
3.7157884 59.726845 24.547207
3.7642219 59.646229 21.14426
3.7806437 59.655308 20.682276
3.7950339 59.66032 20.221472
3.5034523 59.721302 26.53046
3.5170264 59.722118 26.022406
3.5320332 59.726204 25.520622
3.5178576 59.668934 24.989355
3.5913694 59.61351 21.111561
3.6236272 59.655888 20.665312
3.6299505 59.644001 20.197697
3.6422482 59.64481 19.73877
3.6444693 59.624676 19.274139
3.6527457 59.617397 18.817961
3.6674464 59.599434 17.912956
3.6739173 59.588844 17.464052
3.3258138 59.732868 27.537964
3.3404117 59.735317 27.022057
3.3509991 59.701366 25.981861
3.3620734 59.697098 25.476252
3.3593564 59.66375 24.959106
3.4081538 59.713028 24.000496
3.4299216 59.627205 21.563084
3.4442415 59.631767 21.097202
3.4684176 59.657337 20.643816
3.4667552 59.62846 20.169388
3.4789662 59.629078 19.711115
3.4851775 59.617195 19.250624
3.4996755 59.598309 18.340773
3.1881328 59.687103 25.948189
3.1953514 59.674515 25.438677
3.2077694 59.673325 24.940022
3.2331235 59.700066 24.46055
3.237221 59.681519 23.960749
3.2928722 59.615536 20.605934
3.3271003 59.637444 19.696436
3.3521471 59.590874 17.874891
3.3504925 59.562843 17.420746
3.0412068 59.682468 25.423241
3.0498307 59.673077 24.920528
3.1044827 59.601555 21.515043
3.1268559 59.597527 20.583275
3.1487696 59.618797 20.132296
3.1608799 59.61919 19.675081
3.1670675 59.607063 19.215654
3.1752536 59.599384 18.761114
3.1854916 59.59626 18.31126
3.193826 59.589218 17.862646
3.1841826 59.543903 17.402672
2.8958011 59.649368 24.396292
2.9186671 59.671387 23.919373
2.9582987 59.57008 20.556885
2.9839585 59.599667 20.110292
2.9920621 59.591461 19.650158
3.0021293 59.587669 19.194954
3.0181668 59.596924 18.747887
3.0164645 59.568069 18.288546
3.0391095 59.567009 17.400406
3.0436506 59.552094 16.954973
3.0592532 59.536732 16.076977
2.7404001 59.680393 24.882092
2.7431705 59.630486 23.875435
2.789417 59.569427 20.999844
2.8152287 59.573368 20.080708
2.8427417 59.607395 19.63917
2.8449624 59.586517 19.177309
2.8373456 59.544437 18.710279
2.8552969 59.558125 18.268559
2.8674724 59.559402 17.824509
2.8778076 59.556828 17.381575
2.8823268 59.541782 16.936722
2.8978491 59.526188 16.059893
2.9089446 59.525814 15.627495
2.9142547 59.513042 15.193335
2.9258871 59.514076 14.765688
2.5246489 59.733349 27.928986
2.5658784 59.706032 25.864462
2.5693464 59.684757 25.352127
2.5778453 59.674885 24.850817
2.5843334 59.632694 23.849558
2.6010339 59.641666 23.370947
2.6638384 59.591095 20.065989
2.6679921 59.574078 19.60334
2.6857207 59.587021 19.156261
2.6781845 59.544739 18.689722
2.6960506 59.558304 18.248497
2.7003188 59.542236 17.798452
2.7145376 59.548107 17.359343
2.7269642 59.55019 16.92123
2.7415755 59.557182 16.487148
2.7464676 59.543076 16.048147
2.7415726 59.507751 15.604768
2.2680337 60.017326 36.612331
2.2850053 59.912445 34.111183
2.2830045 59.873329 33.496204
2.3115547 59.903519 32.940128
2.3272955 59.905205 32.369236
2.3266354 59.870373 31.778811
2.3161941 59.813972 31.180529
2.3407342 59.83659 30.643667
2.3558226 59.838303 30.098059
2.3543611 59.803226 29.533928
2.3607137 59.786041 28.9877
2.3892128 59.818787 28.478722
2.3798828 59.767136 27.921923
2.3821678 59.741825 27.387379
2.4178696 59.791508 26.902805
2.4153514 59.75605 26.372263
2.4067271 59.707291 25.839586
2.4284399 59.726498 25.350365
2.437 59.716625 24.849134
2.4359407 59.685593 24.341024
2.4584854 59.707355 23.865211
2.4566627 59.675137 23.365288
2.4712729 59.679699 22.888229
2.4763107 59.663208 22.404497
2.5420063 59.595078 18.692499
2.5520945 59.591526 18.244621
2.5628095 59.564026 17.349472
2.5752201 59.566059 16.911692
2.1195393 59.93203 34.687687
2.1403947 59.944221 34.104633
2.203088 59.883884 30.648567
2.2147443 59.877892 30.097742
2.248198 59.858513 28.47863
1.9520676 59.944954 35.265331
1.978928 59.970737 34.68615
2.0008571 59.815071 31.125303
2.0522726 59.899624 30.631662
2.1009398 59.790268 26.854797
1.7994261 59.928024 34.621185
1.8459829 60.00005 34.084892
1.8608551 59.862446 31.129927
1.9437374 59.797997 26.835606
1.6263045 59.911537 34.56987
1.6938848 59.859177 31.093258
1.7246003 59.897015 30.568396
1.7764021 59.792618 26.803162
1.4749116 59.938976 34.552475
1.5093567 59.808334 31.023512
1.5663751 59.908138 30.541945
1.6076301 59.778194 26.765062
1.2909082 59.924862 35.102406
1.3201455 59.957176 34.531086
1.3645095 59.848984 31.019958
1.3914534 59.878609 30.490839
1.4217257 59.753628 27.234457
10.412191 59.578568 16.963224
10.903077 59.694073 24.431303
10.896957 59.664314 23.367235
10.864443 59.714905 25.159843
10.866952 59.702118 24.434963
10.869509 59.697273 24.080439
10.874941 59.695625 23.732889
10.866234 59.678795 23.375881
10.871923 59.677601 23.036625
10.863442 59.661194 22.688145
10.898694 59.692059 22.382889
10.879181 59.66391 22.03204
10.892134 59.670856 21.713356
10.879108 59.649872 21.375811
10.887211 59.65173 21.059511
10.887009 59.644711 20.739489
10.821334 59.740597 24.426468
10.655467 59.776325 27.747803
10.657943 59.769627 27.349613
10.681253 59.741199 25.080009
10.707584 59.704079 22.299679
10.716996 59.706448 21.974724
10.722584 59.697147 21.323334
10.724665 59.691845 21.001999
10.730309 59.690456 20.686718
10.628446 59.778336 27.796227
10.635684 59.768433 27.007025
10.647887 59.772961 26.630129
10.640707 59.756607 26.236744
10.635731 59.742764 25.851183
10.655134 59.755413 25.496637
10.64955 59.741131 25.120192
10.663227 59.747784 24.768309
10.657287 59.733326 24.40081
10.665339 59.734085 24.051699
10.659286 59.719707 23.692972
10.667535 59.72086 23.35214
10.673145 59.71925 23.012587
10.676135 59.714901 22.674356
10.676518 59.707821 22.337486
10.662616 59.685429 21.991802
10.693045 59.710888 21.688122
10.67401 59.683128 21.34536
10.682011 59.684566 21.028824
10.687666 59.683548 20.713388
10.609458 59.729053 25.900284
10.617849 59.730503 25.533779
10.612197 59.716888 25.157171
10.614647 59.712116 24.793747
10.636667 59.728539 24.454382
10.627802 59.711742 24.088234
10.638746 59.716385 23.7458
10.635595 59.705921 23.393774
10.64118 59.704952 23.053997
10.644143 59.701233 22.715538
10.644498 59.694782 22.378433
10.642262 59.685623 22.042728
10.643332 59.680092 21.713499
10.635993 59.665588 21.38063
10.643939 59.667587 21.063944
10.649539 59.66713 20.748352
10.591686 59.714493 25.175686
10.588341 59.704113 24.806337
10.593267 59.702721 24.449934
10.601031 59.70446 24.100525
10.600366 59.697208 23.746969
10.602639 59.693192 23.400352
10.602208 59.686344 23.055159
10.625173 59.680126 21.406593
10.545073 59.71875 25.158777
10.486161 59.660404 21.336178
10.505503 59.674953 21.029306
10.498691 59.661499 20.704033
10.408933 59.738613 25.469343
10.402715 59.724369 25.092907
10.421405 59.737072 24.746689
10.420508 59.728748 24.384745
10.433713 59.735706 24.041018
10.410064 59.70306 23.665678
10.412015 59.698071 23.319435
10.411263 59.690254 22.974627
10.436807 59.7108 22.657532
10.419205 59.685017 22.304993
10.422261 59.681526 21.974703
10.434589 59.688068 21.655756
10.432702 59.679401 21.327942
10.434285 59.674534 21.006372
10.427482 59.660725 20.681261
10.323495 59.74255 26.584167
10.32654 59.737778 26.202946
10.337438 59.741589 25.835165
10.334328 59.730381 25.457134
10.34481 59.733936 25.098116
10.324467 59.70435 24.712027
10.357225 59.732105 24.384199
10.342204 59.70845 24.012766
10.346962 59.7062 23.665136
10.35473 59.707272 23.324293
10.365624 59.711792 22.990055
10.356575 59.694927 22.641253
10.368102 59.700275 22.314806
10.353728 59.677853 21.969074
10.360217 59.677933 21.64518
10.364271 59.675468 21.322468
10.365906 59.670471 21.000975
10.365134 59.662956 20.680737
10.307155 59.678165 21.656567
10.305379 59.669403 21.328831
10.301122 59.658047 21.002464
10.306361 59.656956 20.687099
10.16895 59.746891 25.886978
10.155355 59.723999 25.496988
10.160751 59.721706 25.132076
10.152036 59.704304 24.757273
10.1684 59.714031 24.412409
10.165095 59.702656 24.052053
10.175999 59.706676 23.709759
10.178517 59.701756 23.363302
10.178329 59.694008 23.018272
10.17572 59.676376 22.337845
10.079411 59.795624 28.661535
10.079872 59.777126 27.839565
10.093543 59.782627 27.453064
10.093287 59.773186 27.055807
10.095119 59.766129 26.666405
10.093725 59.755711 26.278723
10.100088 59.753788 25.904633
10.097895 59.742744 25.526245
10.125922 59.764423 25.184196
10.106598 59.735111 24.797499
10.117814 59.738853 24.446663
10.131927 59.745811 24.102674
10.126291 59.731579 23.743443
10.129242 59.7267 23.396696
10.140997 59.731384 23.06204
10.127028 59.708473 22.70752
10.13354 59.707691 22.37554
10.143373 59.710564 22.049921
10.133095 59.691891 21.710337
10.137938 59.689556 21.387255
10.140353 59.684689 21.065388
10.146334 59.683723 20.749575
10.01536 59.846268 30.41573
10.014496 59.834717 29.973219
10.009768 59.819141 29.53278
10.016716 59.816402 29.113859
10.025297 59.815582 28.703129
10.019895 59.799751 28.281462
10.032037 59.803078 27.886881
10.040892 59.802975 27.493858
10.04648 59.799465 27.102448
10.054223 59.79842 26.718756
10.05881 59.794083 26.336641
10.054786 59.78056 25.950237
10.058598 59.775623 25.577341
10.059382 59.76754 25.206026
10.05716 59.756321 24.836346
10.080044 59.772305 24.496489
10.077689 59.761154 24.135408
10.078137 59.753136 23.781439
10.081509 59.748363 23.434402
10.082166 59.740768 23.088787
10.097485 59.74905 22.760424
10.092859 59.735947 22.417553
10.103121 59.738956 22.091568
10.105041 59.73307 21.761677
10.09854 59.71822 21.428146
10.09543 59.707096 21.101015
10.101791 59.70623 20.784903
9.9508295 59.882259 31.824486
9.9474163 59.867161 31.355333
9.9598446 59.869488 30.915352
9.9482498 59.845871 30.450518
9.9681406 59.856647 30.034271
9.9793568 59.858158 29.613029
9.9714603 59.839081 29.174114
9.9805756 59.838623 28.762989
9.980958 59.828846 28.347242
9.9883699 59.826839 27.945932
10.003063 59.832855 27.558704
10.003837 59.823929 27.160688
10.006682 59.817379 26.770527
10.000858 59.801586 26.376087
10.013641 59.806038 26.007225
10.028957 59.813343 25.645603
10.024752 59.799671 25.267942
10.028625 59.794838 24.903463
10.029572 59.786964 24.540514
10.027617 59.776062 24.17914
10.028457 59.768288 23.824877
10.043649 59.776081 23.488382
10.044753 59.768787 23.142324
10.043157 59.758682 22.797724
10.038875 59.745781 22.454622
9.9131498 59.916164 32.37682
9.9146004 59.906055 31.90497
9.9019117 59.88076 31.421698
9.9298954 59.899902 31.001549
9.9290686 59.887882 30.549454
9.9344339 59.882771 30.11269
9.9411306 59.879276 29.684391
9.9441376 59.871933 29.257944
9.9538851 59.872063 28.846224
9.9548979 59.862873 28.429869
9.9682121 59.867161 28.034224
9.9516249 59.839203 27.609104
9.9581766 59.836449 27.216944
9.9560757 59.824467 26.82037
9.9723969 59.832546 26.449623
9.9857225 59.837498 26.080214
9.985055 59.827442 25.700474
9.9923658 59.82613 25.334017
9.9855766 59.809708 24.957611
9.8591499 60.00523 36.557007
9.8572521 59.976528 35.463676
9.8866739 59.983013 34.459763
9.8931379 59.929913 32.005295
9.8861151 59.91087 31.528162
9.8948116 59.909111 31.080366
9.909668 59.914215 30.647844
9.9157028 59.909904 30.210428
9.9281845 59.912754 29.788021
9.9215622 59.895042 29.347878
9.9215107 59.884624 28.922731
9.923048 59.876083 28.505898
9.9263124 59.86956 28.097231
9.9473972 59.882469 27.715221
9.9439278 59.868935 27.309954
9.9424391 59.857689 26.912676
9.9484959 59.854729 26.529242
9.8300991 60.006226 36.670792
9.8278875 59.990765 36.114895
9.8204508 59.969868 35.561619
9.8310938 59.968933 35.04731
9.8511105 59.978436 34.556767
9.8640518 59.923138 31.635717
9.878397 59.92783 31.194036
9.8838577 59.923046 30.747442
9.8904896 59.919704 30.309437
9.9035568 59.923496 29.88645
9.9078436 59.917927 29.458668
9.8876514 59.886013 29.007074
9.9053974 59.895317 28.608835
9.9092655 59.889744 28.199486
9.9149895 59.886318 27.798155
9.9119968 59.873608 27.392387
9.9163713 59.868984 27.000696
9.8125944 59.997944 36.257404
9.8060398 59.978584 35.703323
9.812891 59.974052 35.180977
9.8614187 59.938274 31.314938
9.8524675 59.918354 30.847525
9.8545885 59.910591 30.402363
9.8732891 59.920921 29.9855
9.8729725 59.910828 29.55068
9.8688917 59.896816 29.11787
9.8767776 59.895882 28.706245
9.8864546 59.897015 28.302652
9.8821173 59.883148 27.888237
9.884964 59.877171 27.488132
9.8164415 60.047337 36.954838
9.8114004 60.029758 36.389874
9.7853661 59.977997 35.268143
9.7972946 59.979568 34.762024
9.823555 59.996895 34.286621
9.8242617 59.924683 30.923445
9.8369493 59.928665 30.491108
9.8561382 59.939816 30.073675
9.8001175 60.111534 37.046207
9.786705 60.084446 36.465767
9.7079353 59.986511 35.792973
9.7294292 59.99794 35.291962
9.7416725 59.999516 34.785667
9.7682371 60.016853 34.310089
9.7840061 59.948692 30.513083
9.6234293 60.013397 35.762615
9.6683559 60.049393 35.298054
9.6669674 60.035114 34.769966
9.5072575 59.99876 35.659046
9.5890083 60.074154 35.253189
9.4159498 59.977154 35.59716
9.5020456 60.057083 35.19894
9.4239292 59.879276 31.609482
9.4608889 60.040352 35.225441
9.4780226 60.045586 34.726593
9.4570227 60.036888 35.316517
9.4650011 60.033081 34.802719
9.4735212 59.869366 27.519836
9.3999338 60.003513 35.323273
9.4265261 60.0205 34.838367
9.4032345 59.830574 27.51519
9.3445301 60.008827 35.316902
9.3522997 60.005306 34.803158
9.3257093 59.811039 27.484171
9.2716036 60.017773 35.266171
9.2885809 60.023743 34.767078
9.2819643 59.843525 27.47504
9.1865778 60.024105 35.209377
9.2268715 60.054859 34.746567
9.1997232 59.84341 27.430082
9.1241407 60.036213 35.202747
9.1410484 60.041153 34.703953
9.1333237 59.845898 27.417383
9.073431 60.029072 35.216866
9.095088 60.039314 34.725208
9.0834084 59.841736 27.430347
9.0280447 60.020123 35.26786
9.0452957 60.025841 34.768772
9.0157881 59.813263 27.445972
8.94981 59.995892 35.282177
8.9532118 59.986523 34.761539
8.9624252 59.815578 27.485971
8.8440695 59.977104 35.22987
8.8615179 59.982422 34.731281
8.8721905 59.804363 27.45997
8.7551327 59.993984 35.1819
8.7866621 60.013817 34.705162
8.7942438 59.819889 27.428963
8.6785135 60.013309 35.152164
8.7241669 60.047909 34.697136
8.7429571 59.968388 31.294695
8.7348261 59.846962 27.420109
8.6333313 60.041977 35.193256
8.6513052 60.045982 34.69474
8.648181 59.825764 27.40029
8.5672703 60.026108 35.221378
8.5901413 60.035603 34.730015
8.5748529 59.804169 27.414839
8.5127802 60.011093 35.269112
8.5359383 60.021191 34.77758
8.5248928 59.798676 27.459082
8.4901667 60.046753 35.359413
8.4999571 60.042187 34.845654
8.5256472 59.957504 30.977026
8.4486122 59.775524 27.464182
8.5408697 59.756626 23.449747
8.3872786 59.782909 27.067617
8.4119501 59.797878 26.702215
8.4118872 59.786255 26.314085
8.3866625 59.747616 25.904116
8.3944654 59.680344 23.368885
8.3165178 59.672096 22.98802
8.326438 59.672134 22.655224
8.3629436 59.700867 22.349501
8.3444767 59.670597 21.998421
8.346796 59.662788 21.669319
8.2195425 59.644283 22.932329
8.2292519 59.643768 22.600052
8.2480631 59.65316 22.279329
8.2586002 59.653751 21.954477
8.2607803 59.645466 21.625761
8.1650534 59.630119 22.255552
8.1696396 59.624191 21.925913
8.183486 59.628334 21.607603
6.5470629 59.70076 25.416605
6.5482011 59.68956 25.046286
6.5463166 59.675262 24.677618
6.5583448 59.676098 24.327448
6.5675969 59.674084 23.97859
6.5740886 59.669235 23.631086
6.5835786 59.667744 23.290359
6.578856 59.651112 22.940313
6.5713553 59.631638 22.591896
6.5903015 59.640675 22.270937
6.5715876 59.609432 21.920446
6.5855165 59.613319 21.601906
6.5970535 59.614742 21.284403
6.4392977 59.944489 34.058689
6.4387026 59.926857 33.551292
6.4478641 59.9202 33.067364
6.4526329 59.909027 32.58556
6.4432368 59.882687 32.092182
6.4772282 59.843227 29.855097
6.478394 59.829929 29.421577
6.4913378 59.829636 29.00938
6.4766974 59.745247 26.944277
6.4794593 59.735119 26.555407
6.4844332 59.727562 26.174229
6.5192218 59.752357 25.830008
6.5236602 59.744534 25.457567
6.525054 59.733589 25.086727
6.5402308 59.737656 24.73455
6.5413356 59.726704 24.372442
6.5338478 59.706654 24.006405
6.5462203 59.708122 23.663969
6.5444312 59.694496 23.312023
6.551394 59.690411 22.972273
6.5557094 59.683609 22.633854
6.545712 59.661575 22.286489
6.5564609 59.661926 21.961168
6.5647378 59.65974 21.636997
6.5705562 59.655025 21.314013
6.3733811 59.972366 34.106453
6.4067063 59.991695 33.648273
6.4023051 59.970047 33.142509
6.4029479 59.95422 32.653145
6.4187074 59.955177 32.193676
6.3461361 59.829071 30.699486
6.3600616 59.829102 30.269096
6.4161654 59.875206 29.899622
6.4384141 59.884682 29.491747
6.4312787 59.862457 29.05316
6.4464135 59.864624 28.648642
6.4423323 59.846157 28.226807
6.3921881 59.751007 26.955585
6.4168944 59.764511 26.59079
6.4277449 59.763191 26.215246
6.4678574 59.780899 25.497812
6.4696989 59.770325 25.126566
6.4685111 59.756645 24.756964
6.4755821 59.752018 24.400261
6.49681 59.762775 24.061605
6.4868898 59.740147 23.696707
6.4625397 59.702152 23.322865
6.4812918 59.710651 22.993692
6.4975281 59.716557 22.66555
6.4937491 59.701088 22.322985
6.4931569 59.689171 21.987066
6.5194683 59.706226 21.67766
6.5197773 59.695503 21.349232
6.3236213 59.978474 34.165634
6.3525805 59.993153 33.700089
6.3437467 59.966793 33.187035
6.3641009 59.972622 32.725327
6.3705568 59.963539 32.251625
6.2983308 59.823177 30.305716
6.4005523 59.919521 29.995367
6.3925633 59.89624 29.54771
6.4117322 59.888515 28.716684
6.3975725 59.859222 28.281738
6.4061055 59.854736 27.880333
6.3629265 59.755093 26.244524
6.4387774 59.799107 25.190184
6.4435811 59.791969 24.825752
6.4518099 59.76479 23.752821
6.4278131 59.727264 23.378502
6.4411254 59.729996 23.043583
6.457655 59.736301 22.71508
6.4425058 59.708717 22.36179
6.4597435 59.716019 22.040924
6.3052998 59.984318 34.220207
6.3411508 59.975204 32.771801
6.2663007 59.83334 30.788044
6.2754941 59.828888 30.350489
6.3675895 59.914631 30.026693
6.4056382 59.742264 23.416891
6.4189858 59.745449 23.081598
6.2924328 59.976433 34.251125
6.330709 60.002815 33.799133
6.3467484 59.990433 32.829792
6.248333 59.84082 31.27029
6.2701707 59.837261 30.392553
6.3915133 59.755516 23.445837
6.2537179 59.956371 34.265694
6.3315048 59.91872 30.09543
6.3472285 59.746178 23.458385
6.2007775 59.967762 34.282623
6.2065682 59.747051 26.315607
6.2852287 59.7481 23.460991
6.2924609 59.745968 23.119917
6.2912312 59.734882 22.774906
6.2924318 59.716961 22.099644
6.1048965 59.981842 34.240372
6.0566158 59.814404 30.349091
6.144506 59.697109 23.382883
6.1919103 59.737564 23.079948
6.0361114 60.028824 34.21246
5.9448895 59.8218 30.71207
5.9584789 59.822277 30.281601
6.0384297 59.68396 23.317724
6.1075258 59.736267 22.69212
5.9100528 59.849178 30.25243
5.981277 59.697693 23.283278
5.8606434 59.845051 30.232189
5.9145379 59.680893 23.253477
5.8025017 59.824116 30.231915
5.8701525 59.6828 23.270445
5.928391 59.734852 22.978643
5.9381022 59.734859 22.645014
5.7410717 59.811401 30.244457
5.826086 59.692833 23.299046
5.8844194 59.745167 23.007057
5.7400017 59.674049 23.291098
5.8081236 59.726604 22.665728
5.8095345 59.717957 22.328159
5.6070204 59.822243 30.244152
5.6476102 59.6534 23.255732
5.7288036 59.730286 22.985563
5.7269464 59.717949 22.641544
5.7282352 59.709106 22.304201
5.7445221 59.716476 21.983517
5.5315595 59.821682 30.182852
5.6173081 59.698746 23.249184
5.6234446 59.694771 22.909733
5.6385555 59.700562 22.582067
5.6453362 59.697498 22.250328
5.4488158 59.829517 30.118271
5.5466895 59.713177 23.207096
5.5584469 59.714931 22.873087
5.5502162 59.695271 22.524624
5.5801048 59.716774 22.213823
5.3149943 59.92725 34.292667
5.4039783 59.883232 30.121862
5.4649034 59.718414 23.168318
5.4592705 59.701015 22.81868
5.4798961 59.71207 22.496725
5.4747505 59.69545 22.155176
5.2588029 59.947945 34.276505
5.3471308 59.901417 30.105717
5.3782763 59.701405 23.125505
5.407053 59.72102 22.807917
5.4044399 59.70686 22.465065
5.3933082 59.683643 22.11862
5.2157755 59.947659 34.265087
5.2707891 59.868385 30.054611
5.339035 59.714775 23.124683
5.3503323 59.715801 22.791105
5.364871 59.72044 22.46393
5.3535676 59.697319 22.11734
5.2608466 59.900784 30.094448
5.2656798 59.686226 23.096815
5.2881598 59.699711 22.774073
5.2733526 59.673092 22.421043
5.2966313 59.687649 22.105721
5.1794047 59.6562 23.06871
5.1843152 59.650875 22.730516
5.1924114 59.649097 22.398874
5.1979637 59.644688 22.068478
5.0875654 59.626461 22.704473
5.1360517 59.657635 22.073925
5.1391711 59.650585 21.744738
