# .PCD v0.7 - Point Cloud Data file format
VERSION 0.7
FIELDS x y z
SIZE 4 4 4
TYPE F F F
COUNT 1 1 1
WIDTH 1612
HEIGHT 1
VIEWPOINT 0 0 0 1 0 0 0
POINTS 1612
DATA ascii
28.402674 51.563229 15.983625
28.513399 51.574287 18.171061
28.481833 51.574913 17.883928
28.440102 51.569122 17.593624
28.38814 51.556843 17.300411
28.379251 51.570644 17.035967
28.329796 51.559441 16.75042
28.277769 51.546425 16.466629
28.261757 51.555286 16.205889
28.228024 51.553085 15.937832
28.184185 51.544468 15.667057
28.460339 51.601639 18.744457
28.426559 51.601177 18.449907
28.375105 51.58968 18.147316
28.328365 51.580795 17.851339
28.286461 51.574619 17.561787
28.249512 51.571243 17.278461
28.217628 51.570755 17.001162
28.190926 51.573246 16.729689
28.115797 51.545708 16.433502
28.099571 51.554234 16.173616
28.385012 51.604885 19.317968
28.295689 51.591198 18.705704
28.261639 51.590439 18.412048
28.224897 51.587791 18.119949
28.17798 51.578655 17.824715
28.128355 51.567596 17.531261
28.09119 51.563961 17.248768
28.059093 51.563221 16.972307
28.02454 51.56076 16.697264
27.932764 51.541168 16.143028
28.251707 51.60355 19.29986
28.013693 51.558701 17.790644
27.926296 51.543732 17.216513
27.89389 51.542873 16.940977
27.843792 51.530838 16.658012
27.837069 51.545486 16.402878
27.789761 51.534752 16.127266
26.037975 51.23159 4.6703458
27.582121 51.506069 15.82858
26.593491 51.735973 24.161692
26.601719 51.769695 25.246502
22.891262 51.012104 2.4738457
21.327013 51.225597 9.7588539
21.64403 51.449593 19.151171
19.246939 51.192581 10.940243
19.26132 51.22192 11.864768
19.255398 51.229904 11.682384
19.255245 51.250648 12.625866
19.262106 51.269276 12.444694
19.248543 51.269051 13.596767
19.248171 51.282154 13.405241
19.246355 51.293995 13.214211
19.172148 51.284306 13.782233
19.077217 51.291023 13.768397
19.241594 51.344429 16.165092
19.240049 51.358021 15.950922
19.229977 51.364601 15.7326
19.14978 51.314419 15.46738
18.976526 51.285015 13.76023
19.237295 51.371548 16.88843
19.214706 51.368774 16.65085
19.216928 51.385792 16.434839
19.203936 51.390404 16.209454
19.182318 51.387886 15.980105
19.165596 51.389153 15.756771
18.885202 51.287636 13.766902
18.39695 51.180099 9.3156614
18.372889 51.171417 9.1446762
19.218683 51.390038 17.62748
19.222052 51.408665 17.402575
19.216965 51.420338 17.173042
19.203339 51.424957 16.939131
19.127794 51.379421 16.659748
19.143444 51.407288 16.454081
19.096958 51.384766 16.2036
18.764267 51.269375 13.756741
18.266737 51.163147 9.1528187
19.147478 51.399868 17.874641
18.97621 51.339695 16.613684
18.208986 51.172726 9.4987783
18.186232 51.164982 9.3279009
18.169754 51.162472 9.1598434
19.045719 51.404697 17.868036
18.907856 51.370655 16.634323
18.108896 51.172432 9.5046225
18.08621 51.164604 9.3340702
18.084711 51.174648 9.1705723
18.111973 51.209045 9.0154047
19.188503 51.474464 20.040327
18.922016 51.393322 17.847994
18.803967 51.374207 16.632286
18.022093 51.172302 9.6820307
17.993273 51.159157 9.5088968
17.98554 51.163834 9.3432474
17.961781 51.154839 9.1737251
17.989044 51.189182 9.0191803
19.186968 51.529308 20.670687
18.796049 51.380989 17.833559
18.840183 51.432503 17.642166
18.785149 51.403027 17.369368
18.78006 51.414089 17.141294
18.678261 51.360687 16.620283
17.89909 51.152443 9.6887426
17.885218 51.151775 9.5207691
17.862761 51.143734 9.3511038
19.074789 51.512573 20.94137
18.698847 51.391228 17.850357
18.73015 51.432213 17.64819
18.582317 51.370754 16.637661
18.589109 51.386585 17.859568
18.460375 51.355087 16.637753
18.631922 51.488377 20.730078
18.527994 51.481453 20.778837
18.08087 51.371189 17.792934
15.480881 51.027332 3.2041285
15.471055 51.023552 3.055943
15.467525 51.025616 2.906307
15.463012 51.026779 2.7565141
15.574656 51.069981 6.7716269
15.573284 51.073593 6.6227736
15.563607 51.069565 6.4733601
15.475204 51.05587 4.4030061
15.458667 51.045425 4.2563524
15.455834 51.047661 4.1084504
15.452046 51.049015 3.9604714
15.439997 51.042725 3.8133552
15.420363 51.034283 3.5183911
15.563101 51.093731 8.4495707
15.558228 51.093784 8.2959423
15.559617 51.099567 8.144207
15.552732 51.097748 7.9910936
15.552133 51.101685 7.839726
15.543251 51.098003 7.6871772
15.547979 51.106815 7.5374789
15.537119 51.101288 7.3854561
15.539901 51.108295 7.2359619
15.541718 51.11441 7.0865002
15.527919 51.106144 6.9352694
15.527802 51.110462 6.7860813
15.519389 51.107136 6.6362281
15.517349 51.109669 6.4872737
15.402017 51.068962 4.2675128
15.357832 51.050011 3.5301597
15.534751 51.148022 8.7775068
15.525013 51.143158 8.6210308
15.521474 51.143982 8.4667692
15.531423 51.157207 8.3161669
15.525872 51.156155 8.1623077
15.519311 51.15416 8.0087547
15.519021 51.157928 7.8569493
15.452165 51.100338 7.6932092
15.479012 51.129089 7.5475388
15.504934 51.156998 7.4013577
15.513326 51.153702 11.532703
15.515505 51.159676 11.366864
15.373345 51.114906 7.7054663
15.378563 51.123314 7.5561113
15.188481 51.04216 3.5598915
15.166827 51.02906 3.2661154
15.50643 51.207794 13.153609
15.513399 51.218037 12.97937
15.512342 51.220886 12.801554
15.487702 51.209526 12.26409
15.294503 51.12759 7.7276602
15.256355 51.095467 7.570755
15.11385 51.033051 4.3225446
15.527611 51.268387 15.739044
15.445419 51.235054 13.566038
15.400371 51.218376 12.297488
15.220901 51.12043 8.826067
15.226346 51.128555 8.6744471
15.223592 51.129063 8.5211115
15.21261 51.121922 8.3663301
15.207831 51.120525 8.2136478
15.216526 51.131638 8.0643721
15.195272 51.114914 7.909204
15.165736 51.090477 7.7533298
15.149688 51.07856 7.6008987
15.14718 51.07922 7.4514046
15.158257 51.092514 7.3043394
15.139265 51.077827 7.1529994
15.126576 51.068996 7.0031667
15.120212 51.066036 6.8545923
15.120187 51.068977 6.7070265
15.111917 51.064236 6.5588512
15.102695 51.058601 6.4109364
14.976346 51.014393 2.7419922
15.490238 51.31506 16.658463
15.510362 51.337498 16.464113
15.522738 51.352776 16.264795
15.514735 51.349262 16.050287
15.517582 51.355698 15.847066
15.378197 51.266617 13.619764
15.090253 51.091721 8.54673
15.079539 51.084576 8.3926067
15.083957 51.094322 8.0920429
15.077466 51.09108 7.9404793
15.069985 51.086906 7.7892408
15.068769 51.088566 7.6396527
15.073843 51.096081 7.4914675
15.063435 51.089153 7.3410168
15.073864 51.101658 7.1940989
15.068802 51.099705 7.0451126
15.070063 51.103649 6.8972282
15.055802 51.093098 6.7478199
15.069742 51.108875 6.6016531
15.046282 51.089718 6.4521298
14.954926 51.042591 4.4010921
14.939353 51.030735 4.2559357
14.944682 51.038475 4.1087112
14.923441 51.024048 3.8173294
14.940444 51.042751 3.6676657
14.920447 51.03228 3.2270291
14.911894 51.027023 3.0801215
14.876435 51.007675 2.3404381
15.403502 51.339455 16.697071
15.025613 51.11517 8.8866367
15.017285 51.109951 8.731699
15.022294 51.117172 8.5808859
15.033515 51.130192 8.4319334
15.014958 51.115395 8.276228
15.038649 51.140053 8.1306925
15.046971 51.150356 7.9817743
14.973867 51.087036 7.6679339
15.015466 51.128429 7.5262318
15.051322 51.185661 12.165893
15.038131 51.17572 11.98875
14.908777 51.09721 8.8961325
14.871973 51.081627 7.5353403
14.765671 51.026764 4.313334
14.786154 51.048096 4.1651487
14.736973 51.014095 3.2905517
14.980017 51.215412 13.601224
14.789728 51.098381 7.551333
14.856304 51.214947 13.602308
14.679138 51.086346 7.5675116
14.772891 51.245865 13.637715
14.577789 51.078968 7.7410159
14.577259 51.078926 7.5930586
14.292625 51.066044 7.8384199
14.284181 51.056129 7.3962574
14.288836 51.058727 6.9591208
11.6116 51.04784 5.8646331
11.611041 51.03886 5.586309
23.373999 52.018311 38.831833
20.11681 51.802876 31.17664
20.120626 51.7523 29.471672
20.14665 51.742153 28.382166
19.994881 51.820705 32.295967
20.00173 51.808731 31.714422
20.009968 51.798309 31.140408
19.976463 51.747646 30.538103
20.025576 51.759373 29.447126
20.044935 51.742977 28.353741
20.025955 51.70734 27.793619
19.903278 51.84903 32.860218
19.890505 51.817799 32.255405
19.884888 51.793751 31.663967
19.911219 51.800968 31.106205
19.926929 51.798042 30.545179
19.901237 51.737316 29.394726
19.771124 51.918205 35.858791
19.811865 51.823109 31.645418
19.825802 51.818298 31.077539
19.810505 51.785202 30.491419
19.808517 51.712418 28.257084
19.701088 51.909859 34.590851
19.67359 51.825146 32.74741
19.67227 51.805054 32.154709
19.666056 51.780396 31.564604
19.686232 51.727779 29.305716
19.700291 51.723877 28.762581
19.551167 51.784012 32.097191
19.562857 51.776897 31.52363
19.609215 51.785755 30.413816
19.594879 51.753735 29.836645
19.602125 51.72541 28.729483
19.446995 51.814377 33.243679
19.431992 51.780624 32.633667
19.471703 51.782345 31.496063
19.454155 51.746754 30.904495
19.493134 51.766869 30.36677
19.472363 51.728519 29.785328
19.508904 51.746578 29.256205
19.503939 51.72411 28.699303
19.402309 51.899292 34.472382
19.362095 51.840183 33.82349
19.406424 51.808594 31.491243
19.394966 51.779011 30.904989
19.409367 51.775085 30.34696
19.413157 51.76091 29.785971
19.251333 51.777618 32.573574
19.302214 51.790985 31.448378
19.320913 51.791286 30.888647
19.310648 51.763203 30.31053
19.283365 51.718548 29.725031
19.307003 51.724281 29.18708
19.180798 51.869179 34.977684
19.160757 51.773304 32.537704
19.180811 51.756496 31.387312
19.205154 51.762543 30.833647
19.206757 51.746284 30.266542
19.222256 51.74395 29.716869
19.209194 51.696297 28.599176
19.09417 51.760635 31.356569
19.075773 51.724346 30.767149
19.119759 51.750088 30.236696
19.104359 51.717163 29.662367
19.084307 51.679836 29.090776
19.103094 51.681141 28.556082
18.978399 51.814613 33.657841
19.038122 51.817616 31.931971
18.982342 51.743736 31.303219
19.007383 51.732471 30.184843
19.02857 51.735722 29.641399
18.996151 51.68594 29.060221
19.010612 51.66563 27.979174
18.937035 51.825714 32.473
18.910156 51.780205 31.862988
18.926022 51.759285 30.725071
18.915678 51.695374 29.035677
19.007225 51.586655 22.845713
18.793385 51.819344 34.186096
18.817003 51.804665 33.003559
18.800705 51.769535 32.39698
18.827257 51.777481 31.835957
18.801163 51.733009 31.234838
18.812475 51.726124 30.673065
18.83757 51.733185 30.12875
18.831699 51.674488 28.46287
18.748844 51.844242 34.197113
18.730774 51.807014 33.574192
18.778391 51.835903 33.020042
18.726486 51.765232 32.380997
18.740894 51.76125 31.809698
18.756718 51.758884 31.245829
18.761988 51.746143 30.678879
18.758915 51.707634 29.551979
18.647127 51.871449 36.00988
18.648163 51.833412 34.76247
18.669975 51.836178 34.171055
18.693186 51.821831 32.98938
18.694569 51.80471 32.399414
18.685143 51.776962 31.806669
18.700895 51.774685 31.242947
18.67589 51.731739 30.650263
18.776819 51.615925 23.804667
18.590439 51.95388 37.929897
18.592867 51.935837 37.278782
18.561304 51.883732 36.601089
18.598131 51.900978 36.002918
18.607016 51.890247 35.383667
18.587543 51.851162 34.744274
18.591759 51.836216 34.136227
18.655418 51.881374 33.591782
18.649942 51.857101 32.988251
18.633537 51.822056 32.382092
18.635973 51.80619 31.800217
18.507605 51.954174 37.882961
18.554907 51.981419 37.280109
18.568867 51.975132 36.649559
18.560369 51.946369 36.004108
18.55785 51.923931 35.373272
18.544209 51.890507 34.739643
18.478563 51.925934 35.337852
17.752464 51.911198 38.15163
17.721022 51.936237 38.134518
17.340973 51.09161 5.0689745
17.261354 51.083363 5.4706106
17.207844 51.087067 5.4722457
17.161955 51.09721 5.4765916
17.09903 51.077221 5.0817046
16.984602 51.082275 5.4853845
17.009558 51.095478 5.0882792
16.96142 51.112816 5.4840083
16.904568 51.106453 5.4802032
16.901701 51.090984 5.0808339
16.847925 51.099792 5.4788637
16.851982 51.091507 5.0804734
16.805071 51.107128 5.4808416
16.662817 51.428085 18.894962
16.669922 51.36607 16.662697
16.755674 51.107197 5.4802213
16.602911 51.416584 18.874283
16.671816 51.433235 17.114794
16.615931 51.360931 16.647108
16.62933 51.361362 16.214523
16.659727 51.379669 15.791453
16.634314 51.339584 15.346644
16.678801 51.079155 5.4717078
16.562113 51.425606 18.863705
16.577185 51.427425 18.419247
16.576239 51.412491 17.969307
16.572227 51.394424 17.520803
16.552061 51.359482 17.067562
16.5748 51.369686 16.637356
16.555161 51.33548 16.190224
16.572159 51.339802 15.762017
16.599619 51.355152 15.340168
16.591122 51.332867 14.905371
16.608307 51.271976 12.368517
16.643274 51.094139 5.4672952
16.488411 51.400272 18.837776
16.52924 51.429295 18.407316
16.534714 51.421158 17.960896
16.491467 51.361843 17.49341
16.523521 51.381851 17.065701
16.519945 51.364456 16.62339
16.513397 51.344021 16.182478
16.536928 51.35527 15.757296
16.570953 51.37759 15.338304
16.569084 51.362282 14.906197
16.584351 51.365021 14.483129
16.571133 51.298702 12.782831
16.586218 51.301537 12.368833
16.591927 51.294598 11.953324
16.594994 51.28495 11.538609
16.586405 51.088032 5.4625506
16.454885 51.431686 19.287539
16.461725 51.410954 18.384987
16.441025 51.375294 17.925966
16.443239 51.363888 17.481646
16.481722 51.390766 17.057289
16.484642 51.380257 16.618172
16.471466 51.352882 16.174398
16.468502 51.336338 15.737948
16.502361 51.358597 15.319456
16.506994 51.350182 14.890543
16.49551 51.324894 14.457468
16.521202 51.33873 14.040952
16.535366 51.314499 12.778361
16.530191 51.296154 12.357897
16.549932 51.103878 5.4596243
16.385269 51.398277 18.809708
16.374029 51.372505 18.352972
16.418119 51.405251 17.927425
16.400785 51.373226 17.47345
16.413033 51.372505 17.036827
16.428938 51.375717 16.604256
16.415684 51.348259 16.160818
16.419233 51.338596 15.727559
16.433153 51.339928 15.300993
16.437666 51.331417 14.872583
16.45933 51.341019 14.453045
16.464972 51.333817 14.029046
16.454502 51.309734 13.60113
16.466936 51.283955 12.345165
16.485956 51.291084 11.934617
16.464926 51.069389 5.4520717
16.342291 51.407913 18.80183
16.337479 51.388947 18.348616
16.362028 51.401115 17.91333
16.338102 51.362125 17.456493
16.343695 51.354424 17.017178
16.37257 51.371387 16.591152
16.365814 51.350796 16.15099
16.375889 51.348045 15.720839
16.396366 51.356335 15.297214
16.380964 51.326855 14.860817
16.389244 51.322411 14.436402
16.408098 51.329166 14.017952
16.415098 51.297577 12.755125
16.435463 51.293301 11.927317
16.413864 51.071327 5.4489107
16.260893 51.376633 18.773159
16.275288 51.378067 18.330666
16.273737 51.362698 17.8827
16.301689 51.378647 17.452129
16.313763 51.377857 17.016003
16.290203 51.339455 16.565781
16.309549 51.346512 16.138048
16.326105 51.350681 15.711087
16.346487 51.358952 15.287713
16.331024 51.32943 14.851568
16.345863 51.33197 14.43001
16.351334 51.324684 14.006685
16.354067 51.314571 13.584318
16.367453 51.31575 13.167651
16.364779 51.300049 12.74714
16.352682 51.274487 12.325514
16.349598 51.072208 5.8406515
16.355722 51.066452 5.4448533
16.213207 51.396542 19.213858
16.217669 51.387398 18.763456
16.219065 51.375088 18.314417
16.24334 51.387135 17.879869
16.25174 51.382416 17.439728
16.250675 51.367748 16.997635
16.240103 51.343094 16.553879
16.246229 51.336208 16.120512
16.269239 51.347267 15.696826
16.249914 51.313591 15.257144
16.280588 51.332878 14.840666
16.282074 51.321354 14.414149
16.300739 51.328049 13.996286
16.290066 51.303802 13.569301
16.296661 51.297859 13.150704
16.307274 51.296215 12.735237
16.313866 51.27763 11.904425
16.156403 51.394878 19.19627
16.141466 51.365097 18.735889
16.14916 51.359478 18.290779
16.179762 51.378277 17.859997
16.181549 51.366543 17.417078
16.18688 51.35865 16.978588
16.202366 51.36161 16.547342
16.188791 51.33382 16.10524
16.224855 51.358742 15.687599
16.205507 51.324986 15.248088
16.229504 51.337234 14.829086
16.224306 51.318615 14.400218
16.242884 51.325237 13.982692
16.25214 51.322041 13.563354
16.258709 51.316063 13.144842
16.262402 51.281521 11.894627
16.265064 51.271626 11.481788
16.085703 51.379539 19.173922
16.096397 51.376972 18.727776
16.104078 51.371281 18.282831
16.108759 51.362484 17.839127
16.110456 51.350594 17.396706
16.135233 51.363331 16.968031
16.144148 51.359272 16.534012
16.143648 51.345284 16.098124
16.146826 51.335278 15.666368
16.160343 51.336323 15.241307
16.157894 51.320484 14.81172
16.165876 51.315781 14.388567
16.177767 51.315285 13.968859
16.173653 51.297882 13.545073
16.186811 51.29884 13.129505
16.205221 51.292534 12.30049
16.213139 51.275322 11.47453
16.193316 51.067841 5.4301643
16.040081 51.391392 19.16659
16.057177 51.395618 18.724045
16.026194 51.348663 18.25906
16.050152 51.360382 17.825747
16.051796 51.3484 17.383657
16.069996 51.35413 16.952209
16.078836 51.349964 16.518604
16.078272 51.335865 16.083134
16.10108 51.346706 15.660366
16.094831 51.32671 15.227156
16.105528 51.324795 14.803366
16.1201 51.327065 14.383069
16.118708 51.312435 13.95849
16.114565 51.294949 13.535043
16.134346 51.302917 13.122167
16.131479 51.286907 12.703018
16.15271 51.296509 12.293662
16.151249 51.282097 11.878444
16.140425 51.25782 11.462185
16.14716 51.252197 11.052875
15.963122 51.380749 19.595726
15.967986 51.357914 18.693115
15.962586 51.338272 18.242283
16.005795 51.370621 17.819195
15.994431 51.344784 17.370892
16.019032 51.357407 16.942881
16.014759 51.339306 16.503479
16.020634 51.332104 16.071365
16.036785 51.335922 15.646073
16.037024 51.322857 15.216054
16.021255 51.292828 14.781845
16.048899 51.309071 14.367431
16.060661 51.308464 13.948398
16.076385 51.31213 13.532594
16.056168 51.277645 13.105697
16.093246 51.304108 12.700737
16.099554 51.28508 11.872142
16.075258 51.246521 11.452118
16.102112 51.262283 11.049009
16.101076 51.235867 10.231099
16.106869 51.229412 9.825902
15.924573 51.365906 18.689756
15.919139 51.346275 18.239086
15.942909 51.357964 17.806351
15.950882 51.35284 17.368025
15.955938 51.344677 16.930861
15.932029 51.305664 16.482801
15.970424 51.333252 16.066053
15.973401 51.323101 15.6353
15.986697 51.324024 15.211244
15.997251 51.322083 14.78804
15.991858 51.303211 14.360518
15.996925 51.295551 13.939301
16.019199 51.306278 13.526356
16.03887 51.314274 13.113904
16.029261 51.291164 12.69291
16.030313 51.279453 12.277521
16.037937 51.262066 11.453607
16.044582 51.256454 11.044808
16.04867 51.248165 10.636707
16.023745 51.061123 5.4254808
15.876146 51.383808 19.135447
15.868279 51.347721 18.233063
15.885536 51.352509 17.797302
15.874028 51.326584 17.349737
15.885448 51.325287 16.916258
15.89401 51.321003 16.483816
15.899726 51.313751 16.052448
15.915704 51.317539 15.627911
15.922368 51.31144 15.201415
15.939426 51.316502 14.781322
15.953792 51.318745 14.361952
15.952238 51.304062 13.938296
15.954578 51.293594 13.518211
15.967523 51.294495 13.103831
15.964514 51.278439 12.685612
15.965509 51.266712 12.270647
15.983952 51.273617 11.862909
15.993055 51.25798 11.043066
16.000832 51.216137 9.4177818
15.805717 51.379108 19.569534
15.816621 51.362976 18.671988
15.823935 51.357044 18.2286
15.834715 51.354912 17.789732
15.842573 51.349731 17.351984
15.841038 51.33456 16.912291
15.817056 51.295429 16.46489
15.868321 51.336971 16.054697
15.858141 51.312778 15.618727
15.858191 51.299614 15.189792
15.868591 51.297592 14.767427
15.889461 51.306824 14.35117
15.887848 51.29208 13.927936
15.903386 51.295719 13.513148
15.916295 51.296604 13.099022
15.899949 51.266312 12.676521
15.907568 51.261658 12.264163
15.919272 51.26141 11.854671
15.935115 51.265617 11.44782
15.928281 51.245697 11.035681
15.939028 51.24456 10.630105
15.93378 51.226425 10.221578
15.950136 51.206451 9.0122223
15.941571 51.184959 8.6084423
15.746707 51.385368 20.008224
15.774709 51.359753 18.217554
15.798303 51.371395 17.785479
15.780305 51.338448 17.335051
15.798118 51.344032 16.905096
15.793621 51.325756 16.466936
15.805762 51.325401 16.039009
15.808579 51.315121 15.609173
15.808582 51.301895 15.18049
15.81893 51.299824 14.758378
15.806789 51.273735 14.32934
15.851299 51.308353 13.924435
15.833702 51.276558 13.497544
15.859792 51.291553 13.088633
15.856712 51.27541 12.671007
15.857635 51.263599 12.256638
15.862615 51.25618 11.845303
15.865005 51.24604 11.434769
15.871524 51.24036 11.026997
15.875498 51.232006 10.619923
15.882586 51.214508 9.8096714
15.731882 51.38213 18.655027
15.707036 51.341599 18.195192
15.704741 51.325443 17.750519
15.731723 51.340858 17.32325
15.742977 51.339432 16.890434
15.72541 51.30711 16.44656
15.737418 51.306648 16.019133
15.772771 51.331318 15.604085
15.739998 51.282921 15.161615
15.783061 51.315971 14.753457
15.770905 51.289848 14.324505
15.769145 51.274944 13.90203
15.771277 51.264278 13.483129
15.810526 51.293423 13.079343
15.774155 51.241634 12.650637
15.808267 51.265366 12.247859
15.81319 51.2579 11.83678
15.81553 51.247719 11.426501
15.80859 51.227665 11.015134
15.81249 51.21925 10.608489
15.827313 51.222546 10.206085
15.842779 51.214096 9.4009905
15.654769 51.365551 19.078203
15.656744 51.326389 17.740726
15.664296 51.320942 17.304134
15.681892 51.326382 16.874922
15.683708 51.314911 16.440535
15.689163 51.30743 16.010332
15.698328 51.304012 15.584105
15.698179 51.290653 15.156092
15.72805 51.309612 14.742721
15.715836 51.283424 14.314104
15.733802 51.289707 13.899531
15.749142 51.293228 13.485588
15.735354 51.265549 13.0629
15.738765 51.256386 12.648391
15.76618 51.272999 12.243516
15.771073 51.265522 11.832606
15.773386 51.255325 11.4225
15.779823 51.249596 11.015155
15.783722 51.241192 10.608509
15.778366 51.222931 10.200841
15.783934 51.216396 9.7974472
15.787009 51.207241 9.39468
15.602592 51.319714 17.728588
15.629388 51.335064 17.301897
15.621093 51.312649 16.860338
15.622808 51.301109 16.426365
15.647672 51.314583 16.005404
15.643748 51.297115 15.573627
15.663145 51.304825 15.154268
15.640516 51.26738 14.71946
15.667603 51.283485 14.307237
15.65914 51.261417 13.88283
15.687569 51.279064 13.474352
15.686958 51.26556 13.056791
15.690321 51.256378 12.642536
15.691059 51.244438 12.229186
15.709184 51.251202 11.823068
15.704744 51.233807 11.411375
15.717791 51.23521 11.00647
15.736364 51.230072 10.198277
15.735174 51.216339 9.7933855
15.738214 51.207176 9.3908758
15.743616 51.18824 8.5892754
15.570849 51.362499 18.614786
15.558575 51.335564 18.162643
15.556052 51.319267 17.71879
15.569864 51.320702 17.285965
15.593749 51.333084 16.860357
15.569525 51.293613 16.414286
15.574776 51.286034 15.984832
15.635869 51.338737 15.582217
15.59647 51.283157 15.13764
15.606491 51.280922 14.716785
15.620379 51.282909 14.299433
15.625023 51.275005 13.880322
15.646791 51.285583 13.46949
15.646127 51.272079 13.052097
15.642802 51.255772 12.635744
15.650122 51.250965 12.224832
15.654859 51.243431 11.814688
15.670373 51.24752 11.409371
15.676686 51.241772 11.002625
15.681727 51.222263 10.191263
15.690178 51.206573 9.3861313
15.524975 51.360641 18.606438
15.510053 51.31736 17.710932
15.547593 51.331161 16.852995
15.51685 51.284664 16.404144
15.541497 51.298096 15.983848
15.582988 51.329765 15.572744
15.543542 51.274132 15.128499
15.579673 51.300129 14.718742
15.573853 51.28093 14.29357
15.578441 51.273018 13.874711
15.593543 51.276497 13.461696
15.572975 51.241604 13.037581
15.589428 51.246643 12.628626
15.590038 51.23468 12.215869
15.621325 51.255772 11.814542
15.6168 51.238377 11.403274
15.623054 51.23262 10.996868
15.633475 51.231388 10.593004
15.627986 51.2131 10.186191
15.640121 51.213787 9.7853241
15.643064 51.204639 9.3833284
15.648288 51.185738 8.5827599
15.463644 51.317135 17.700895
15.483737 51.325481 17.271755
15.481681 51.309917 16.834129
15.476719 51.291298 16.397877
15.488332 51.290684 15.971863
15.49718 51.287148 15.546802
15.529376 51.308907 15.133829
15.526257 51.292564 14.707761
15.526932 51.280388 14.285531
15.531464 51.272442 13.866924
15.55969 51.290123 13.459038
15.539121 51.255207 13.035008
15.542297 51.245975 12.621601
15.5495 51.241131 12.211282
15.560778 51.24073 11.803832
15.576183 51.244812 11.399028
15.589083 51.246235 10.99472
15.586101 51.230606 10.587258
15.567171 51.197872 10.177192
15.585952 51.205746 9.7784243
15.595573 51.2038 9.378356
15.602746 51.199253 8.978776
15.603008 51.175133 8.1798801
15.607052 51.155201 7.3859634
15.430521 51.330967 17.695721
15.424873 51.311432 17.253901
15.435603 51.309734 16.822905
15.44351 51.305054 16.39295
15.45509 51.304417 15.96702
15.457405 51.293823 15.539185
15.443892 51.266171 15.106959
15.466764 51.277958 14.692407
15.487013 51.286957 14.278417
15.478359 51.264767 13.854936
15.499908 51.27528 13.444948
15.47927 51.240273 13.021344
15.495601 51.245251 12.612896
15.489483 51.226048 12.198467
15.513971 51.239925 11.795637
15.502677 51.215244 11.38304
15.515471 51.216587 10.979331
15.512398 51.200871 10.57247
15.526883 51.204117 10.171781
15.538912 51.204746 9.7715139
15.555209 51.210003 9.3732872
15.535426 51.176468 8.9678926
15.540085 51.169273 8.5693493
15.371086 51.370705 19.461563
15.393582 51.354042 18.131094
15.37168 51.316727 17.678164
15.385208 51.317982 17.246328
15.383021 51.302258 16.809282
15.390857 51.297489 16.379662
15.395885 51.289749 15.951122
15.391621 51.272007 15.520846
15.423633 51.293652 15.108541
15.426917 51.284222 14.685836
15.434029 51.279003 14.266801
15.431894 51.263836 13.84618
15.446808 51.267181 13.43401
15.452529 51.260632 13.020154
15.442406 51.237007 12.602636
15.442873 51.224895 12.190731
15.45403 51.22438 11.783962
15.449344 51.206802 11.373805
15.482094 51.229691 10.976216
15.485703 51.221153 10.571282
15.486804 51.209953 10.167083
15.505517 51.217785 9.7686577
15.502035 51.189453 8.96521
15.502173 51.165173 8.1675253
15.325772 51.316761 17.66663
15.330559 51.295155 16.795137
15.338316 51.290298 16.365849
15.349744 51.289505 15.940584
15.364911 51.292831 15.519133
15.364349 51.279156 15.092958
15.361021 51.26255 14.667983
15.381122 51.271416 14.254664
15.372365 51.249058 13.83186
15.393771 51.259449 13.422548
15.399431 51.252831 13.009032
15.415695 51.257744 12.600924
15.416167 51.245613 12.189018
15.414046 51.230732 11.778055
15.422643 51.227493 11.372093
15.435383 51.228775 10.968725
15.432281 51.212978 10.562208
15.440025 51.208942 10.160108
15.438596 51.195042 9.7569342
15.441388 51.185738 9.3561449
15.45306 51.173809 8.5594025
15.293218 51.316814 17.225681
15.297367 51.307949 16.79224
15.292213 51.289043 16.356987
15.310061 51.295235 15.934913
15.312219 51.284435 15.507913
15.298589 51.25655 15.076527
15.321268 51.268181 14.662813
15.321712 51.255726 14.241846
15.339125 51.261749 13.829548
15.347367 51.257874 13.415448
15.346402 51.244072 12.999834
15.356005 51.241779 12.589798
15.349801 51.222412 12.176136
15.347612 51.207451 11.765685
15.376074 51.225735 11.366269
15.368803 51.205364 10.95738
15.378986 51.203938 10.555058
15.386692 51.199863 10.1533
15.412012 51.214874 9.7571449
15.408111 51.198322 9.3547735
15.408445 51.186394 8.9547319
15.413056 51.179115 8.5567932
15.227014 51.349064 18.973795
15.257099 51.287525 15.922669
15.246226 51.262535 15.490289
15.265017 51.269901 15.073274
15.268116 51.260258 14.651575
15.281574 51.261944 14.236156
15.279295 51.246582 13.816463
15.300599 51.256905 13.407659
15.293015 51.235901 12.989947
15.309161 51.240719 12.582518
15.309543 51.228477 12.171293
15.320594 51.227863 11.765206
15.302558 51.195751 11.35171
15.321828 51.204144 10.951124
15.331977 51.202682 10.549059
15.332973 51.191345 10.145804
15.34486 51.191841 9.7466564
15.340905 51.175228 9.3448019
15.368034 51.19228 8.9512615
15.361346 51.160553 8.1536369
15.367828 51.155361 7.7584186
15.198374 51.272934 15.906167
15.206856 51.269016 15.482777
15.206109 51.255112 15.057609
15.209122 51.245373 14.63633
15.22902 51.254082 14.223936
15.239775 51.252892 13.809623
15.247908 51.248901 13.396114
15.23369 51.220665 12.976391
15.269535 51.246918 12.576185
15.269891 51.234634 12.165132
15.261041 51.212402 11.752926
15.276134 51.216232 11.349914
15.288745 51.217403 10.947402
15.298877 51.215923 10.545422
15.29319 51.197323 10.1405
15.298362 51.190544 9.7398558
15.307774 51.188396 9.341423
15.314755 51.183651 8.9434814
15.319313 51.176311 8.5460615
15.328178 51.173664 8.1505184
15.321179 51.153881 7.7529135
15.326925 51.135765 6.9643569
15.154464 51.329666 17.628901
15.148541 51.309643 17.188572
15.158934 51.307541 16.759068
15.172959 51.309483 16.333633
15.158412 51.280293 15.897359
15.153922 51.262165 15.468424
15.172599 51.269398 15.051909
15.169102 51.252499 14.628027
15.175918 51.246918 14.210592
15.180074 51.238499 13.794097
15.201257 51.248688 13.385882
15.206746 51.241833 12.973469
15.203047 51.225029 12.559665
15.216541 51.226994 12.153485
15.227513 51.226257 11.74791
15.222708 51.208412 11.338952
15.228631 51.202282 10.934856
15.232055 51.193478 10.531467
15.239655 51.189255 10.130569
15.244797 51.1824 9.7302685
15.254175 51.18018 9.332181
15.274531 51.189899 8.9375753
15.26566 51.167946 8.5375109
15.267779 51.157951 8.1409912
15.274219 51.152668 7.7462931
15.285012 51.152126 7.353188
15.289696 51.120655 6.1740236
15.089643 51.366032 19.382965
15.082909 51.344673 18.930408
15.092081 51.340855 18.489824
15.098319 51.333904 18.050457
15.101637 51.323845 17.61235
15.121223 51.33168 17.185106
15.112391 51.308483 16.746286
15.113503 51.296257 16.315056
15.137592 51.309235 15.896836
15.133142 51.291073 15.467819
15.13238 51.27702 15.042905
15.141878 51.274246 14.624568
15.135664 51.254379 14.201926
15.152878 51.260151 13.79064
15.154402 51.248856 13.37512
15.166427 51.249077 12.965312
15.149549 51.217838 12.547149
15.189389 51.248474 12.15003
15.167306 51.211685 11.73398
15.182333 51.21537 11.33148
15.188243 51.209171 10.927557
15.198308 51.207539 10.526177
15.192581 51.18877 10.121861
15.191026 51.174583 9.7201529
15.213743 51.186817 9.3255711
15.207294 51.167389 8.9251595
15.218507 51.167183 8.5298395
15.227328 51.164406 8.134902
15.217613 51.129257 7.3428521
15.232747 51.133411 6.9516306
15.047399 51.38459 19.82457
15.049983 51.373341 19.374233
15.062121 51.372684 18.932392
15.064989 51.361935 18.488291
15.064881 51.348015 18.04557
15.080913 51.351887 17.614088
15.081348 51.338737 17.177197
15.06608 51.308456 16.735437
15.09927 51.331364 16.319567
15.091156 51.30909 15.886486
15.093122 51.297935 15.460576
15.111775 51.305111 15.044145
15.108289 51.288128 14.620348
15.121615 51.289604 14.205603
15.125788 51.281124 13.789108
15.120766 51.262665 13.371154
15.126206 51.255699 12.95908
15.142213 51.260319 12.552414
15.135913 51.240643 12.139778
15.140226 51.232605 11.73245
15.148624 51.229069 11.32794
15.141252 51.208389 10.920255
15.151277 51.206718 10.519133
15.165499 51.209656 10.120331
15.157278 51.18819 9.7169571
15.17329 51.19315 9.3208809
15.184719 51.180744 8.5269022
15.179793 51.150696 7.7339091
14.991285 51.444702 22.118494
14.99307 51.403145 20.723242
15.001762 51.398434 20.270279
15.007376 51.39043 19.818689
15.022476 51.392967 19.375713
15.022023 51.378487 18.926836
15.037498 51.381611 18.489769
15.031062 51.360741 18.043695
15.034349 51.350647 17.605753
15.034737 51.337456 17.169109
15.045041 51.335236 16.740019
15.04613 51.322979 16.308954
15.063722 51.328896 15.887962
15.052781 51.3036 15.456341
15.058443 51.296577 15.034533
15.06789 51.293774 14.616448
15.081186 51.295242 14.20187
15.091863 51.2939 13.788064
15.086841 51.275436 13.370193
15.085714 51.261303 12.955854
15.095118 51.258739 12.547092
15.108557 51.260635 12.141253
15.112879 51.252617 11.733923
15.10805 51.234657 11.325394
15.120558 51.235672 10.923652
15.131527 51.2225 10.12005
15.132638 51.198738 9.3191919
14.948925 51.476192 23.059538
14.930823 51.441364 22.570301
14.939839 51.43663 22.103733
14.954347 51.423607 21.179098
14.953721 51.408566 20.717123
14.987255 51.431305 20.279366
14.980412 51.409615 19.820251
14.970417 51.38456 19.362879
14.969872 51.370026 18.914328
14.97893 51.366161 18.474152
14.985064 51.359161 18.035194
15.026425 51.390995 17.617125
15.007739 51.356861 17.170668
15.011637 51.347649 16.73847
15.01912 51.342457 16.310511
15.03026 51.341351 15.88658
15.025762 51.323147 15.457895
15.031416 51.316162 15.036087
15.034365 51.306278 14.615313
15.034618 51.293507 14.195611
15.051758 51.299305 13.784576
15.059784 51.29517 13.371745
15.058657 51.281067 12.957404
15.068049 51.278542 12.548642
15.072598 51.25806 11.73128
15.08955 51.213802 9.7166395
14.900258 51.545292 25.493528
14.881902 51.509495 24.980915
14.883713 51.49622 24.48867
14.887998 51.485825 24.002714
14.894857 51.478413 23.522867
14.898321 51.467365 23.044701
14.892313 51.445961 22.564102
14.931872 51.47509 22.118105
14.925417 51.453426 21.6448
14.921814 51.43504 21.177296
14.939744 51.440556 20.726927
14.948412 51.43594 20.273962
14.954006 51.428028 19.822371
14.950275 51.409931 19.368595
14.962322 51.409332 18.926996
14.93988 51.370804 18.469395
14.964951 51.384743 18.040663
14.980886 51.388687 17.609425
14.987635 51.382591 17.17597
14.972363 51.352341 16.734369
14.986206 51.354214 16.309599
14.997311 51.353142 15.88575
14.992789 51.334965 15.457147
14.998414 51.328011 15.035421
15.014305 51.332401 14.620108
15.014567 51.319687 14.20032
15.025513 51.293076 12.957155
15.035113 51.278145 12.13836
14.845427 51.565193 26.483841
14.846268 51.550434 25.976593
14.849319 51.538284 25.476015
14.854687 51.528858 24.98193
14.862478 51.522255 24.494162
14.878808 51.525261 24.016924
14.873662 51.50457 23.5282
14.889277 51.50703 23.058435
14.883348 51.485729 22.577599
14.904599 51.494663 22.119116
14.892002 51.466225 21.641808
14.913043 51.47514 21.190075
14.887689 51.432827 20.712564
14.883821 51.41441 20.252399
14.926699 51.447762 19.823378
14.929229 51.436604 19.373201
14.922436 51.415249 18.920967
14.91888 51.397568 18.473835
14.950275 51.418552 18.048376
14.928153 51.380573 17.597342
14.94118 51.381451 17.167404
14.945021 51.372276 16.735371
14.95885 51.374184 16.3106
14.95709 51.358997 15.880871
14.952533 51.340809 15.452434
14.964577 51.340961 15.033648
14.965214 51.302773 13.775077
14.831043 51.696907 29.655046
14.817399 51.615986 27.51317
14.808276 51.589832 26.987278
14.831296 51.583977 25.985081
14.816617 51.552124 25.470451
14.839797 51.562542 24.990108
14.841645 51.549366 24.497707
14.857978 51.552418 24.020391
14.852849 51.531761 23.531588
14.850284 51.514084 23.049021
14.850382 51.499493 22.572504
14.889916 51.528763 22.126347
14.877367 51.500378 21.64888
14.879941 51.488876 21.185217
14.89169 51.487652 20.730843
14.887933 51.469353 20.270273
14.893479 51.461464 19.818762
14.908486 51.464138 19.375864
14.898166 51.425159 18.476336
14.913794 51.415234 17.602947
14.924323 51.400002 16.737539
14.787792 51.698616 29.637697
14.811793 51.708755 29.118385
14.803244 51.682682 28.575312
14.807872 51.671516 28.049778
14.785366 51.630226 27.506599
14.770382 51.597519 26.975922
14.77485 51.586685 26.466921
14.781475 51.578411 25.964613
14.808125 51.592594 25.482718
14.825419 51.596478 24.997585
14.845243 51.603306 24.518457
14.837683 51.579784 24.023157
14.83861 51.565845 23.538595
14.82398 51.534748 23.047388
14.836239 51.533665 22.579197
14.833033 51.515518 22.104301
14.857162 51.527843 21.651249
14.859754 51.516361 21.187508
14.862775 51.449547 18.914881
14.770198 51.81654 32.445869
14.785145 51.730061 29.11623
14.786984 51.699234 28.052639
14.776116 51.670906 27.519262
14.726262 51.599194 26.959185
14.742348 51.601341 26.459986
14.760706 51.606167 25.967171
14.804665 51.624294 24.999989
14.794641 51.597866 24.4984
14.798968 51.587582 24.012209
14.799836 51.573574 23.527805
14.779109 51.53566 23.032516
14.797353 51.541256 22.568722
14.69626 51.713589 30.143894
14.703861 51.63966 27.477795
14.688728 51.606762 26.947498
14.698874 51.60231 26.443666
14.740644 51.633358 25.969915
14.765156 51.569748 23.039032
14.651336 51.727943 30.674215
14.677339 51.740143 30.146393
14.696541 51.67931 27.489794
14.658206 51.620403 26.939827
14.685837 51.635567 26.450424
14.610099 51.730171 30.654161
14.624694 51.729599 30.115936
14.581182 51.582676 26.892189
14.667571 51.64819 25.94437
14.578691 51.744785 30.646471
14.58762 51.737827 30.10301
14.549587 51.596863 26.885031
14.617737 51.657631 26.429873
14.550347 51.747299 30.089148
14.52944 51.62524 26.886662
14.556722 51.640102 26.397942
14.572894 51.551613 22.963213
14.460385 51.713341 30.574484
14.480141 51.71859 30.042524
14.486712 51.627396 26.867949
14.52554 51.655281 26.389019
14.435515 51.733334 30.572321
14.466478 51.751274 30.05098
14.415417 51.59494 26.826923
14.483117 51.655445 26.372511
14.365899 51.701763 30.528585
14.384623 51.607376 26.821388
14.440597 51.654743 26.357489
14.425207 51.530632 22.905401
14.345982 51.727272 30.533329
14.357642 51.640812 27.334557
14.364955 51.633087 26.825609
14.397647 51.654205 26.342506
14.399768 51.549789 22.904764
14.269983 51.689438 30.484594
14.314602 51.640282 27.319448
14.339195 51.652111 26.8253
14.342809 51.640331 26.318289
14.35611 51.548397 22.891731
14.228952 51.696724 30.47216
14.204172 51.568893 27.248642
14.303491 51.665535 26.818703
14.278022 51.620792 26.287849
14.183865 51.719261 30.465643
14.136603 51.565266 27.222462
14.221939 51.630123 26.271875
14.252237 51.556931 22.862408
14.115017 51.684818 30.42411
14.112293 51.58165 27.223986
14.194124 51.658611 26.7798
14.197949 51.539658 22.842743
14.090843 51.699406 30.427565
14.105357 51.616219 27.242235
14.141069 51.64085 26.758953
14.132789 51.61557 26.24337
14.038525 51.680824 30.405998
14.02929 51.570969 27.203154
14.076262 51.608551 26.730282
14.102571 51.622715 26.243933
14.125509 51.542252 22.834564
14.009529 51.687706 30.404749
13.982963 51.558445 27.187527
14.052835 51.62228 26.734407
14.044391 51.596916 26.219353
14.090137 51.542919 22.830202
13.981618 51.695793 30.401146
13.949097 51.560059 27.179424
14.036126 51.643635 26.741047
14.039281 51.63155 26.235483
13.941989 51.691902 30.386463
13.967103 51.606392 26.703623
14.010509 51.640343 26.23217
13.908008 51.695328 30.376131
13.886132 51.571896 27.166515
13.949974 51.629189 26.708923
13.964493 51.63015 26.213465
13.82514 51.658169 30.868586
13.86396 51.68578 30.354282
13.92229 51.638527 26.703756
13.919447 51.619625 26.194017
13.94608 51.544655 22.795403
13.814248 51.669258 30.327894
13.819819 51.561718 26.63623
13.851204 51.582108 26.156275
13.850754 51.491039 23.217939
13.792332 51.684814 30.328049
13.826538 51.610363 26.66069
13.858041 51.630939 26.180353
13.848295 51.514698 22.757921
13.710994 51.64764 30.819138
13.754954 51.681408 30.310877
13.788428 51.606304 26.64509
13.796759 51.600315 26.14584
13.839222 51.544086 22.765387
13.706364 51.683899 30.832958
13.733841 51.698662 30.308319
13.704002 51.566326 27.099144
13.772973 51.630005 26.647396
13.7698 51.610771 26.138498
13.78819 51.526913 22.741631
13.694818 51.698143 30.289471
13.658807 51.55838 27.076714
13.744805 51.641743 26.639849
13.718589 51.595917 26.111891
13.728586 51.516827 23.185928
13.630985 51.790909 34.249668
13.63989 51.677269 30.255407
13.711537 51.645744 26.628376
13.673787 51.586544 26.091005
13.700945 51.527023 23.179867
13.596969 51.667999 30.232372
13.650457 51.615765 26.592854
13.658509 51.609428 26.094292
13.644341 51.502415 23.15246
13.552662 51.778164 34.207718
13.543182 51.643875 30.200825
13.595236 51.590557 26.564447
13.608838 51.590717 26.071127
13.593767 51.483032 23.131618
13.517546 51.668171 30.748068
13.523194 51.560379 27.031948
13.574409 51.604023 26.566599
13.565028 51.577663 26.05414
13.561077 51.483196 23.125122
13.627495 51.545292 22.700449
13.48483 51.77594 34.17955
13.485652 51.671291 30.736258
13.55325 51.619984 26.565702
13.549595 51.600277 26.058027
13.510286 51.465134 23.102631
13.442932 51.767776 34.154572
13.453068 51.657196 30.173742
13.452741 51.559654 27.004948
13.486603 51.583347 26.525393
13.465508 51.543438 26.003977
13.512874 51.508671 23.118484
13.541809 51.415928 19.023989
13.427166 51.685211 30.717106
13.431869 51.673832 30.172386
13.403185 51.543255 26.978912
13.482495 51.619785 26.53862
13.45577 51.573288 26.012192
13.456275 51.484215 23.091223
13.477787 51.382999 18.997458
13.391514 51.810268 34.741215
13.426483 51.832806 34.180592
13.393858 51.672096 30.154175
13.364587 51.540821 26.962049
13.426654 51.597416 26.507401
13.439856 51.597301 26.014917
13.393344 51.453678 23.058945
13.480453 51.428383 19.009792
13.336111 51.661068 30.665041
13.351456 51.662178 30.13175
13.344056 51.556522 26.961163
13.3776 51.580009 26.482212
13.37919 51.566433 25.980545
13.396263 51.496769 23.075325
13.447469 51.430119 19.001705
13.291004 51.664658 31.193893
13.359277 51.727558 30.707867
13.309137 51.652107 30.109379
13.340552 51.591923 26.975134
13.385532 51.628796 26.505672
13.358654 51.582066 25.979708
13.328567 51.457764 23.039949
13.411943 51.540188 22.629393
13.240625 51.753853 34.6376
13.30492 51.705757 30.67452
13.284944 51.568691 26.944918
13.31266 51.585491 26.461334
13.342707 51.605133 25.983889
13.306953 51.474129 23.039349
13.362397 51.412842 18.975088
13.214335 51.76482 34.62991
13.315634 51.743122 30.155504
13.241318 51.559029 26.923454
13.285957 51.595615 26.454752
13.264551 51.555191 25.934336
13.262481 51.463364 23.020363
13.32795 51.525139 22.597403
13.337392 51.52179 22.137041
13.323177 51.4081 18.962584
13.274944 51.755489 30.677282
13.230236 51.686108 30.084488
13.210165 51.56525 26.90719
13.256074 51.587852 25.937504
13.242502 51.482246 23.013981
13.296119 51.530247 22.582537
13.183625 51.693134 30.600174
13.223401 51.624893 26.930624
13.199975 51.581734 26.40332
13.24535 51.528938 23.025087
13.221566 51.374271 18.914133
13.140329 51.569874 26.873425
13.216768 51.49379 21.617849
13.182617 51.370037 18.900436
13.240992 51.410793 18.06152
13.152147 51.486664 22.512016
13.141182 51.347599 18.448679
13.184134 51.384109 18.038807
13.171103 51.419102 18.475163
13.128555 51.355991 18.01663
13.138127 51.353745 17.590784
13.148873 51.224049 13.021068
13.078962 51.348721 18.431261
13.066736 51.320988 17.990856
13.091666 51.245369 14.633578
13.130013 51.277214 14.23955
13.121922 51.255112 13.827435
13.094159 51.16037 11.804528
13.07726 51.116177 11.007192
13.047192 51.231564 14.620513
13.116827 51.299892 14.24022
13.083571 51.248497 13.817636
13.10441 51.260117 13.41964
13.040617 51.173378 12.990582
13.042821 51.138676 11.791659
13.13392 51.195374 10.241639
13.120582 51.119545 8.2943506
13.114895 51.101006 7.9080992
13.126406 51.102394 7.5263052
13.129766 51.082512 6.7614975
13.003767 51.204769 14.198684
13.008028 51.197067 13.792941
13.035017 51.215893 13.398214
13.101492 51.182053 9.8451557
13.085652 51.151562 9.4511385
13.092109 51.134941 8.677043
13.058277 51.047989 7.133204
13.057066 51.0229 6.3707933
12.966365 51.197598 14.18805
12.978565 51.186577 13.38055
13.018461 51.122108 9.8251162
13.041118 51.13633 9.4419088
13.042207 51.125538 9.054121
13.034552 51.104633 8.6655312
13.044695 51.044979 6.3691683
12.945547 51.197083 13.778311
12.953525 51.193802 13.376386
12.986803 51.121704 9.8199739
13.002988 51.128433 9.4352798
12.997597 51.110119 9.0461788
12.976996 51.074181 8.6549635
12.89721 51.163445 13.361346
12.936228 51.098141 9.8112803
12.971639 51.127266 9.4319906
12.972675 51.116421 9.0446329
12.93274 51.057968 8.6490469
12.905113 51.097183 9.8062716
12.927622 51.111343 9.4238367
12.909301 51.077984 9.0321102
12.895083 51.049454 8.6430702
12.923734 51.07085 8.264884
12.943465 51.034485 6.3592553
12.861926 51.080811 9.7977142
12.865102 51.072483 9.4106503
12.865995 51.061535 9.0242405
12.890376 51.077988 8.6444559
12.873863 51.046825 8.2563057
12.892159 51.044376 7.4943442
12.919274 51.040489 6.3567033
12.837851 51.08691 9.7939577
12.873092 51.116009 9.4152641
12.841885 51.067593 9.0206566
12.866237 51.084038 8.6409569
12.850266 51.041599 7.8698597
12.855044 51.035309 7.4886556
12.870552 51.041538 7.1101899
12.870921 51.030163 6.7297664
12.875571 51.023796 6.3508286
12.820044 51.101017 9.7905807
12.842426 51.115124 9.4085712
12.8369 51.096657 9.020421
12.835511 51.083065 8.6346111
12.831857 51.066864 8.2495193
12.838847 51.063122 7.8677959
12.837158 51.049286 7.485281
12.859116 51.063042 7.1079521
12.846528 51.036556 6.7253404
12.816032 51.129093 9.7916222
12.819197 51.120724 9.4044724
12.832923 51.124737 9.0211172
12.812265 51.088596 8.6306868
12.795724 51.057323 8.2428885
12.828478 51.083656 7.8666663
12.813885 51.054726 7.4816179
12.809961 51.038292 7.0998259
12.842652 51.064594 6.7250028
12.834334 51.043083 6.3440518
12.779838 51.119522 9.785203
12.821408 51.156101 9.4082441
12.769563 51.071392 8.6235619
12.804485 51.100262 8.247282
12.759919 51.03624 7.8549914
12.796899 51.067554 7.4804254
12.79298 51.051105 7.0986338
12.786841 51.032097 6.7175078
12.836777 51.07856 6.3457494
12.762651 51.13208 9.7859526
12.771647 51.106548 8.6287584
12.76155 51.082783 8.2424421
12.755621 51.063938 7.8583579
12.786146 51.087757 7.4823956
12.782237 51.071331 7.1005168
12.808436 51.090122 6.724556
12.813075 51.083729 6.3455319
12.697681 51.050808 8.6154537
12.700348 51.042042 8.232708
12.739412 51.075928 7.8584013
12.74412 51.069599 7.4775429
12.727256 51.038055 7.0937352
12.746921 51.049282 6.7172441
12.671474 51.039406 8.2270603
12.69117 51.050663 7.8489933
12.717595 51.058041 7.0920143
12.698477 51.023903 6.7091355
12.537801 51.047405 8.5963192
12.564471 51.026886 5.9449992
12.337018 51.041973 7.4297071
12.285926 51.033859 8.1776772
12.298851 51.037392 7.8003707
12.296824 51.023201 7.4208884
12.350394 51.039833 5.9210086
12.284164 51.048962 7.7972417
12.28213 51.034744 7.4177604
12.297108 51.04076 7.0423179
12.284318 51.013832 6.6628413
12.301408 51.022396 6.2890339
12.275613 51.067936 7.7971568
12.279979 51.06131 7.4188085
12.294967 51.067333 7.0431919
12.26939 51.025185 6.6614518
12.273652 51.018517 6.2857261
12.267647 51.062778 7.041882
12.267678 51.051064 6.6644974
12.246323 51.013954 6.2847614
12.224309 51.088009 8.5540142
12.205558 51.030296 7.4106288
12.220435 51.024582 6.6586671
12.250278 51.048409 6.2870369
11.796236 51.037411 8.4965925
10.882155 51.819363 37.62878
10.862633 51.773899 36.965508
10.866621 51.758774 36.343456
10.87061 51.743938 35.730446
10.869864 51.723351 35.120216
10.874221 51.709541 34.52499
10.88392 51.702797 33.944439
10.889239 51.690731 33.366348
10.900225 51.686111 32.802525
10.896934 51.663582 32.22945
10.899492 51.648724 31.670507
10.892803 51.622356 31.108391
10.907625 51.623512 30.576849
10.892761 51.587223 30.019825
10.910177 51.592075 29.503649
10.923927 51.592461 28.989347
10.918242 51.568424 28.461132
10.914043 51.546471 27.940567
10.927411 51.546925 27.442898
10.915909 51.516102 26.926811
11.012601 51.097946 10.249434
11.016242 51.077991 9.490798
11.005534 51.052513 9.1101122
11.015623 51.016727 7.6133494
10.844351 51.869698 38.918495
10.868119 51.857998 37.646736
10.867782 51.836975 37.008644
10.857641 51.803734 36.367287
10.866613 51.795219 35.760216
10.870923 51.781025 35.155785
10.880399 51.773697 34.566219
10.870597 51.742046 33.961166
10.900876 51.761745 33.412533
10.897121 51.738316 32.830559
10.888976 51.709545 32.251339
10.886606 51.688374 31.68639
10.90554 51.694523 31.152302
10.905215 51.676399 30.603453
10.890535 51.640263 30.046066
10.908103 51.64529 29.529526
10.89587 51.61269 28.98807
10.91649 51.621967 28.486273
10.917744 51.606865 27.970547
10.915337 51.587307 27.457026
10.914637 51.570099 26.950832
11.009468 51.148212 10.255735
11.005723 51.082497 8.3637238
11.001011 51.064548 7.9881673
11.000391 51.051723 7.6146655
11.003897 51.044052 7.2429895
10.999088 51.026089 6.8706789
11.004672 51.021057 6.5011067
11.014447 51.021244 6.1328406
10.769701 51.832256 38.880608
10.821456 51.856525 37.648407
10.811679 51.823418 36.997746
10.8255 51.820839 36.388054
10.800855 51.769329 35.737423
10.824527 51.779919 35.157978
10.824265 51.76017 34.556396
10.82926 51.74741 33.969631
10.83478 51.735569 33.391399
10.845948 51.731186 32.827438
10.8479 51.715282 32.26001
10.845627 51.694229 31.695126
10.844248 51.674549 31.13851
10.85414 51.669445 30.601175
10.85498 51.653027 30.060513
10.879176 51.443432 22.641069
10.895292 51.448994 22.195562
10.885991 51.422596 21.734518
10.901913 51.42815 21.296131
10.892303 51.401619 20.842773
10.908237 51.407406 20.411215
10.908924 51.380016 19.536404
10.910843 51.368465 19.105082
10.790295 51.910683 38.944672
10.748701 51.836071 38.229523
10.804969 51.887459 37.659813
10.795248 51.854431 37.009022
10.82825 51.876495 36.424316
10.798992 51.819042 35.767063
10.822795 51.829861 35.187275
10.822683 51.810322 34.58535
10.832747 51.804066 34.004242
10.834803 51.769203 32.843609
10.826779 51.740589 32.264378
10.839694 51.738945 31.716591
10.838424 51.719418 31.159689
10.887546 51.477165 21.75415
10.681047 51.850838 39.468029
10.86389 50.984444 5.7502666
10.669686 51.9058 39.499504
