# .PCD v0.7 - Point Cloud Data file format
VERSION 0.7
FIELDS x y z
SIZE 4 4 4
TYPE F F F
COUNT 1 1 1
WIDTH 1612
HEIGHT 1
VIEWPOINT 0 0 0 1 0 0 0
POINTS 1612
DATA ascii
18.764494 51.604626 21.364117
18.783754 51.60873 20.894459
18.779867 51.589905 20.415136
18.79244 51.587555 19.948112
18.821115 51.586636 19.024626
18.810526 51.56155 18.554785
18.816784 51.553295 18.096272
18.833355 51.555355 17.645267
18.843697 51.537094 16.740334
18.85531 51.520405 15.845883
18.590393 51.860958 32.377468
18.592886 51.844978 31.795599
18.608644 51.842571 31.231951
18.608526 51.80648 30.095711
18.610792 51.791069 29.538776
18.645418 51.808369 29.013832
18.632921 51.778473 28.456221
18.60981 51.738113 27.896383
18.619581 51.730946 27.367659
18.67532 51.770039 26.87801
18.664673 51.742687 26.343452
18.630955 51.692387 25.797785
18.662716 51.707851 25.303507
18.652637 51.681545 24.784458
18.670609 51.68346 24.288885
18.684938 51.681858 23.79479
18.702103 51.683205 23.306318
18.67684 51.642281 22.795177
18.706282 51.656136 22.321873
18.725836 51.660217 21.845751
18.735439 51.654472 21.367096
18.748198 51.651978 20.893585
18.731176 51.6199 20.406965
18.743763 51.617447 19.940023
18.745762 51.589752 19.003239
18.761902 51.591118 18.546947
18.761461 51.576073 18.08532
18.744328 51.544525 17.618889
18.490372 52.019825 37.912285
18.543545 52.052917 37.31506
18.512486 52.000755 36.636883
18.538252 52.006531 36.026558
18.534161 51.962437 34.772907
18.527111 51.935707 34.153202
18.579231 51.96909 33.597378
18.515129 51.885136 32.939007
18.546003 51.897457 32.376617
18.566454 51.899437 31.81072
18.54645 51.860771 31.215357
18.557695 51.853863 30.654032
18.558424 51.83654 30.089769
18.560743 51.821018 29.532913
18.564779 51.807407 28.983299
18.595268 51.82061 28.460258
18.584669 51.792618 27.909943
18.575958 51.766708 27.366831
18.594244 51.768108 26.849323
18.596066 51.753117 26.324366
18.631714 51.772247 25.828379
18.606712 51.730625 25.293867
18.615757 51.723331 24.787973
18.627426 51.718803 24.288071
18.635405 51.710705 23.789804
18.620373 51.679688 23.280943
18.640364 51.683884 22.798384
18.663418 51.675663 21.833384
18.673014 51.669788 21.354975
18.672615 51.654034 20.874325
18.668097 51.619148 19.921579
18.479614 52.060589 37.293213
18.505095 52.065823 36.674328
18.531107 52.071842 36.06358
18.47175 51.991409 35.374443
18.452511 51.952019 34.73513
18.497543 51.978088 34.16647
18.497122 51.958271 33.560616
18.515209 51.957443 32.979336
18.528595 51.952061 32.400246
18.543257 51.948174 31.82873
18.529402 51.915646 31.238392
18.52276 51.890633 30.661243
18.535666 51.885578 30.107107
18.544209 51.876297 29.55505
18.560642 51.875164 29.015034
18.54215 51.83897 28.452549
18.568613 51.848297 27.93117
18.529028 51.791214 27.364145
18.559784 51.805187 26.856005
18.549133 51.777607 26.321836
18.572157 51.784081 25.816952
18.572447 51.767818 25.300314
18.581551 51.760571 24.794342
18.586889 51.749672 24.290108
18.594896 51.741592 23.791842
18.59346 51.708305 22.796406
18.606024 51.658707 20.861591
18.373428 51.952473 35.31321
18.422977 51.983143 34.742935
18.467972 52.009377 34.174202
18.463926 51.911224 31.214247
18.4631 51.892227 30.642643
18.47583 51.887146 30.088804
18.330786 51.947987 34.688839
18.369385 51.874756 31.164516
18.2911 51.9883 35.308571
18.305923 51.983921 34.704308
18.303221 51.869072 31.142332
18.255919 51.997505 34.694817
18.312418 51.94326 31.186178
18.186148 52.008167 34.671257
18.200415 51.910908 31.127222
18.100218 51.998779 35.231384
18.13299 51.901585 31.092258
18.068411 52.02507 35.229515
18.076956 52.014519 34.620419
18.08906 51.915813 31.079882
18.022747 52.016346 34.59589
18.021854 51.904869 31.046598
18.002447 51.923309 30.483185
18.013384 51.832901 27.210466
17.873571 51.995293 35.10281
17.947933 51.825062 27.171091
17.754251 51.937588 34.995361
17.811234 51.868153 30.905548
17.755043 51.987919 34.39415
17.763876 51.887272 30.872492
17.801863 51.807224 27.07243
17.723743 51.909454 30.846815
17.735905 51.802876 27.028982
17.578064 51.946796 34.862915
17.682184 51.926495 30.828417
17.668737 51.79398 26.992813
17.559345 51.966373 34.259575
17.568453 51.867344 30.751505
17.631237 51.814472 26.984514
17.523523 52.005531 34.861137
17.535076 51.998791 34.261292
17.543959 51.900082 30.752781
17.569647 51.909451 30.212362
17.452219 51.993832 34.81517
17.48056 52.004654 34.232849
17.417542 51.848778 31.230743
17.513817 51.914181 30.185972
17.494423 51.794315 26.918327
17.326931 51.929302 34.720116
17.341797 51.835762 31.190462
17.43 51.910164 30.702034
17.45364 51.817467 26.910509
17.430574 51.122089 5.0697694
17.277596 51.943668 34.712814
17.379976 51.805679 26.886478
17.313444 52.026104 34.18214
17.337355 51.824329 26.886723
17.307238 51.117744 5.0738864
17.155092 51.937515 34.669876
17.250692 51.910496 30.652195
17.285105 51.828621 26.876436
17.246716 51.11438 5.0751605
17.110033 51.946072 34.664265
17.170311 51.900005 31.182764
17.202909 51.799225 26.844643
17.186859 51.110325 5.0784302
17.087963 51.871231 31.148668
17.13451 51.902615 30.62459
17.155666 51.807419 26.84363
17.136812 51.128315 5.4856148
17.040541 51.880611 31.145176
17.071898 51.778378 26.81308
17.077684 51.123161 5.4898391
17.0748 51.107796 5.0894237
17.029932 51.911812 30.60227
17.063042 51.828262 26.833914
16.96513 51.783131 26.77993
16.972471 51.111691 5.0855532
16.95376 51.825237 26.793114
16.82299 51.113239 5.0838881
16.728491 51.534416 18.486736
16.747524 51.54039 18.045057
16.730917 51.509045 17.588352
16.68573 51.380009 14.935991
16.754585 51.438705 14.533033
16.800909 51.47385 14.121902
16.729151 51.359322 12.822441
16.723444 51.327339 11.981985
16.713058 51.447311 14.524105
16.712515 51.433453 14.095477
16.729271 51.437775 13.675284
16.676191 51.369064 13.232203
16.647045 51.325493 12.800581
16.654585 51.307404 11.965686
16.69161 51.333183 11.560611
16.651482 51.278404 11.134301
16.669762 51.284687 10.726459
16.726765 51.25555 7.8840294
16.759251 51.276844 7.485898
16.754868 51.259785 7.0822105
16.711 51.18927 6.2733097
16.61692 51.385967 14.068377
16.640173 51.397179 13.651467
16.633936 51.377533 13.225626
16.608992 51.286777 11.128575
16.640799 51.307262 10.724586
16.670113 51.325165 10.320635
16.703754 51.347607 9.9184217
16.662752 51.254387 8.2800264
16.670134 51.24958 7.8771982
16.709415 51.278046 7.4805632
16.711874 51.268147 7.0782008
16.698072 51.241337 6.6743784
16.681768 51.21196 6.2714314
16.550934 51.356853 13.627322
16.564644 51.358196 13.209302
16.569557 51.324554 11.953218
16.572607 51.31493 11.538417
16.56625 51.295498 11.122516
16.5844 51.301781 10.715013
16.600014 51.305439 10.307892
16.63353 51.327858 9.9061918
16.623642 51.304905 9.4949226
16.644024 51.301102 8.6852789
16.578487 51.220139 8.2672186
16.606352 51.23679 7.8687959
16.604303 51.222229 7.465683
16.613523 51.219456 7.0653386
16.640953 51.235695 6.6682515
16.645292 51.227867 6.2683258
16.494831 51.339119 13.193366
16.492334 51.323532 12.772007
16.509157 51.302639 11.526535
16.509499 51.290249 11.112988
16.514008 51.282272 10.702147
16.52273 51.278759 10.293784
16.535706 51.279739 9.8876772
16.566614 51.299534 9.4867668
16.554096 51.273876 9.0768375
16.545841 51.252728 8.6693487
16.562439 51.257622 8.2680464
16.556 51.238449 7.8632612
16.56765 51.23822 7.4627099
16.576845 51.235447 7.0624518
16.576708 51.222946 6.6615405
16.574108 51.207901 6.261158
16.444313 51.354256 13.607433
16.444485 51.341438 13.1853
16.458595 51.304844 11.519489
16.458891 51.292427 11.1062
16.46335 51.284431 10.695614
16.465231 51.273769 10.285753
16.478144 51.274727 9.8799906
16.502165 51.287369 9.4778404
16.482771 51.254513 9.0668459
16.515459 51.276295 8.6683369
16.511505 51.259697 8.2630615
16.51189 51.247681 7.8597736
16.523506 51.247456 7.4593949
16.54641 51.259064 7.0614381
16.525635 51.224987 6.6575947
16.550545 51.238728 6.261034
16.394554 51.293091 11.508245
16.41268 51.286854 10.688906
16.434856 51.297581 10.284566
16.420551 51.269993 9.8721266
16.417255 51.254028 9.4639893
16.431864 51.256905 9.0611668
16.423504 51.235699 8.6544542
16.4468 51.247753 8.2552519
16.433424 51.221352 7.8499212
16.451805 51.228298 7.4512987
16.447168 51.211128 7.0496054
16.474413 51.227394 6.6534691
16.485504 51.226749 6.2553878
16.343689 51.28373 11.086768
16.349741 51.264942 10.267693
16.355709 51.258705 9.8609467
16.352341 51.242687 9.4532404
16.380491 51.259861 9.0538397
16.385735 51.252968 8.6502066
16.388485 51.243484 8.2471189
16.402431 51.245792 7.8470817
16.413931 51.245552 7.4473081
16.388695 51.206768 7.0425119
16.443331 51.251854 6.6506271
16.399416 51.193535 6.2454281
16.289618 51.272266 10.665998
16.297218 51.255177 9.8507662
16.293806 51.23909 9.4434052
16.301466 51.234711 9.0398617
16.299814 51.220558 8.6354246
16.343443 51.254112 8.240963
16.330013 51.227615 7.8361554
16.327761 51.212921 7.4346027
16.343594 51.217278 7.0368791
16.343287 51.204685 6.6373568
16.354269 51.203976 6.2401428
16.226671 51.276913 11.066631
16.244415 51.28299 10.661095
16.232573 51.257843 10.248931
16.252026 51.265797 9.8462076
16.241837 51.242489 9.437439
16.249489 51.238056 9.0341549
16.261465 51.238213 8.6327953
16.264154 51.228607 8.2304869
16.284853 51.238014 7.8324647
16.289455 51.23048 7.4322352
16.28476 51.213173 7.0314116
16.298162 51.214958 6.6341887
16.295433 51.199776 6.2353721
16.171579 51.265339 10.649777
16.179991 51.26157 10.243389
16.185875 51.255161 9.8375902
16.196022 51.253304 9.4339962
16.190086 51.234474 9.027895
16.20204 51.234592 8.6268806
16.211533 51.232136 8.2262411
16.218569 51.227112 7.8260078
16.216322 51.212315 7.4250631
16.232132 51.216602 7.0279479
16.245531 51.218361 6.6309857
16.256521 51.217598 6.2342072
16.123707 51.234692 9.4244909
16.124498 51.223011 9.020402
16.143187 51.230309 8.6212282
16.159439 51.23505 8.2222557
16.145983 51.208397 7.8185744
16.164162 51.215225 7.4215961
16.173098 51.212303 7.0236783
16.165924 51.192387 6.6241364
16.176853 51.191612 6.2279658
16.063707 51.251549 10.232843
16.072758 51.236103 9.4232435
16.080305 51.23164 9.0209074
16.092169 51.231785 8.6204967
16.081167 51.207729 8.2164927
16.094913 51.20993 7.8183594
16.092592 51.195137 7.4181924
16.115135 51.206688 7.0229201
16.094269 51.172329 6.6217709
16.132524 51.200535 6.2296791
16.021885 51.22607 9.0189552
16.029501 51.2094 8.2165527
16.056839 51.22607 7.8211551
16.061344 51.21854 7.4222236
16.056591 51.201225 7.022697
16.076715 51.210297 6.6277537
16.073942 51.195129 6.2301502
15.969715 51.239708 9.4200296
15.984842 51.218601 8.2161531
15.991759 51.213623 7.8172159
15.989431 51.198849 7.4175663
15.977839 51.174271 7.0174947
15.991091 51.176094 6.6221824
16.008783 51.182648 6.2279453
15.911686 51.208218 8.6074667
15.91421 51.19854 8.2072315
15.921075 51.193512 7.8088136
15.925509 51.185928 7.4108348
15.947954 51.197517 7.0165191
15.947564 51.184845 6.6192517
15.958409 51.184139 6.2242975
15.882192 51.231316 8.6052341
15.898268 51.236088 8.2076464
15.877977 51.202126 7.8041062
15.875585 51.187279 7.4051504
15.87756 51.177113 7.0079026
15.883932 51.171654 6.612133
15.887905 51.163662 6.2167225
15.819546 51.217213 8.5982027
15.828787 51.214733 8.1997232
15.833194 51.194832 7.4028678
15.828351 51.17741 7.0047293
15.855124 51.193722 6.6121511
15.852281 51.178482 6.2158504
15.773096 51.207455 8.1953716
15.779866 51.202404 7.7976451
15.770639 51.18029 7.398057
15.786149 51.184635 7.0035434
15.799278 51.186451 6.6091843
15.789598 51.16394 6.2123399
15.749463 51.208771 7.3992071
15.730993 51.176842 6.9992852
15.744061 51.178677 6.6052728
15.761561 51.185257 6.2123365
15.688592 51.192417 7.3953972
15.697237 51.189552 7.0001645
15.689905 51.169609 6.6033053
15.714161 51.183498 6.2116075
15.620966 51.206604 8.5825367
15.62315 51.184601 7.7857528
15.629187 51.166851 6.9935536
15.655756 51.183262 6.6021032
15.646009 51.160759 6.206038
15.582815 51.203041 8.1793013
15.582667 51.190723 7.7813745
15.586864 51.183105 7.3852124
15.602208 51.187489 6.9916501
15.588053 51.160217 6.5943351
15.535739 51.189133 7.7764764
15.553444 51.196033 7.3828754
15.534927 51.163998 6.9840808
15.551652 51.157818 6.197607
15.499684 51.187504 7.3765616
15.5046 51.156467 6.1932259
15.442185 51.198341 8.1647015
15.444221 51.139824 6.1889887
15.399997 51.153667 6.5794511
15.41051 51.152912 6.1876216
15.353263 51.152111 6.5747261
15.356984 51.144024 6.1822672
15.269501 51.148788 6.1714702
15.165966 51.18552 7.7378502
15.170984 51.154163 6.5575848
15.188161 51.16061 6.16786
15.116768 51.268517 10.527668
15.145834 51.250389 8.9311304
15.1303 51.221077 8.5299177
15.132404 51.211044 8.1337442
15.132111 51.198429 7.7381563
15.122705 51.175919 7.3420372
15.151254 51.194771 6.9531136
15.143829 51.174477 6.5591245
15.140769 51.158962 6.1667337
15.082837 51.255184 9.7237368
15.092392 51.240894 8.9272451
15.083508 51.218884 8.5277843
15.085576 51.20887 8.1318684
15.091952 51.203587 7.7377753
15.109383 51.210388 7.3464251
15.117755 51.207333 6.9541407
15.11705 51.194401 6.5612125
15.127456 51.1936 6.1705985
15.019504 51.273663 10.922516
15.042727 51.286629 10.525244
15.036988 51.26791 10.12118
15.035408 51.253792 9.7197266
15.064672 51.273468 9.3269854
15.058229 51.254101 8.9267416
15.042658 51.224792 8.5259571
15.051394 51.222103 8.1315365
15.071153 51.231487 7.7400017
15.061743 51.209023 7.3439665
15.083514 51.220642 6.9540672
15.089523 51.215069 6.562201
15.099917 51.214302 6.171587
14.965519 51.340946 13.369034
14.977421 51.341274 12.959562
14.973662 51.324432 12.546266
14.978102 51.304066 11.729241
14.979807 51.293396 11.32306
14.992214 51.294518 10.921573
14.995543 51.285717 10.518781
14.989764 51.266972 10.114974
15.008075 51.274685 9.7187815
15.017338 51.272507 9.3212957
15.004192 51.245815 8.9198151
15.008612 51.238407 8.5236025
15.00395 51.221088 8.1266232
15.037045 51.245121 7.7378192
15.027625 51.222652 7.3418703
15.04265 51.226952 6.9509945
15.035193 51.206696 6.5573497
15.032093 51.191227 6.1653042
14.912736 51.463886 17.614403
14.910652 51.434708 16.742121
14.931145 51.417622 15.464145
14.93974 51.400986 14.621223
14.927028 51.374016 14.196142
14.931083 51.365601 13.780066
14.939026 51.36153 13.367401
14.950914 51.361855 12.95793
14.960253 51.359425 12.549166
14.940795 51.325359 12.132419
14.971314 51.346333 11.733896
14.973055 51.335693 11.327459
14.965674 51.315075 10.91994
14.968997 51.306271 10.517149
14.969846 51.294796 10.115095
14.988151 51.302525 9.7188168
14.984111 51.285759 9.3180809
14.984283 51.273655 8.9196777
14.995377 51.273567 8.5247879
14.997413 51.263577 8.1289577
14.997059 51.250999 7.7337146
14.987624 51.228504 7.3379393
15.002619 51.232796 6.9472365
15.008574 51.227211 6.555717
15.012192 51.21909 6.1645608
14.874045 51.526623 19.382877
14.867335 51.505325 18.930319
14.863683 51.473866 18.040302
14.892233 51.491917 17.615522
14.879939 51.464813 17.172251
14.896556 51.469799 16.746181
14.878469 51.436462 16.30588
14.902339 51.449615 15.887908
14.891416 51.424366 15.456283
14.903466 51.424587 15.037245
14.90639 51.414787 14.616385
14.90663 51.402088 14.196597
14.923691 51.40802 13.785476
14.931672 51.403988 13.372558
14.904416 51.361153 12.948729
14.933332 51.380314 12.547016
14.953238 51.389584 12.143354
14.937805 51.359966 11.729651
14.939527 51.3493 11.323299
14.951933 51.350445 10.92164
14.948662 51.334377 10.516839
14.956142 51.330185 10.116453
14.961182 51.323345 9.7166672
14.950496 51.299259 9.314352
14.95731 51.294449 8.9175301
14.96839 51.294353 8.5226393
14.950396 51.262371 8.1228447
14.976749 51.279099 7.7328019
14.980711 51.271275 7.3392386
14.989014 51.268234 6.9472132
14.98156 51.247948 6.5535698
14.971742 51.225101 6.1606369
14.799185 51.795452 29.150408
14.795662 51.758606 28.080751
14.810402 51.576397 21.651133
14.819143 51.57177 21.191233
14.824742 51.563747 20.732775
14.839606 51.566132 20.283327
14.832794 51.544521 19.824051
14.847812 51.547268 19.380909
14.828565 51.512054 18.921316
14.850173 51.522301 18.487762
14.824801 51.480499 18.031628
14.865932 51.512562 17.613552
14.853633 51.485447 17.170282
14.876593 51.497498 16.747316
14.864912 51.471241 16.309956
14.863163 51.45607 15.88006
14.852199 51.430779 15.448603
14.877076 51.445221 15.035275
14.873526 51.428276 14.611727
14.867258 51.408401 14.18942
14.890754 51.421486 13.780986
14.892191 51.410252 13.365717
14.90406 51.410591 12.95616
14.900304 51.393738 12.54278
14.907061 51.388538 12.134842
14.917855 51.387848 11.729774
14.912995 51.369938 11.321328
14.92538 51.371086 10.919669
14.922098 51.355015 10.514868
14.909705 51.328957 10.109224
14.927954 51.336685 9.7130289
14.937176 51.334503 9.3155422
14.943993 51.329712 8.9185467
14.941751 51.314991 8.5206671
14.947338 51.284561 7.3361182
14.955614 51.281521 6.9441786
14.954849 51.268578 6.5515976
14.778708 51.837151 29.693611
14.785899 51.828514 29.157911
14.783806 51.714062 25.51746
14.789403 51.704937 25.022522
14.821259 51.725304 24.551798
14.783967 51.668526 24.03381
14.790974 51.661388 23.553253
14.797591 51.610191 21.656317
14.830931 51.632992 21.211941
14.811974 51.59763 20.737638
14.820661 51.59317 20.284267
14.826284 51.5854 19.83227
14.835099 51.58128 19.385284
14.784589 51.511284 18.907949
14.799813 51.514492 18.471205
14.812171 51.514595 18.035515
14.81535 51.504585 17.597651
14.828334 51.505543 17.167463
14.825801 51.489357 16.732077
14.839562 51.491329 16.307137
14.82499 51.461956 15.871365
14.813976 51.436611 15.440075
14.851656 51.465298 15.032454
14.835176 51.434044 14.603534
14.854749 51.442783 14.191808
14.858774 51.434368 13.775647
14.879687 51.444695 13.367765
14.885039 51.437859 12.955688
14.881281 51.421005 12.542224
14.888026 51.415817 12.1342
14.893945 51.397228 11.320517
14.896425 51.375038 10.512047
14.897249 51.363548 10.109908
14.902238 51.356697 9.7102079
14.904798 51.347206 9.3111401
14.794154 51.759144 25.041374
14.766511 51.712967 24.525509
14.770979 51.702877 24.038692
14.802054 51.722675 23.575251
14.721277 51.602886 22.56004
14.74841 51.618641 22.105707
14.772474 51.631065 21.652409
14.799621 51.647022 21.204109
14.792953 51.625355 20.73757
14.809813 51.602089 19.381374
14.753056 51.525078 18.90053
14.774497 51.535244 18.4673
14.774221 51.521328 18.024906
14.796287 51.532341 17.597015
14.815594 51.540359 17.169931
14.825794 51.538322 16.740587
14.831481 51.518135 15.882148
14.820539 51.492855 15.450442
14.806787 51.464539 15.020237
14.822495 51.468975 14.605002
14.829126 51.463406 14.187901
14.833122 51.454979 13.771741
14.847496 51.458103 13.361423
14.738925 51.762466 25.515871
14.752505 51.74704 24.53215
14.7641 51.729923 23.564308
14.683281 51.609928 22.549419
14.704259 51.618824 22.091166
14.758785 51.665318 21.658108
14.779348 51.659672 20.742945
14.727167 51.545521 18.898233
14.717231 51.520729 18.447836
14.735732 51.527721 18.015907
14.77037 51.552753 17.594717
14.748728 51.449123 15.004093
14.77723 51.467785 14.594649
14.790269 51.469326 14.180403
14.800711 51.468037 13.766929
14.663348 51.638256 22.550348
14.653935 51.613102 22.071619
14.720541 51.673164 21.646872
14.688707 51.552826 18.88798
14.697546 51.548927 18.448046
14.716062 51.555912 18.016033
14.70353 51.448605 14.992569
14.75129 51.488686 14.591431
14.744951 51.468662 14.169381
14.595487 51.612221 22.517097
14.622355 51.627724 22.063396
14.688879 51.687771 21.638723
14.650636 51.560055 18.876814
14.66568 51.563084 18.440475
14.677867 51.563004 18.005196
14.66502 51.455166 14.982903
14.699829 51.480881 14.576558
14.71278 51.4823 14.162647
14.5419 51.705982 25.9137
14.564428 51.625195 22.510778
14.573033 51.62022 22.044922
14.563194 51.509895 18.839521
14.628079 51.568733 18.43145
14.621373 51.547527 17.986286
14.648973 51.471722 14.563663
14.505101 51.711838 25.90361
14.515142 51.617092 22.493469
14.51757 51.605198 22.023851
14.519377 51.508022 18.828302
14.577894 51.559834 18.417044
14.564833 51.531513 17.968859
14.623785 51.490875 14.56298
14.627542 51.469143 13.729059
14.467871 51.717857 25.893562
14.471528 51.615898 22.480358
14.455693 51.583447 21.998747
14.481463 51.513222 18.820639
14.533651 51.558014 18.406113
14.545625 51.557751 17.971569
14.566193 51.474186 14.548923
14.576248 51.459507 13.71836
14.424543 51.717091 25.879135
14.48311 51.548866 18.392046
14.488741 51.541477 17.954481
14.502243 51.449924 14.532461
14.534226 51.47271 14.127609
14.531476 51.456684 13.710451
14.547013 51.372547 10.454286
14.371205 51.710655 25.858557
14.367642 51.600441 22.444941
14.394031 51.615589 21.992498
14.465587 51.582954 18.39698
14.439946 51.540405 17.942495
14.488941 51.501804 14.957681
14.484882 51.471176 14.117777
14.503812 51.377987 10.448489
14.298128 51.83218 30.025267
14.309245 51.713352 25.838053
14.299632 51.595695 22.42201
14.301774 51.583397 21.953588
14.366157 51.542233 18.359922
14.396734 51.562874 17.936335
14.388675 51.459675 14.926701
14.429437 51.479187 14.106537
14.435616 51.371056 10.435229
14.251303 51.823044 30.005566
14.261515 51.703426 25.820761
14.281319 51.619236 22.427694
14.301633 51.627514 21.971426
14.271317 51.4935 18.764521
14.329386 51.545151 18.35458
14.347402 51.551693 17.924458
14.345254 51.455292 14.919912
14.386064 51.488022 14.517849
14.372108 51.344482 10.425732
14.210284 51.818645 29.993105
14.237264 51.718647 25.824215
14.23902 51.614414 22.418661
14.235078 51.595303 21.946316
14.234683 51.495544 18.760923
14.317582 51.575356 18.364882
14.291887 51.532642 17.911139
14.308236 51.457489 14.917798
14.34879 51.477028 14.098477
14.360952 51.376255 10.432815
14.224434 51.74577 25.838995
14.196655 51.608292 22.411531
14.204737 51.602863 21.947584
14.256042 51.548111 18.349625
14.236503 51.512379 17.899721
14.265059 51.451366 14.914817
14.29935 51.476967 14.510496
14.311933 51.478168 14.098606
14.310909 51.363007 10.430786
14.15112 51.583038 21.931301
14.238829 51.570084 18.357178
14.219331 51.534416 17.907187
14.216172 51.437996 14.907836
14.243986 51.456398 14.501166
14.266418 51.455933 13.679008
14.281014 51.371662 10.433042
14.089463 51.802402 29.956619
14.13763 51.728214 25.811962
14.120559 51.603748 22.396624
14.134531 51.605156 21.937153
14.218039 51.685673 21.527069
14.133446 51.505711 18.754547
14.172581 51.536423 18.334896
14.196593 51.550068 17.908949
14.193382 51.453911 14.909591
14.227557 51.479576 14.50561
14.240054 51.480816 14.094056
14.230732 51.457504 13.675722
14.120395 51.750328 25.818148
14.079576 51.598885 22.385611
14.087445 51.593391 21.922295
14.137211 51.538197 18.329493
14.148708 51.537704 17.897003
14.138648 51.433968 14.897193
14.179104 51.466801 14.496321
14.197932 51.475235 14.087708
14.19499 51.459137 13.672146
14.176476 51.338165 10.4197
14.050967 51.713528 25.780918
14.050691 51.608418 22.381886
14.108135 51.547626 18.326494
14.107155 51.53299 17.887379
14.090383 51.421707 14.886538
14.156264 51.483376 14.496756
14.136714 51.448429 14.072517
14.159328 51.461235 13.667541
14.153696 51.354813 10.420131
14.04638 51.749443 25.794739
14.006462 51.584591 21.897934
14.055123 51.528419 18.309008
14.072712 51.534897 17.880363
14.055698 51.423355 14.880685
14.102382 51.463367 14.483005
14.095545 51.442806 14.064396
14.118099 51.455582 13.659672
14.105632 51.341499 10.412466
14.006831 51.745003 25.781157
13.964687 51.592098 22.352989
13.978368 51.5933 21.894392
14.033053 51.544113 18.309547
14.019537 51.515236 17.864136
14.001901 51.403103 14.86736
14.067584 51.464737 14.478166
14.073498 51.45863 14.064933
14.070428 51.442406 13.650129
14.077104 51.350063 10.411162
13.978925 51.754189 25.776598
13.93819 51.58865 21.882292
13.998429 51.546124 18.302818
14.00352 51.538448 17.86763
13.960589 51.397701 14.859181
14.026173 51.459339 14.470239
14.044792 51.46769 14.062468
14.028905 51.436947 13.642707
14.048216 51.359142 10.409457
13.940128 51.519592 18.281185
13.957507 51.525959 17.853197
13.914019 51.38467 14.847074
14.004934 51.475204 14.469218
13.985262 51.440083 14.04582
14.007651 51.452816 13.641686
13.994361 51.338192 10.399241
13.865787 51.587013 21.858305
13.867783 51.491745 18.689938
13.900168 51.515202 18.268324
13.917467 51.521496 17.84058
13.892589 51.401302 14.844523
13.958008 51.462933 14.45591
13.9574 51.449471 14.040662
13.966971 51.447647 13.631572
13.959813 51.339924 10.393014
13.831383 51.591267 21.84746
13.883994 51.540024 18.269081
13.851681 51.489594 17.814436
13.889316 51.440453 14.850168
13.910273 51.451466 14.442488
13.92872 51.459671 14.035387
13.925503 51.443264 13.621344
13.924578 51.342346 10.386676
13.797639 51.594482 21.837551
13.819045 51.507332 18.243298
13.873415 51.556026 17.836159
13.804373 51.384819 14.820723
13.875957 51.453598 14.435376
13.900735 51.469017 14.031046
13.878366 51.430744 13.609532
13.903055 51.358742 10.384944
13.752463 51.583225 21.819727
13.759373 51.493248 18.659409
13.797731 51.523624 18.241795
13.821076 51.536861 17.817894
13.854512 51.469902 14.43387
13.828363 51.427235 14.008719
13.850521 51.43977 13.605509
13.855534 51.345512 10.376089
13.719357 51.584274 21.812315
13.751781 51.510406 18.228802
13.768822 51.516499 17.801878
13.748977 51.401943 14.814414
13.78236 51.427296 14.413113
13.800593 51.435371 14.006852
13.803585 51.42609 13.59617
13.814539 51.33902 10.371305
13.724563 51.517677 18.227507
13.72919 51.509594 17.793959
13.773909 51.456543 14.420618
13.75403 51.421085 13.99857
13.76969 51.42635 13.593263
13.767403 51.324608 10.366076
13.670988 51.607517 21.809477
13.66486 51.503513 18.643803
13.696839 51.52684 18.223166
13.682875 51.497425 17.779642
13.680924 51.403996 14.80455
13.726844 51.443882 14.408958
13.725948 51.430176 13.995056
13.7543 51.450024 13.59487
13.739055 51.333675 10.363325
13.643703 51.519779 18.642378
13.620224 51.479305 18.190832
13.661697 51.513687 17.778217
13.705603 51.460117 14.407533
13.698357 51.439133 13.991029
13.694859 51.422508 13.578334
13.69187 51.320271 10.354551
13.591731 51.500889 18.623446
13.623559 51.524128 18.203213
13.609505 51.494572 17.760103
13.621012 51.403881 14.379313
13.632633 51.404556 13.971457
13.654458 51.417 13.569426
13.664083 51.329166 10.351363
13.541077 51.581722 21.759747
13.563751 51.51104 18.617868
13.564774 51.498775 18.180552
13.599974 51.52602 17.764744
13.618039 51.442806 14.385312
13.604344 51.414391 13.966796
13.63884 51.441418 13.569882
13.629124 51.33139 10.345632
13.672016 51.356258 9.5675182
13.538214 51.618313 21.771093
13.537779 51.50758 18.176222
13.554421 51.513462 17.750444
13.552855 51.407883 14.365613
13.56438 51.408501 13.958093
13.586097 51.420895 13.556396
13.582225 51.31778 10.337386
13.633873 51.364872 9.956459
13.469782 51.578777 21.737612
13.497594 51.51445 18.60207
13.516939 51.523426 18.175377
13.515068 51.507946 17.739546
13.538221 51.431072 14.367451
13.549745 51.431717 13.959846
13.539723 51.407612 13.545479
13.548243 51.318951 10.332864
13.599823 51.366058 9.9521065
13.590906 51.343761 9.5557785
13.436175 51.581375 21.728849
13.463677 51.516705 18.594437
13.458416 51.497215 18.154177
13.456425 51.481606 17.718838
13.49763 51.425655 14.358791
13.502775 51.418964 13.948838
13.530751 51.438652 13.549911
13.507257 51.313099 10.326754
13.565237 51.36763 9.9480038
13.562782 51.352745 9.5535116
13.564457 51.34264 9.1614141
13.448791 51.540295 18.596231
13.425153 51.499466 18.145592
13.435441 51.498062 17.717117
13.445143 51.405575 14.343649
13.481816 51.43528 13.947122
13.471754 51.411079 13.533093
13.486348 51.329258 10.325043
13.524918 51.361511 9.94104
13.522436 51.346577 9.5468063
13.517602 51.328979 9.1533899
13.523405 51.323647 8.7638044
13.418828 51.644478 21.73703
13.37357 51.494781 18.55821
13.398796 51.510605 18.135765
13.390588 51.487709 17.697327
13.412191 51.408703 14.3319
13.423527 51.409126 13.925136
13.451365 51.428677 13.52671
13.459411 51.338966 10.316836
13.488964 51.348724 9.5371056
13.4841 51.331047 9.1438637
13.496356 51.333107 8.7559414
13.369918 51.506149 17.691174
13.352586 51.394272 14.722215
13.37265 51.404697 14.317713
13.4155 51.44154 13.924194
13.405379 51.417133 13.51051
13.400131 51.311592 10.299711
13.445014 51.351131 9.9180441
13.436 51.328556 9.5226707
13.456983 51.340588 9.1361628
13.364599 51.435913 14.320158
13.319136 51.37043 13.890098
13.359448 51.404396 13.497537
13.373184 51.320404 10.29497
13.418042 51.359917 9.9133854
13.415494 51.344742 9.5197601
13.423539 51.341824 9.1301022
13.422809 51.328823 8.7394619
13.249847 51.586384 22.115252
13.267538 51.467762 17.65263
13.293961 51.3936 14.29656
13.311438 51.401093 13.89315
13.301173 51.376469 13.480314
13.346305 51.32896 10.290995
13.365337 51.338699 9.9025087
13.375634 51.338375 9.5126343
13.383631 51.335426 9.1232347
13.254512 51.371929 13.875957
13.244143 51.347206 13.463628
13.27561 51.284222 10.274729
13.320282 51.323685 9.8939123
13.311161 51.300949 9.499402
13.331986 51.312878 9.1137514
13.350564 51.322227 8.7282629
13.242983 51.271564 9.8764191
13.259543 51.278576 9.4893208
13.228635 51.23069 9.0915136
13.279395 51.277336 8.7145805
13.191196 51.249611 9.8656807
13.200687 51.176384 7.1562047
13.199757 51.151531 6.3904963
10.882915 52.046604 37.777039
10.874088 51.973927 35.873844
10.880093 51.922913 34.070858
10.901035 51.930691 33.509029
10.907858 51.920628 32.937584
10.905405 51.898945 32.362808
10.903716 51.878479 31.796436
10.928347 51.891876 31.266558
10.903118 51.841805 30.688316
10.904453 51.825882 30.14628
10.917399 51.824982 29.622921
10.910984 51.799591 29.085505
10.916411 51.789497 28.566452
10.918159 51.774902 28.04954
10.921551 51.762589 27.539961
10.910704 51.732338 27.022375
10.939062 51.752132 26.547127
10.921126 51.713226 26.033941
10.937477 51.718063 25.557167
10.923399 51.684406 25.058199
10.938675 51.688175 24.589697
10.943306 51.66325 23.643774
10.921441 51.620358 23.15803
10.93527 51.622845 22.705315
10.94055 51.614624 22.249733
10.942842 51.602753 21.795773
10.955555 51.589649 20.905066
10.949065 51.567032 20.456022
10.951092 51.555298 20.016569
10.950309 51.540127 19.578651
10.958256 51.536083 19.149767
10.946161 51.506847 18.711241
10.966086 51.518116 18.295937
10.965998 51.50423 17.871071
10.969104 51.494465 17.451029
10.969614 51.481522 17.032286
10.967541 51.465412 16.61488
10.968801 51.453587 16.202003
10.973463 51.446129 15.793451
10.975655 51.435638 15.386021
10.963474 51.407154 14.973937
10.978646 51.413132 14.577493
10.967524 51.386139 14.170825
10.983975 51.393852 13.778865
10.980077 51.376076 13.379826
10.973809 51.355392 12.981956
10.983339 51.354595 12.592494
10.978477 51.335804 12.199131
10.965227 51.306561 11.804642
10.986211 51.320278 11.424335
10.98672 51.308392 11.038165
10.985002 51.293762 10.652857
10.999455 51.299427 10.274112
11.005626 51.294762 9.8939734
10.985027 51.25666 9.5075769
10.993009 51.254345 9.1306734
11.011211 51.264839 8.7573643
11.002603 51.241863 8.3784046
11.004228 51.231712 8.0031013
11.009945 51.2267 7.6296768
11.007367 51.211369 7.2555022
11.015126 51.208961 6.8842077
11.0146 51.196243 6.5122209
11.00577 51.17321 6.1398315
10.818535 52.075981 39.043453
10.848582 52.071873 37.775452
10.830138 52.027191 37.110577
10.835076 52.012932 36.486908
10.840005 51.998959 35.872265
10.84021 51.979198 35.260391
10.86013 51.985043 34.681728
10.841314 51.941418 34.063286
10.872172 51.961807 33.51339
10.869126 51.938942 32.930153
10.871732 51.923576 32.361244
10.885262 51.922436 31.812031
10.869383 51.883877 31.236757
10.85432 51.846607 30.670033
10.881349 51.863396 30.155729
10.899584 51.869129 29.637655
10.893335 51.843777 29.100019
10.909386 51.847095 28.591312
10.911346 51.832615 28.07403
10.883172 51.779892 27.533279
10.89367 51.776684 27.036005
10.900733 51.769264 26.5406
10.888233 51.737099 26.0324
10.893808 51.728123 25.545963
10.885189 51.701244 25.051905
10.900482 51.704941 24.583483
10.907164 51.69783 24.111992
10.91069 51.686852 23.642239
10.916622 51.67907 23.17872
10.90835 51.653393 22.708151
10.919298 51.652245 22.256779
10.916078 51.633251 21.798454
10.921125 51.624866 21.35022
10.928937 51.620106 20.907591
10.922533 51.597454 20.458469
10.930347 51.592922 20.022827
10.929665 51.577747 19.584749
10.931946 51.566429 19.151978
10.948823 51.573669 18.731607
10.963109 51.577717 18.312248
10.95154 51.549194 17.880009
10.954757 51.539452 17.459723
10.94952 51.519127 17.037415
10.929908 51.480762 16.610132
10.948888 51.491177 16.206806
10.941804 51.4688 15.791945
10.944045 51.45826 15.384517
10.949779 51.452198 14.981151
10.965035 51.458199 14.584456
10.942059 51.416138 14.172064
10.952559 51.416286 13.777367
10.95473 51.406021 13.380898
10.960595 51.400463 12.987917
10.952072 51.376884 12.591001
10.959383 51.37326 12.202271
10.964443 51.366867 11.814306
10.961174 51.350067 11.424992
10.967844 51.345798 11.040798
10.966201 51.331146 10.65532
10.980711 51.3368 10.276404
10.980811 51.324429 9.8942928
10.984878 51.31707 9.5146837
10.980637 51.299351 9.1340876
10.986565 51.294403 8.7574291
10.996552 51.294567 8.3827639
10.992073 51.276669 8.005743
10.985469 51.256153 7.629487
10.995354 51.256283 7.2576275
10.984545 51.230583 6.8827338
10.996499 51.233349 6.5128016
10.993963 51.218044 6.1411805
10.77147 52.036171 37.737789
10.786277 52.013794 36.487984
10.772023 51.975155 35.848629
10.79634 51.986477 35.267876
10.782187 51.948559 34.646767
10.788953 51.918667 33.47361
10.81558 51.93396 32.926182
10.798155 51.892918 32.334309
10.791378 51.865807 31.762709
10.810792 51.87252 31.227764
10.816151 51.861423 30.683626
10.827835 51.858643 30.152817
10.83055 51.844578 29.618668
10.834626 51.832458 29.092184
10.824488 51.802361 28.55735
10.831534 51.794437 28.045944
10.813837 51.755081 27.516043
10.83488 51.7654 27.029341
10.841914 51.757992 26.534237
10.845537 51.746395 26.041059
10.840366 51.723755 25.545031
10.842628 51.710754 25.060707
10.841596 51.69371 24.578325
10.837287 51.672653 24.097937
10.862781 51.689678 23.646748
10.846601 51.653805 23.165594
10.866079 51.663429 22.717331
10.877077 51.662392 22.266039
10.857093 51.622116 21.795155
10.85649 51.606602 21.343103
10.86426 51.601837 20.900873
10.874875 51.600796 20.464062
10.865607 51.574642 20.016903
10.882076 51.581238 19.590658
10.895889 51.58456 19.165508
10.88975 51.562706 18.730541
10.886644 51.544804 18.300808
10.904083 51.552998 17.886564
10.895673 51.52858 17.459629
10.902145 51.523075 17.044289
10.911949 51.52187 16.63336
10.895708 51.487835 16.210846
10.906379 51.487888 15.80545
10.896844 51.462509 15.392035
10.914499 51.471523 14.994652
10.905976 51.447582 14.586663
10.900966 51.42815 14.182814
10.923498 51.443508 13.793515
10.907735 51.410664 13.389242
10.907615 51.397606 12.99394
10.905171 51.381683 12.599673
10.918571 51.385765 12.213433
10.935818 51.394726 11.83002
10.920482 51.362762 11.436317
10.933296 51.366249 11.054274
10.937834 51.359379 10.67077
10.940179 51.3498 10.287987
10.94034 51.337524 9.9059572
10.950603 51.337971 9.5281534
10.952589 51.328068 9.1491871
10.952434 51.315517 8.7708931
10.956311 51.308064 8.3947668
10.958078 51.298 8.0192032
10.951553 51.277584 7.6429405
10.973888 51.293343 7.273489
10.969381 51.275513 6.8995295
10.968995 51.262875 6.5272808
10.96654 51.247677 6.1555681
10.781791 52.145111 39.091911
10.745923 52.077274 38.381672
10.813045 52.122101 37.183205
10.808825 52.096142 36.546295
10.809255 52.076488 35.924896
10.81457 52.063427 35.31868
10.815269 52.044693 34.715172
10.826092 52.039268 34.132462
10.817739 52.009411 33.534401
10.834683 52.012367 32.974468
10.822495 51.978096 32.387753
10.825473 51.94545 31.268476
10.852483 51.875839 28.088346
10.874217 51.684757 21.371662
10.888474 51.183861 5.4047551
10.873539 51.153202 5.0346675
10.873232 51.233372 5.7568583
10.888846 51.228889 5.0206513
10.615597 52.092793 39.599033
10.826917 51.240803 5.7588997
10.564577 52.099236 39.609924
10.577824 52.164246 39.660034
10.537299 52.171074 39.618282
10.855789 51.762089 24.524372
10.856263 51.72818 23.189091
10.859103 51.696854 21.869638
10.8529 51.760765 25.180252
10.878907 51.695572 21.859444
10.86626 51.614155 19.252636
10.881362 51.542725 16.070736
10.852624 51.75975 25.849586
10.879975 51.747898 24.509098
10.906269 51.699131 21.859966
10.879679 51.550308 17.325472
10.903274 51.537224 16.064795
10.881593 51.465561 14.176042
10.90803 51.797779 26.576027
10.869005 51.72419 25.195484
10.946894 51.777512 24.554953
10.882531 51.644806 21.866341
10.921603 51.626842 19.921686
10.913455 51.566147 17.987499
10.931604 51.547749 16.719097
10.938506 51.399303 11.100212
10.877776 51.751945 27.264654
10.882474 51.699833 25.216324
10.946563 51.740299 24.569344
10.978125 51.750874 23.910894
10.941721 51.698967 23.227545
10.939121 51.660114 21.901886
10.973433 51.673584 21.257685
10.935546 51.585052 19.292437
10.964184 51.575958 18.015745
10.967003 51.705345 23.907654
10.963586 51.646751 21.912306
11.020552 51.450153 12.983185
10.921812 51.647072 23.872179
11.033576 51.730431 23.249969
10.961043 51.625896 21.894236
11.025703 51.591717 18.659134
11.021435 51.532784 16.737631
11.037362 51.474953 14.216343
11.04917 51.449898 12.969023
10.966272 51.619385 21.860689
11.031449 51.582184 18.624361
11.012965 51.508286 16.698065
11.077581 51.455002 12.936668
11.056639 51.655704 21.20228
11.069093 51.529842 16.679451
11.062921 51.562935 19.96339
11.150431 51.526546 16.129322
11.247924 51.525852 15.645445
11.227131 51.471806 14.374312
11.237232 51.428421 12.493424
11.255546 51.63192 20.1838
11.252577 51.589554 18.848093
11.247631 51.62608 20.139034
11.153916 51.632473 23.427149
11.211327 51.638115 20.047878
11.203486 51.540039 16.796383
11.079421 51.672077 23.906958
11.11419 51.647446 20.584677
11.082444 51.5131 16.667072
10.974888 51.597103 21.891148
11.082243 51.463451 13.50441
10.967841 51.693928 23.920616
11.036016 51.467514 13.501302
10.909246 51.772247 26.632395
10.973969 51.715908 22.5667
10.904042 51.616413 21.206547
10.965914 51.616417 19.25182
10.79137 51.710758 23.837114
28.899599 51.067501 1.4425074
28.859848 51.058102 1.2325348
28.844013 51.062962 1.0185287
28.801104 51.051678 0.80918163
28.67849 51.059826 1.4619764
28.655834 51.060596 1.2505915
28.614622 51.050243 1.0422789
28.588795 51.049129 0.83125859
28.423681 51.046703 1.2670902
28.391083 51.041344 1.058769
28.340031 51.024818 0.85389066
27.970287 51.019684 1.2876022
27.938028 51.013794 1.0821587
27.747009 51.007195 1.2981508
27.698076 50.9907 1.0971464
27.526365 50.992722 1.3229192
27.494473 50.986511 1.120257
28.505695 51.440121 14.604528
28.534908 51.468121 16.19846
28.510349 51.470795 15.92969
28.491289 51.476608 15.666186
28.469965 51.480907 15.403762
28.532244 51.469555 17.859215
28.514515 51.47747 17.579266
28.494289 51.483707 17.300503
28.454126 51.495815 16.751043
28.434288 51.501751 16.480249
28.40431 51.501431 16.206387
28.520525 51.482864 19.317223
28.485973 51.4818 19.011526
28.47847 51.496635 18.727146
28.43837 51.491802 18.424442
28.425629 51.503101 18.142519
28.41036 51.512703 17.861719
28.36216 51.50235 17.563614
28.357044 51.517662 17.294544
28.326574 51.517555 17.013
28.301291 51.520378 16.737247
28.258116 51.512218 16.454165
28.220165 51.507011 16.176933
28.460436 51.510319 20.212139
28.434343 51.514839 19.902361
28.397982 51.512978 19.588955
28.373447 51.517937 19.287403
28.368401 51.534355 19.002295
28.308546 51.517673 18.683754
28.290644 51.525936 18.396418
28.285196 51.541508 18.119873
28.21681 51.51894 17.806747
28.168259 51.50808 17.50971
28.147474 51.513775 17.232643
28.116575 51.513165 16.952337
28.075493 51.50618 16.66906
28.047298 51.506821 16.39599
28.001219 51.496395 16.115786
27.932785 51.48941 15.576663
27.895044 51.483494 15.309196
27.847128 51.47118 15.039253
28.444777 51.550819 21.469893
28.373274 51.529003 21.110277
28.341366 51.530506 20.785852
28.328053 51.542877 20.479242
28.290047 51.540203 20.158045
28.270903 51.548588 19.854296
28.263618 51.563885 19.562222
28.216766 51.555126 19.245893
28.152088 51.535336 18.921473
28.106649 51.526886 18.614058
28.050856 51.511913 18.303625
28.037235 51.522251 18.023829
27.990927 51.512554 17.726393
27.949459 51.505566 17.435356
27.920561 51.506012 17.155062
27.866238 51.490753 16.862768
27.862942 51.506432 16.603041
27.803518 51.487637 16.314005
27.764664 51.481209 16.039597
27.723385 51.473103 15.766701
27.710844 51.482452 15.511614
27.672701 51.475922 15.245498
27.640087 51.472618 14.984729
27.605236 51.46777 14.725267
27.568165 51.461388 14.467141
28.354181 51.566368 22.415295
28.313848 51.563675 22.067484
28.270075 51.558594 21.721638
28.215778 51.546879 21.372213
28.179464 51.545647 21.041542
28.154316 51.550854 20.723572
28.111696 51.545258 20.396421
28.073181 51.541859 20.076464
28.060795 51.554005 19.779188
28.009008 51.542053 19.457405
27.954149 51.527958 19.137638
27.918444 51.525223 18.834927
27.872488 51.516014 18.528938
27.846077 51.518467 18.239325
27.802027 51.509941 17.941582
27.762764 51.504108 17.650288
27.728409 51.50106 17.365244
27.676289 51.486912 17.072638
27.636747 51.480251 16.790812
27.625301 51.490665 16.528099
27.573154 51.475861 16.244846
27.541607 51.473545 15.976073
27.515448 51.474377 15.712806
27.471472 51.464027 15.442631
27.448519 51.466503 15.185996
27.40773 51.457775 14.92267
27.372517 51.452328 14.664645
28.230762 51.5937 22.720011
28.158726 51.572006 22.341944
28.124937 51.57296 22.000919
28.087801 51.571583 21.661722
27.990576 51.533596 21.279665
27.989321 51.55328 20.977953
27.949394 51.549301 20.650101
27.891886 51.534363 20.31336
27.845583 51.525925 19.989414
27.818016 51.528618 19.68309
27.772943 51.52039 19.368002
27.739586 51.519051 19.064943
27.703405 51.515747 18.763498
27.657001 51.505939 18.458778
27.615208 51.498714 18.160748
27.578146 51.49416 17.869213
27.53842 51.487743 17.579287
27.480947 51.470169 17.281759
27.443476 51.464691 16.999844
27.449142 51.485664 16.746267
27.368591 51.453163 16.445091
27.361963 51.466194 16.189392
27.330053 51.463398 15.921867
27.288076 51.454174 15.651556
27.243723 51.443279 15.382795
27.212582 51.440426 15.123596
27.171406 51.431152 14.861777
27.151472 51.434967 14.612926
27.113731 51.427513 14.357598
27.895182 51.55138 21.898951
27.716793 51.525204 20.553875
27.665821 51.514011 20.223963
27.633354 51.513836 19.912012
27.576128 51.498238 19.586033
27.552284 51.502823 19.28796
27.511002 51.496464 18.981163
27.474215 51.492619 18.681141
27.434641 51.486816 18.382776
27.377424 51.469887 18.076403
27.362179 51.478638 17.800714
27.306948 51.462456 17.502687
27.279112 51.463005 17.2251
27.226089 51.447727 16.935249
27.19322 51.44474 16.660667
27.173166 51.449539 16.396297
27.143154 51.447964 16.128771
27.103109 51.439949 15.858348
27.052973 51.425434 15.5853
27.046871 51.438274 15.338403
26.992086 51.420483 15.068336
26.958317 51.415672 14.811781
26.937994 51.419147 14.564213
26.899902 51.411308 14.310168
27.428719 51.504757 19.839548
27.332031 51.483784 19.207548
27.326809 51.499538 18.927494
27.252819 51.472534 18.603418
27.205296 51.461636 18.301477
27.192101 51.47179 18.025658
27.146601 51.461678 17.731853
27.090906 51.444984 17.435118
27.04752 51.435711 17.14959
27.031763 51.443466 16.883932
27.006098 51.444859 16.614902
26.955217 51.430286 16.333984
26.924746 51.428288 16.067785
26.884274 51.419827 15.798696
26.849134 51.414532 15.535291
26.83489 51.422207 15.285512
26.795271 51.41375 15.024699
26.761179 51.408607 14.769259
27.272728 51.508099 20.088036
27.134533 51.480495 19.143173
26.999157 51.452236 18.235519
26.955814 51.443424 17.941486
26.932102 51.446655 17.663536
26.89094 51.438759 17.377493
26.847178 51.429005 17.093109
26.81592 51.426884 16.819511
26.812513 51.442089 16.56521
26.753725 51.422268 16.280977
26.753408 51.439091 16.033205
26.735687 51.444794 15.777678
26.818548 51.46241 18.190018
26.767534 51.448509 17.892023
26.758352 51.460686 17.62462
26.724422 51.457092 17.344112
26.717949 51.470619 17.083628
26.686638 51.468288 16.810406
26.69651 51.469189 18.719379
26.687235 51.481827 18.444031
26.690203 51.502007 18.17963
26.661316 51.501881 17.896582
26.644703 51.509319 17.624546
26.70203 51.51009 19.901402
26.681637 51.516628 19.605337
26.665703 51.525749 19.315895
26.632643 51.523827 19.017393
26.6259 51.538322 18.740856
26.655275 51.533829 20.798693
26.621979 51.533005 20.482178
26.606911 51.543427 20.183752
26.603304 51.560863 19.897413
26.56847 51.558296 19.590872
26.617306 51.561996 21.735357
26.59297 51.567654 21.41432
26.565554 51.571075 21.094868
26.556065 51.585571 20.793863
26.529703 51.589119 20.483028
26.560204 51.578407 22.689892
26.558628 51.599247 22.376545
26.540419 51.609291 22.052599
26.525957 51.621426 21.735977
26.515385 51.635757 21.426506
24.849804 51.324009 9.3898993
26.525446 51.611519 23.704176
26.526634 51.63496 23.380674
26.504625 51.643421 23.040066
26.486006 51.653709 22.707138
26.500849 51.650387 24.766834
26.492437 51.668686 24.420023
26.487148 51.688633 24.080975
26.478537 51.70615 23.743303
26.525337 51.688213 26.28244
26.499891 51.697224 25.895987
26.483215 51.711372 25.524584
26.482021 51.734962 25.174393
26.439224 51.748989 26.290239
26.29163 51.767822 26.245407
25.786161 51.610222 23.355785
26.134644 51.779129 26.186707
25.666143 51.643829 23.33947
22.755766 51.156075 3.8960562
22.750017 51.164574 3.7167892
22.734934 51.166267 3.5381041
22.916134 51.216244 8.0722113
22.8738 51.210838 7.6981702
22.862688 51.215321 7.5138559
22.858311 51.224636 7.3310199
22.84458 51.227161 7.1472759
22.837603 51.234539 6.9648652
22.837395 51.246807 6.7835431
22.875422 51.232105 9.1957436
22.859177 51.232952 9.0050077
22.849514 51.238487 8.8166599
22.830505 51.237228 8.6269436
22.826103 51.246464 8.4411469
22.828365 51.26049 8.2571831
22.829315 51.273544 8.0733099
22.820938 51.279812 7.8881283
22.886238 51.254196 10.749331
22.865765 51.2523 10.549438
22.851641 51.25489 10.352817
22.836052 51.256359 10.156795
22.834772 51.26807 9.9660959
22.8321 51.278728 9.775691
22.812214 51.276909 9.5812283
22.814663 51.291172 9.3937292
22.807823 51.298676 9.2043867
22.8155 51.31665 9.0192585
22.834881 51.282322 11.55337
22.820518 51.284973 11.350986
22.827944 51.303234 11.157857
22.810566 51.303562 10.956595
22.807281 51.313988 10.761432
22.794725 51.317654 10.564055
22.796375 51.331524 10.372308
22.796621 51.344334 10.18082
22.779726 51.344673 9.9849014
22.7337 51.336262 9.5927906
22.829039 51.316067 12.809797
22.816668 51.320534 12.599971
22.802662 51.32373 12.39087
22.81769 51.347759 12.195625
22.808208 51.354057 11.990902
22.820274 51.375835 11.796135
22.800001 51.374187 11.589391
22.737476 51.36747 10.976953
22.695349 51.349602 10.768141
22.690662 51.358826 10.57362
22.661064 51.349873 10.371931
22.629946 51.339722 10.171178
22.613026 51.339825 9.9760942
22.594664 51.33881 9.7816448
22.574867 51.336678 9.5878448
22.802351 51.358833 13.692338
22.811901 51.379345 13.487029
22.804789 51.387775 13.274654
22.811136 51.405823 13.070164
22.793163 51.406235 12.855441
22.587788 51.373722 10.975531
22.514635 51.332897 10.756548
22.509892 51.341892 10.563031
22.488104 51.338364 10.364861
22.472658 51.339401 10.169909
22.455769 51.33931 9.9755735
22.429594 51.33234 9.7795916
22.373955 51.327805 9.2047348
22.776808 51.389698 14.826249
22.772856 51.400913 14.605615
22.752329 51.400074 14.377471
22.729935 51.397755 14.150359
22.698233 51.388584 13.920362
22.702017 51.404934 13.710904
22.350111 51.316895 10.944715
22.362299 51.338203 10.757054
22.349796 51.341339 10.561581
22.320259 51.331879 10.361609
22.297024 51.326969 10.165031
22.287966 51.332428 9.9739828
22.269678 51.33102 9.7811127
22.242123 51.322704 9.5866909
22.236715 51.330681 9.3994579
22.214211 51.325962 9.2085047
22.784878 51.426327 16.256956
22.785185 51.441303 16.026781
22.790806 51.459984 15.801882
22.78735 51.472015 15.573053
22.702 51.424831 15.296358
22.672583 51.417801 15.05689
22.655809 51.419762 14.827218
22.615076 51.40424 14.585979
22.594458 51.403133 14.358537
22.557161 51.389793 14.124077
22.555088 51.40189 13.910719
22.536413 51.401817 13.690231
22.172642 51.31432 10.739538
22.160048 51.317204 10.54515
22.153786 51.324707 10.35389
22.130539 51.31958 10.158141
22.098034 51.307514 9.960803
22.095329 51.317463 9.7736063
22.067776 51.308918 9.580102
22.062328 51.316723 9.3938007
22.039827 51.311802 9.2037716
22.023811 51.311638 9.0163946
22.788338 51.465801 17.51453
22.784821 51.478775 17.269884
22.786266 51.495167 17.031067
22.771538 51.499775 16.783228
22.77602 51.518078 16.550888
22.566498 51.43956 15.275592
