# .PCD v0.7 - Point Cloud Data file format
VERSION 0.7
FIELDS x y z
SIZE 4 4 4
TYPE F F F
COUNT 1 1 1
WIDTH 1609
HEIGHT 1
VIEWPOINT 0 0 0 1 0 0 0
POINTS 1609
DATA ascii
12.812974 50.48885 24.731119
12.812969 50.488914 24.74165
12.812964 50.488979 24.75218
12.81296 50.489044 24.762711
12.812955 50.489109 24.773241
12.81295 50.489174 24.783772
12.812945 50.489239 24.794302
12.812941 50.489304 24.804832
12.812936 50.489368 24.815363
12.812931 50.489433 24.825893
12.812926 50.489498 24.836424
12.812922 50.489563 24.846954
12.812917 50.489628 24.857485
12.812912 50.489693 24.868015
12.812907 50.489758 24.878546
12.812902 50.489822 24.889076
12.812898 50.489887 24.899607
12.812893 50.489952 24.910137
12.812888 50.490017 24.920668
12.812883 50.490082 24.931198
12.812879 50.490147 24.941729
12.812874 50.490211 24.952259
12.812869 50.490276 24.96279
12.812864 50.490341 24.97332
12.81286 50.490406 24.98385
12.812855 50.490471 24.994381
12.81285 50.490536 25.004911
12.812845 50.490601 25.015442
12.81284 50.490665 25.025972
12.812836 50.49073 25.036503
12.812831 50.490795 25.047033
12.812826 50.49086 25.057564
12.812821 50.490925 25.068094
12.812817 50.49099 25.078625
12.812812 50.491055 25.089155
12.812807 50.491119 25.099686
12.812802 50.491184 25.110216
12.812798 50.491249 25.120747
12.812793 50.491314 25.131277
12.812788 50.491379 25.141808
12.812783 50.491444 25.152338
12.812778 50.491508 25.162868
12.812774 50.491573 25.173399
12.812769 50.491638 25.183929
12.812764 50.491703 25.19446
12.812759 50.491768 25.20499
12.812755 50.491833 25.215521
12.81275 50.491898 25.226051
12.812745 50.491962 25.236582
12.81274 50.492027 25.247112
12.812736 50.492092 25.257643
12.812731 50.492157 25.268173
12.812726 50.492222 25.278704
12.812721 50.492287 25.289234
12.812716 50.492352 25.299765
12.812712 50.492416 25.310295
12.812707 50.492481 25.320826
12.812702 50.492546 25.331356
12.812697 50.492611 25.341887
12.812693 50.492676 25.352417
12.812688 50.492741 25.362947
12.812683 50.492805 25.373478
12.812678 50.49287 25.384008
12.812674 50.492935 25.394539
12.812669 50.493 25.405069
12.812664 50.493065 25.4156
12.812659 50.49313 25.42613
12.812654 50.493195 25.436661
12.81265 50.493259 25.447191
12.812645 50.493324 25.457722
12.81264 50.493389 25.468252
12.812635 50.493454 25.478783
12.812631 50.493519 25.489313
12.812626 50.493584 25.499844
12.812621 50.493649 25.510374
12.812616 50.493713 25.520905
12.812612 50.493778 25.531435
12.812607 50.493843 25.541965
12.812602 50.493908 25.552496
12.812597 50.493973 25.563026
12.812593 50.494038 25.573557
12.812588 50.494102 25.584087
12.812583 50.494167 25.594618
12.812578 50.494232 25.605148
12.812573 50.494297 25.615679
12.812569 50.494362 25.626209
12.812564 50.494427 25.63674
12.812559 50.494492 25.64727
16.911978 50.826443 21.721745
16.919056 50.826973 21.721745
16.926134 50.827503 21.721745
16.933212 50.828033 21.721745
16.94029 50.828564 21.721745
16.947369 50.829094 21.721745
16.954447 50.829624 21.721745
16.961525 50.830154 21.721745
16.968603 50.830685 21.721745
16.975681 50.831215 21.721745
16.982759 50.831745 21.721745
16.989838 50.832275 21.721745
16.996916 50.832806 21.721745
17.003994 50.833336 21.721745
17.011072 50.833866 21.721745
17.01815 50.834396 21.721745
17.025229 50.834927 21.721745
17.032307 50.835457 21.721745
17.039385 50.835987 21.721745
17.046463 50.836517 21.721745
17.053541 50.837048 21.721745
17.060619 50.837578 21.721745
17.067698 50.838108 21.721745
17.074776 50.838638 21.721745
17.081854 50.839169 21.721745
17.088932 50.839699 21.721745
17.09601 50.840229 21.721745
17.103088 50.840759 21.721745
17.110167 50.84129 21.721745
17.117245 50.84182 21.721745
17.124323 50.84235 21.721745
17.131401 50.84288 21.721745
17.138479 50.84341 21.721745
17.145557 50.843941 21.721745
17.152636 50.844471 21.721745
17.159714 50.845001 21.721745
17.166792 50.845531 21.721745
17.17387 50.846062 21.721745
17.180948 50.846592 21.721745
17.188026 50.847122 21.721745
17.195105 50.847652 21.721745
17.202183 50.848183 21.721745
17.209261 50.848713 21.721745
17.216339 50.849243 21.721745
17.223417 50.849773 21.721745
17.230495 50.850304 21.721745
17.237574 50.850834 21.721745
17.244652 50.851364 21.721745
17.25173 50.851894 21.721745
17.258808 50.852425 21.721745
17.265886 50.852955 21.721745
17.272964 50.853485 21.721745
17.280043 50.854015 21.721745
17.287121 50.854546 21.721745
17.294199 50.855076 21.721745
17.301277 50.855606 21.721745
17.308355 50.856136 21.721745
17.315434 50.856667 21.721745
17.322512 50.857197 21.721745
17.32959 50.857727 21.721745
17.336668 50.858257 21.721745
17.343746 50.858788 21.721745
17.350824 50.859318 21.721745
17.357903 50.859848 21.721745
17.364981 50.860378 21.721745
17.372059 50.860909 21.721745
17.379137 50.861439 21.721745
17.386215 50.861969 21.721745
17.393293 50.862499 21.721745
17.400372 50.863029 21.721745
17.40745 50.86356 21.721745
17.414528 50.86409 21.721745
17.421606 50.86462 21.721745
17.428684 50.86515 21.721745
17.435762 50.865681 21.721745
17.442841 50.866211 21.721745
17.449919 50.866741 21.721745
17.456997 50.867271 21.721745
17.464075 50.867802 21.721745
17.471153 50.868332 21.721745
17.478231 50.868862 21.721745
17.48531 50.869392 21.721745
17.492388 50.869923 21.721745
17.499466 50.870453 21.721745
17.506544 50.870983 21.721745
17.513622 50.871513 21.721745
17.5207 50.872044 21.721745
17.527779 50.872574 21.721745
17.534857 50.873104 21.721745
17.541935 50.873634 21.721745
17.549013 50.874165 21.721745
17.556091 50.874695 21.721745
17.563169 50.875225 21.721745
17.570248 50.875755 21.721745
17.577326 50.876286 21.721745
17.584404 50.876816 21.721745
17.591482 50.877346 21.721745
17.59856 50.877876 21.721745
17.605639 50.878407 21.721745
17.612717 50.878937 21.721745
17.619795 50.879467 21.721745
17.626873 50.879997 21.721745
17.633951 50.880527 21.721745
17.641029 50.881058 21.721745
17.648108 50.881588 21.721745
17.655186 50.882118 21.721745
17.662264 50.882648 21.721745
17.669342 50.883179 21.721745
17.67642 50.883709 21.721745
17.683498 50.884239 21.721745
17.690577 50.884769 21.721745
17.697655 50.8853 21.721745
17.704733 50.88583 21.721745
17.711811 50.88636 21.721745
17.718889 50.88689 21.721745
17.725967 50.887421 21.721745
17.733046 50.887951 21.721745
17.740124 50.888481 21.721745
17.747202 50.889011 21.721745
17.75428 50.889542 21.721745
17.761358 50.890072 21.721745
17.768436 50.890602 21.721745
17.775515 50.891132 21.721745
17.782593 50.891663 21.721745
17.789671 50.892193 21.721745
17.796749 50.892723 21.721745
17.803827 50.893253 21.721745
17.810905 50.893784 21.721745
17.817984 50.894314 21.721745
17.825062 50.894844 21.721745
17.83214 50.895374 21.721745
17.839218 50.895905 21.721745
17.846296 50.896435 21.721745
17.853374 50.896965 21.721745
17.860453 50.897495 21.721745
17.867531 50.898026 21.721745
17.874609 50.898556 21.721745
17.881687 50.899086 21.721745
17.888765 50.899616 21.721745
17.895844 50.900146 21.721745
17.902922 50.900677 21.721745
17.91 50.901207 21.721745
17.917078 50.901737 21.721745
17.924156 50.902267 21.721745
17.931234 50.902798 21.721745
17.938313 50.903328 21.721745
17.945391 50.903858 21.721745
17.952469 50.904388 21.721745
17.959547 50.904919 21.721745
17.966625 50.905449 21.721745
17.973703 50.905979 21.721745
17.980782 50.906509 21.721745
17.98786 50.90704 21.721745
17.994938 50.90757 21.721745
18.002016 50.9081 21.721745
18.009094 50.90863 21.721745
18.016172 50.909161 21.721745
18.023251 50.909691 21.721745
18.030329 50.910221 21.721745
18.037407 50.910751 21.721745
18.044485 50.911282 21.721745
18.051563 50.911812 21.721745
18.058641 50.912342 21.721745
18.06572 50.912872 21.721745
18.072798 50.913403 21.721745
18.079876 50.913933 21.721745
18.086954 50.914463 21.721745
18.094032 50.914993 21.721745
18.10111 50.915524 21.721745
18.108189 50.916054 21.721745
18.115267 50.916584 21.721745
18.122345 50.917114 21.721745
18.129423 50.917645 21.721745
18.136501 50.918175 21.721745
18.143579 50.918705 21.721745
18.150658 50.919235 21.721745
18.157736 50.919765 21.721745
18.164814 50.920296 21.721745
18.171892 50.920826 21.721745
18.17897 50.921356 21.721745
18.186049 50.921886 21.721745
18.193127 50.922417 21.721745
18.200205 50.922947 21.721745
18.207283 50.923477 21.721745
18.214361 50.924007 21.721745
18.221439 50.924538 21.721745
18.228518 50.925068 21.721745
18.235596 50.925598 21.721745
18.242674 50.926128 21.721745
18.249752 50.926659 21.721745
18.25683 50.927189 21.721745
18.263908 50.927719 21.721745
18.270987 50.928249 21.721745
18.278065 50.92878 21.721745
18.285143 50.92931 21.721745
18.292221 50.92984 21.721745
18.299299 50.93037 21.721745
18.306377 50.930901 21.721745
18.313456 50.931431 21.721745
18.320534 50.931961 21.721745
18.327612 50.932491 21.721745
18.33469 50.933022 21.721745
18.341768 50.933552 21.721745
18.348846 50.934082 21.721745
18.355925 50.934612 21.721745
18.363003 50.935143 21.721745
18.370081 50.935673 21.721745
18.377159 50.936203 21.721745
18.384237 50.936733 21.721745
18.391315 50.937263 21.721745
18.398394 50.937794 21.721745
18.405472 50.938324 21.721745
18.41255 50.938854 21.721745
18.419628 50.939384 21.721745
18.426706 50.939915 21.721745
18.433784 50.940445 21.721745
18.440863 50.940975 21.721745
18.447941 50.941505 21.721745
18.455019 50.942036 21.721745
18.462097 50.942566 21.721745
18.469175 50.943096 21.721745
18.476254 50.943626 21.721745
18.483332 50.944157 21.721745
18.49041 50.944687 21.721745
18.497488 50.945217 21.721745
18.504566 50.945747 21.721745
18.511644 50.946278 21.721745
18.518723 50.946808 21.721745
18.525801 50.947338 21.721745
18.532879 50.947868 21.721745
18.539957 50.948399 21.721745
18.547035 50.948929 21.721745
18.554113 50.949459 21.721745
18.561192 50.949989 21.721745
18.56827 50.95052 21.721745
18.575348 50.95105 21.721745
18.582426 50.95158 21.721745
18.589504 50.95211 21.721745
18.596582 50.952641 21.721745
18.603661 50.953171 21.721745
18.610739 50.953701 21.721745
18.617817 50.954231 21.721745
18.624895 50.954762 21.721745
18.631973 50.955292 21.721745
18.639051 50.955822 21.721745
18.64613 50.956352 21.721745
18.653208 50.956882 21.721745
18.660286 50.957413 21.721745
18.667364 50.957943 21.721745
18.674442 50.958473 21.721745
18.68152 50.959003 21.721745
18.68145 50.959038 21.721745
18.681454 50.958977 21.712044
18.681458 50.958916 21.702343
18.681461 50.958855 21.692642
18.681465 50.958794 21.682941
18.681469 50.958733 21.673241
18.681473 50.958672 21.66354
18.681477 50.958611 21.653839
18.68148 50.958549 21.644138
18.681484 50.958488 21.634438
18.681488 50.958427 21.624737
18.681492 50.958366 21.615036
18.681496 50.958305 21.605335
18.681499 50.958244 21.595634
18.681503 50.958183 21.585934
18.681507 50.958122 21.576233
18.681511 50.958061 21.566532
18.681515 50.958 21.556831
18.681519 50.957939 21.547131
18.681522 50.957878 21.53743
18.681526 50.957817 21.527729
18.68153 50.957756 21.518028
18.681534 50.957695 21.508327
18.681538 50.957634 21.498627
18.681541 50.957573 21.488926
18.681545 50.957512 21.479225
18.681549 50.957451 21.469524
18.681553 50.95739 21.459824
18.681557 50.957329 21.450123
18.681561 50.957268 21.440422
18.681564 50.957207 21.430721
18.681568 50.957146 21.421021
18.681572 50.957085 21.41132
18.681576 50.957024 21.401619
18.68158 50.956963 21.391918
18.681583 50.956902 21.382217
18.681587 50.956841 21.372517
18.681591 50.956779 21.362816
18.681595 50.956718 21.353115
18.681599 50.956657 21.343414
18.681602 50.956596 21.333714
18.681606 50.956535 21.324013
18.68161 50.956474 21.314312
18.681614 50.956413 21.304611
18.681618 50.956352 21.29491
18.681622 50.956291 21.28521
18.681625 50.95623 21.275509
18.681629 50.956169 21.265808
18.681633 50.956108 21.256107
18.681637 50.956047 21.246407
18.681641 50.955986 21.236706
18.681644 50.955925 21.227005
18.681648 50.955864 21.217304
18.681652 50.955803 21.207603
18.681656 50.955742 21.197903
18.68166 50.955681 21.188202
18.681664 50.95562 21.178501
18.681667 50.955559 21.1688
18.681671 50.955498 21.1591
18.681675 50.955437 21.149399
18.681679 50.955376 21.139698
18.681683 50.955315 21.129997
18.681686 50.955254 21.120296
18.68169 50.955193 21.110596
18.681694 50.955132 21.100895
18.681698 50.95507 21.091194
18.681702 50.955009 21.081493
18.681705 50.954948 21.071793
18.681709 50.954887 21.062092
18.681713 50.954826 21.052391
18.681717 50.954765 21.04269
18.681721 50.954704 21.03299
18.681725 50.954643 21.023289
18.681728 50.954582 21.013588
18.681732 50.954521 21.003887
18.681736 50.95446 20.994186
18.68174 50.954399 20.984486
18.681744 50.954338 20.974785
18.681747 50.954277 20.965084
18.681751 50.954216 20.955383
18.681755 50.954155 20.945683
18.681759 50.954094 20.935982
18.681763 50.954033 20.926281
18.681767 50.953972 20.91658
18.68177 50.953911 20.906879
18.681774 50.95385 20.897179
18.681778 50.953789 20.887478
18.681782 50.953728 20.877777
18.681786 50.953667 20.868076
18.681789 50.953606 20.858376
18.681793 50.953545 20.848675
18.681797 50.953484 20.838974
18.681801 50.953423 20.829273
18.681805 50.953362 20.819572
18.681808 50.9533 20.809872
18.681812 50.953239 20.800171
18.681816 50.953178 20.79047
18.68182 50.953117 20.780769
18.681824 50.953056 20.771069
18.681828 50.952995 20.761368
18.681831 50.952934 20.751667
18.681835 50.952873 20.741966
18.681839 50.952812 20.732265
18.681843 50.952751 20.722565
18.681847 50.95269 20.712864
18.68185 50.952629 20.703163
18.681854 50.952568 20.693462
18.681858 50.952507 20.683762
18.681862 50.952446 20.674061
18.681866 50.952385 20.66436
18.68187 50.952324 20.654659
18.681873 50.952263 20.644958
18.681877 50.952202 20.635258
18.681881 50.952141 20.625557
18.681885 50.95208 20.615856
18.681889 50.952019 20.606155
18.681892 50.951958 20.596455
18.681896 50.951897 20.586754
18.6819 50.951836 20.577053
18.681904 50.951775 20.567352
18.681908 50.951714 20.557652
18.681911 50.951653 20.547951
18.681915 50.951591 20.53825
18.681919 50.95153 20.528549
18.681923 50.951469 20.518848
18.681927 50.951408 20.509148
18.681931 50.951347 20.499447
18.681934 50.951286 20.489746
18.681938 50.951225 20.480045
18.681942 50.951164 20.470345
18.681946 50.951103 20.460644
18.68195 50.951042 20.450943
18.681953 50.950981 20.441242
18.681957 50.95092 20.431541
18.681961 50.950859 20.421841
18.681965 50.950798 20.41214
18.681969 50.950737 20.402439
18.681973 50.950676 20.392738
18.681976 50.950615 20.383038
18.68198 50.950554 20.373337
18.681984 50.950493 20.363636
18.681988 50.950432 20.353935
18.681992 50.950371 20.344234
18.681995 50.95031 20.334534
18.681999 50.950249 20.324833
18.682003 50.950188 20.315132
18.682007 50.950127 20.305431
18.682011 50.950066 20.295731
18.682014 50.950005 20.28603
18.682018 50.949944 20.276329
18.682022 50.949883 20.266628
18.682026 50.949821 20.256927
18.68203 50.94976 20.247227
18.682034 50.949699 20.237526
18.682037 50.949638 20.227825
18.682041 50.949577 20.218124
18.682045 50.949516 20.208424
18.682049 50.949455 20.198723
18.682053 50.949394 20.189022
18.682056 50.949333 20.179321
18.68206 50.949272 20.169621
18.682064 50.949211 20.15992
18.682068 50.94915 20.150219
18.682072 50.949089 20.140518
18.682076 50.949028 20.130817
18.682079 50.948967 20.121117
18.682083 50.948906 20.111416
18.682087 50.948845 20.101715
18.682091 50.948784 20.092014
18.682095 50.948723 20.082314
18.682098 50.948662 20.072613
18.682102 50.948601 20.062912
18.682106 50.94854 20.053211
18.68211 50.948479 20.04351
18.682114 50.948418 20.03381
18.682117 50.948357 20.024109
18.682121 50.948296 20.014408
18.682125 50.948235 20.004707
18.682129 50.948174 19.995007
18.682133 50.948112 19.985306
18.682137 50.948051 19.975605
18.68214 50.94799 19.965904
18.682144 50.947929 19.956203
18.682148 50.947868 19.946503
18.682152 50.947807 19.936802
18.682156 50.947746 19.927101
18.682159 50.947685 19.9174
18.682163 50.947624 19.9077
18.682167 50.947563 19.897999
18.682171 50.947502 19.888298
18.682175 50.947441 19.878597
18.682178 50.94738 19.868896
18.682182 50.947319 19.859196
18.682186 50.947258 19.849495
18.68219 50.947197 19.839794
18.682194 50.947136 19.830093
18.682198 50.947075 19.820393
18.682201 50.947014 19.810692
18.682205 50.946953 19.800991
18.682209 50.946892 19.79129
18.682213 50.946831 19.78159
18.682217 50.94677 19.771889
18.68222 50.946709 19.762188
18.682224 50.946648 19.752487
18.682228 50.946587 19.742786
18.682232 50.946526 19.733086
18.682236 50.946465 19.723385
18.68224 50.946404 19.713684
18.682243 50.946342 19.703983
18.682247 50.946281 19.694283
18.682251 50.94622 19.684582
18.682255 50.946159 19.674881
18.682259 50.946098 19.66518
18.682262 50.946037 19.655479
18.682266 50.945976 19.645779
18.68227 50.945915 19.636078
18.682274 50.945854 19.626377
18.682278 50.945793 19.616676
18.682281 50.945732 19.606976
18.682285 50.945671 19.597275
18.682289 50.94561 19.587574
18.682293 50.945549 19.577873
18.682297 50.945488 19.568172
18.682301 50.945427 19.558472
18.682304 50.945366 19.548771
18.682308 50.945305 19.53907
18.682312 50.945244 19.529369
18.682316 50.945183 19.519669
18.68232 50.945122 19.509968
18.682323 50.945061 19.500267
18.682327 50.945 19.490566
18.682331 50.944939 19.480865
18.682335 50.944878 19.471165
18.682339 50.944817 19.461464
18.682343 50.944756 19.451763
18.682346 50.944695 19.442062
18.68235 50.944633 19.432362
18.682354 50.944572 19.422661
18.682358 50.944511 19.41296
18.682362 50.94445 19.403259
18.682365 50.944389 19.393559
18.682369 50.944328 19.383858
18.682373 50.944267 19.374157
18.682377 50.944206 19.364456
18.682381 50.944145 19.354755
18.682384 50.944084 19.345055
18.682388 50.944023 19.335354
18.682392 50.943962 19.325653
18.682396 50.943901 19.315952
18.6824 50.94384 19.306252
18.682404 50.943779 19.296551
18.682579 50.943958 19.296473
18.675501 50.943428 19.296473
18.668423 50.942898 19.296473
18.661345 50.942368 19.296473
18.654266 50.941837 19.296473
18.647188 50.941307 19.296473
18.64011 50.940777 19.296473
18.633032 50.940247 19.296473
18.625954 50.939716 19.296473
18.618876 50.939186 19.296473
18.611797 50.938656 19.296473
18.604719 50.938126 19.296473
18.597641 50.937595 19.296473
18.590563 50.937065 19.296473
18.583485 50.936535 19.296473
18.576406 50.936005 19.296473
18.569328 50.935474 19.296473
18.56225 50.934944 19.296473
18.555172 50.934414 19.296473
18.548094 50.933884 19.296473
18.541016 50.933353 19.296473
18.533937 50.932823 19.296473
18.526859 50.932293 19.296473
18.519781 50.931763 19.296473
18.512703 50.931232 19.296473
18.505625 50.930702 19.296473
18.498547 50.930172 19.296473
18.491468 50.929642 19.296473
18.48439 50.929111 19.296473
18.477312 50.928581 19.296473
18.470234 50.928051 19.296473
18.463156 50.927521 19.296473
18.456078 50.926991 19.296473
18.448999 50.92646 19.296473
18.441921 50.92593 19.296473
18.434843 50.9254 19.296473
18.427765 50.92487 19.296473
18.420687 50.924339 19.296473
18.413609 50.923809 19.296473
18.40653 50.923279 19.296473
18.399452 50.922749 19.296473
18.392374 50.922218 19.296473
18.385296 50.921688 19.296473
18.378218 50.921158 19.296473
18.37114 50.920628 19.296473
18.364061 50.920097 19.296473
18.356983 50.919567 19.296473
18.349905 50.919037 19.296473
18.342827 50.918507 19.296473
18.335749 50.917976 19.296473
18.328671 50.917446 19.296473
18.321592 50.916916 19.296473
18.314514 50.916386 19.296473
18.307436 50.915855 19.296473
18.300358 50.915325 19.296473
18.29328 50.914795 19.296473
18.286201 50.914265 19.296473
18.279123 50.913734 19.296473
18.272045 50.913204 19.296473
18.264967 50.912674 19.296473
18.257889 50.912144 19.296473
18.250811 50.911613 19.296473
18.243732 50.911083 19.296473
18.236654 50.910553 19.296473
18.229576 50.910023 19.296473
18.222498 50.909492 19.296473
18.21542 50.908962 19.296473
18.208342 50.908432 19.296473
18.201263 50.907902 19.296473
18.194185 50.907372 19.296473
18.187107 50.906841 19.296473
18.180029 50.906311 19.296473
18.172951 50.905781 19.296473
18.165873 50.905251 19.296473
18.158794 50.90472 19.296473
18.151716 50.90419 19.296473
18.144638 50.90366 19.296473
18.13756 50.90313 19.296473
18.130482 50.902599 19.296473
18.123404 50.902069 19.296473
18.116325 50.901539 19.296473
18.109247 50.901009 19.296473
18.102169 50.900478 19.296473
18.095091 50.899948 19.296473
18.088013 50.899418 19.296473
18.080935 50.898888 19.296473
18.073856 50.898357 19.296473
18.066778 50.897827 19.296473
18.0597 50.897297 19.296473
18.052622 50.896767 19.296473
18.045544 50.896236 19.296473
18.038465 50.895706 19.296473
18.031387 50.895176 19.296473
18.024309 50.894646 19.296473
18.017231 50.894115 19.296473
18.010153 50.893585 19.296473
18.003075 50.893055 19.296473
17.995996 50.892525 19.296473
17.988918 50.891994 19.296473
17.98184 50.891464 19.296473
17.974762 50.890934 19.296473
17.967684 50.890404 19.296473
17.960606 50.889874 19.296473
17.953527 50.889343 19.296473
17.946449 50.888813 19.296473
17.939371 50.888283 19.296473
17.932293 50.887753 19.296473
17.925215 50.887222 19.296473
17.918137 50.886692 19.296473
17.911058 50.886162 19.296473
17.90398 50.885632 19.296473
17.896902 50.885101 19.296473
17.889824 50.884571 19.296473
17.882746 50.884041 19.296473
17.875668 50.883511 19.296473
17.868589 50.88298 19.296473
17.861511 50.88245 19.296473
17.854433 50.88192 19.296473
17.847355 50.88139 19.296473
17.840277 50.880859 19.296473
17.833199 50.880329 19.296473
17.82612 50.879799 19.296473
17.819042 50.879269 19.296473
17.811964 50.878738 19.296473
17.804886 50.878208 19.296473
17.797808 50.877678 19.296473
17.79073 50.877148 19.296473
17.783651 50.876617 19.296473
17.776573 50.876087 19.296473
17.769495 50.875557 19.296473
17.762417 50.875027 19.296473
17.755339 50.874496 19.296473
17.74826 50.873966 19.296473
17.741182 50.873436 19.296473
17.734104 50.872906 19.296473
17.727026 50.872375 19.296473
17.719948 50.871845 19.296473
17.71287 50.871315 19.296473
17.705791 50.870785 19.296473
17.698713 50.870255 19.296473
17.691635 50.869724 19.296473
17.684557 50.869194 19.296473
17.677479 50.868664 19.296473
17.670401 50.868134 19.296473
17.663322 50.867603 19.296473
17.656244 50.867073 19.296473
17.649166 50.866543 19.296473
17.642088 50.866013 19.296473
17.63501 50.865482 19.296473
17.627932 50.864952 19.296473
17.620853 50.864422 19.296473
17.613775 50.863892 19.296473
17.606697 50.863361 19.296473
17.599619 50.862831 19.296473
17.592541 50.862301 19.296473
17.585463 50.861771 19.296473
17.578384 50.86124 19.296473
17.571306 50.86071 19.296473
17.564228 50.86018 19.296473
17.55715 50.85965 19.296473
17.550072 50.859119 19.296473
17.542994 50.858589 19.296473
17.535915 50.858059 19.296473
17.528837 50.857529 19.296473
17.521759 50.856998 19.296473
17.514681 50.856468 19.296473
17.507603 50.855938 19.296473
17.500525 50.855408 19.296473
17.493446 50.854877 19.296473
17.486368 50.854347 19.296473
17.47929 50.853817 19.296473
17.472212 50.853287 19.296473
17.465134 50.852757 19.296473
17.458055 50.852226 19.296473
17.450977 50.851696 19.296473
17.443899 50.851166 19.296473
17.436821 50.850636 19.296473
17.429743 50.850105 19.296473
17.422665 50.849575 19.296473
17.415586 50.849045 19.296473
17.408508 50.848515 19.296473
17.40143 50.847984 19.296473
17.394352 50.847454 19.296473
17.387274 50.846924 19.296473
17.380196 50.846394 19.296473
17.373117 50.845863 19.296473
17.366039 50.845333 19.296473
17.358961 50.844803 19.296473
17.351883 50.844273 19.296473
17.344805 50.843742 19.296473
17.337727 50.843212 19.296473
17.330648 50.842682 19.296473
17.32357 50.842152 19.296473
17.316492 50.841621 19.296473
17.309414 50.841091 19.296473
17.302336 50.840561 19.296473
17.295258 50.840031 19.296473
17.288179 50.8395 19.296473
17.281101 50.83897 19.296473
17.274023 50.83844 19.296473
17.266945 50.83791 19.296473
17.259867 50.837379 19.296473
17.252789 50.836849 19.296473
17.24571 50.836319 19.296473
17.238632 50.835789 19.296473
17.231554 50.835258 19.296473
17.224476 50.834728 19.296473
17.217398 50.834198 19.296473
17.21032 50.833668 19.296473
17.203241 50.833138 19.296473
17.196163 50.832607 19.296473
17.189085 50.832077 19.296473
17.182007 50.831547 19.296473
17.174929 50.831017 19.296473
17.16785 50.830486 19.296473
17.160772 50.829956 19.296473
17.153694 50.829426 19.296473
17.146616 50.828896 19.296473
17.139538 50.828365 19.296473
17.13246 50.827835 19.296473
17.125381 50.827305 19.296473
17.118303 50.826775 19.296473
17.111225 50.826244 19.296473
17.104147 50.825714 19.296473
17.097069 50.825184 19.296473
17.089991 50.824654 19.296473
17.082912 50.824123 19.296473
17.075834 50.823593 19.296473
17.068756 50.823063 19.296473
17.061678 50.822533 19.296473
17.0546 50.822002 19.296473
17.047522 50.821472 19.296473
17.040443 50.820942 19.296473
17.033365 50.820412 19.296473
17.026287 50.819881 19.296473
17.019209 50.819351 19.296473
17.012131 50.818821 19.296473
17.005053 50.818291 19.296473
16.997974 50.81776 19.296473
16.990896 50.81723 19.296473
16.983818 50.8167 19.296473
16.97674 50.81617 19.296473
16.969662 50.815639 19.296473
16.962584 50.815109 19.296473
16.955505 50.814579 19.296473
16.948427 50.814049 19.296473
16.941349 50.813519 19.296473
16.934271 50.812988 19.296473
16.927193 50.812458 19.296473
16.920115 50.811928 19.296473
16.913036 50.811398 19.296473
16.913107 50.811363 19.296473
16.913103 50.811424 19.306173
16.913099 50.811485 19.315874
16.913095 50.811546 19.325575
16.913092 50.811607 19.335276
16.913088 50.811668 19.344976
16.913084 50.811729 19.354677
16.91308 50.81179 19.364378
16.913076 50.811852 19.374079
16.913073 50.811913 19.38378
16.913069 50.811974 19.39348
16.913065 50.812035 19.403181
16.913061 50.812096 19.412882
16.913057 50.812157 19.422583
16.913054 50.812218 19.432283
16.91305 50.812279 19.441984
16.913046 50.81234 19.451685
16.913042 50.812401 19.461386
16.913038 50.812462 19.471087
16.913034 50.812523 19.480787
16.913031 50.812584 19.490488
16.913027 50.812645 19.500189
16.913023 50.812706 19.50989
16.913019 50.812767 19.51959
16.913015 50.812828 19.529291
16.913012 50.812889 19.538992
16.913008 50.81295 19.548693
16.913004 50.813011 19.558393
16.913 50.813072 19.568094
16.912996 50.813133 19.577795
16.912992 50.813194 19.587496
16.912989 50.813255 19.597197
16.912985 50.813316 19.606897
16.912981 50.813377 19.616598
16.912977 50.813438 19.626299
16.912973 50.813499 19.636
16.91297 50.81356 19.6457
16.912966 50.813622 19.655401
16.912962 50.813683 19.665102
16.912958 50.813744 19.674803
16.912954 50.813805 19.684504
16.912951 50.813866 19.694204
16.912947 50.813927 19.703905
16.912943 50.813988 19.713606
16.912939 50.814049 19.723307
16.912935 50.81411 19.733007
16.912931 50.814171 19.742708
16.912928 50.814232 19.752409
16.912924 50.814293 19.76211
16.91292 50.814354 19.771811
16.912916 50.814415 19.781511
16.912912 50.814476 19.791212
16.912909 50.814537 19.800913
16.912905 50.814598 19.810614
16.912901 50.814659 19.820314
16.912897 50.81472 19.830015
16.912893 50.814781 19.839716
16.912889 50.814842 19.849417
16.912886 50.814903 19.859118
16.912882 50.814964 19.868818
16.912878 50.815025 19.878519
16.912874 50.815086 19.88822
16.91287 50.815147 19.897921
16.912867 50.815208 19.907621
16.912863 50.815269 19.917322
16.912859 50.815331 19.927023
16.912855 50.815392 19.936724
16.912851 50.815453 19.946424
16.912848 50.815514 19.956125
16.912844 50.815575 19.965826
16.91284 50.815636 19.975527
16.912836 50.815697 19.985228
16.912832 50.815758 19.994928
16.912828 50.815819 20.004629
16.912825 50.81588 20.01433
16.912821 50.815941 20.024031
16.912817 50.816002 20.033731
16.912813 50.816063 20.043432
16.912809 50.816124 20.053133
16.912806 50.816185 20.062834
16.912802 50.816246 20.072535
16.912798 50.816307 20.082235
16.912794 50.816368 20.091936
16.91279 50.816429 20.101637
16.912786 50.81649 20.111338
16.912783 50.816551 20.121038
16.912779 50.816612 20.130739
16.912775 50.816673 20.14044
16.912771 50.816734 20.150141
16.912767 50.816795 20.159842
16.912764 50.816856 20.169542
16.91276 50.816917 20.179243
16.912756 50.816978 20.188944
16.912752 50.817039 20.198645
16.912748 50.817101 20.208345
16.912745 50.817162 20.218046
16.912741 50.817223 20.227747
16.912737 50.817284 20.237448
16.912733 50.817345 20.247149
16.912729 50.817406 20.256849
16.912725 50.817467 20.26655
16.912722 50.817528 20.276251
16.912718 50.817589 20.285952
16.912714 50.81765 20.295652
16.91271 50.817711 20.305353
16.912706 50.817772 20.315054
16.912703 50.817833 20.324755
16.912699 50.817894 20.334455
16.912695 50.817955 20.344156
16.912691 50.818016 20.353857
16.912687 50.818077 20.363558
16.912683 50.818138 20.373259
16.91268 50.818199 20.382959
16.912676 50.81826 20.39266
16.912672 50.818321 20.402361
16.912668 50.818382 20.412062
16.912664 50.818443 20.421762
16.912661 50.818504 20.431463
16.912657 50.818565 20.441164
16.912653 50.818626 20.450865
16.912649 50.818687 20.460566
16.912645 50.818748 20.470266
16.912642 50.81881 20.479967
16.912638 50.818871 20.489668
16.912634 50.818932 20.499369
16.91263 50.818993 20.509069
16.912626 50.819054 20.51877
16.912622 50.819115 20.528471
16.912619 50.819176 20.538172
16.912615 50.819237 20.547873
16.912611 50.819298 20.557573
16.912607 50.819359 20.567274
16.912603 50.81942 20.576975
16.9126 50.819481 20.586676
16.912596 50.819542 20.596376
16.912592 50.819603 20.606077
16.912588 50.819664 20.615778
16.912584 50.819725 20.625479
16.91258 50.819786 20.63518
16.912577 50.819847 20.64488
16.912573 50.819908 20.654581
16.912569 50.819969 20.664282
16.912565 50.82003 20.673983
16.912561 50.820091 20.683683
16.912558 50.820152 20.693384
16.912554 50.820213 20.703085
16.91255 50.820274 20.712786
16.912546 50.820335 20.722486
16.912542 50.820396 20.732187
16.912539 50.820457 20.741888
16.912535 50.820518 20.751589
16.912531 50.82058 20.76129
16.912527 50.820641 20.77099
16.912523 50.820702 20.780691
16.912519 50.820763 20.790392
16.912516 50.820824 20.800093
16.912512 50.820885 20.809793
16.912508 50.820946 20.819494
16.912504 50.821007 20.829195
16.9125 50.821068 20.838896
16.912497 50.821129 20.848597
16.912493 50.82119 20.858297
16.912489 50.821251 20.867998
16.912485 50.821312 20.877699
16.912481 50.821373 20.8874
16.912477 50.821434 20.8971
16.912474 50.821495 20.906801
16.91247 50.821556 20.916502
16.912466 50.821617 20.926203
16.912462 50.821678 20.935904
16.912458 50.821739 20.945604
16.912455 50.8218 20.955305
16.912451 50.821861 20.965006
16.912447 50.821922 20.974707
16.912443 50.821983 20.984407
16.912439 50.822044 20.994108
16.912436 50.822105 21.003809
16.912432 50.822166 21.01351
16.912428 50.822227 21.023211
16.912424 50.822289 21.032911
16.91242 50.82235 21.042612
16.912416 50.822411 21.052313
16.912413 50.822472 21.062014
16.912409 50.822533 21.071714
16.912405 50.822594 21.081415
16.912401 50.822655 21.091116
16.912397 50.822716 21.100817
16.912394 50.822777 21.110518
16.91239 50.822838 21.120218
16.912386 50.822899 21.129919
16.912382 50.82296 21.13962
16.912378 50.823021 21.149321
16.912374 50.823082 21.159021
16.912371 50.823143 21.168722
16.912367 50.823204 21.178423
16.912363 50.823265 21.188124
16.912359 50.823326 21.197824
16.912355 50.823387 21.207525
16.912352 50.823448 21.217226
16.912348 50.823509 21.226927
16.912344 50.82357 21.236628
16.91234 50.823631 21.246328
16.912336 50.823692 21.256029
16.912333 50.823753 21.26573
16.912329 50.823814 21.275431
16.912325 50.823875 21.285131
16.912321 50.823936 21.294832
16.912317 50.823997 21.304533
16.912313 50.824059 21.314234
16.91231 50.82412 21.323935
16.912306 50.824181 21.333635
16.912302 50.824242 21.343336
16.912298 50.824303 21.353037
16.912294 50.824364 21.362738
16.912291 50.824425 21.372438
16.912287 50.824486 21.382139
16.912283 50.824547 21.39184
16.912279 50.824608 21.401541
16.912275 50.824669 21.411242
16.912271 50.82473 21.420942
16.912268 50.824791 21.430643
16.912264 50.824852 21.440344
16.91226 50.824913 21.450045
16.912256 50.824974 21.459745
16.912252 50.825035 21.469446
16.912249 50.825096 21.479147
16.912245 50.825157 21.488848
16.912241 50.825218 21.498549
16.912237 50.825279 21.508249
16.912233 50.82534 21.51795
16.91223 50.825401 21.527651
16.912226 50.825462 21.537352
16.912222 50.825523 21.547052
16.912218 50.825584 21.556753
16.912214 50.825645 21.566454
16.91221 50.825706 21.576155
16.912207 50.825768 21.585855
16.912203 50.825829 21.595556
16.912199 50.82589 21.605257
16.912195 50.825951 21.614958
16.912191 50.826012 21.624659
16.912188 50.826073 21.634359
16.912184 50.826134 21.64406
16.91218 50.826195 21.653761
16.912176 50.826256 21.663462
16.912172 50.826317 21.673162
16.912169 50.826378 21.682863
16.912165 50.826439 21.692564
16.912161 50.8265 21.702265
16.912157 50.826561 21.711966
16.912153 50.826622 21.721666
21.015558 51.053967 34.515427
21.021374 51.054401 34.515427
21.027189 51.054836 34.515427
21.033005 51.055271 34.515427
21.03882 51.055706 34.515427
21.044636 51.056141 34.515427
21.050451 51.056576 34.515427
21.056267 51.057011 34.515427
21.062082 51.057446 34.515427
21.067898 51.05788 34.515427
21.073713 51.058315 34.515427
21.079529 51.05875 34.515427
21.085344 51.059185 34.515427
21.09116 51.05962 34.515427
21.096975 51.060055 34.515427
21.102791 51.06049 34.515427
21.108606 51.060925 34.515427
21.114422 51.061359 34.515427
21.120237 51.061794 34.515427
21.126053 51.062229 34.515427
21.131868 51.062664 34.515427
21.137684 51.063099 34.515427
21.143499 51.063534 34.515427
21.149315 51.063969 34.515427
21.15513 51.064404 34.515427
21.160946 51.064838 34.515427
21.166761 51.065273 34.515427
21.172577 51.065708 34.515427
21.178392 51.066143 34.515427
21.184208 51.066578 34.515427
21.190023 51.067013 34.515427
21.195839 51.067448 34.515427
21.201654 51.067883 34.515427
21.20747 51.068317 34.515427
21.213285 51.068752 34.515427
21.219101 51.069187 34.515427
21.224916 51.069622 34.515427
21.230732 51.070057 34.515427
21.236547 51.070492 34.515427
21.242363 51.070927 34.515427
21.248178 51.071362 34.515427
21.253994 51.071796 34.515427
21.259809 51.072231 34.515427
21.265625 51.072666 34.515427
21.271441 51.073101 34.515427
21.277256 51.073536 34.515427
21.283072 51.073971 34.515427
21.288887 51.074406 34.515427
21.294703 51.074841 34.515427
21.300518 51.075275 34.515427
21.306334 51.07571 34.515427
21.312149 51.076145 34.515427
21.317965 51.07658 34.515427
21.32378 51.077015 34.515427
21.329596 51.07745 34.515427
21.335411 51.077885 34.515427
21.341227 51.07832 34.515427
21.347042 51.078754 34.515427
21.352858 51.079189 34.515427
21.358673 51.079624 34.515427
21.364489 51.080059 34.515427
21.370304 51.080494 34.515427
21.37612 51.080929 34.515427
21.381935 51.081364 34.515427
21.387751 51.081799 34.515427
21.393566 51.082233 34.515427
21.399382 51.082668 34.515427
21.405197 51.083103 34.515427
21.411013 51.083538 34.515427
21.416828 51.083973 34.515427
21.422644 51.084408 34.515427
21.428459 51.084843 34.515427
21.434275 51.085278 34.515427
21.44009 51.085712 34.515427
21.445906 51.086147 34.515427
21.451721 51.086582 34.515427
21.457537 51.087017 34.515427
21.463352 51.087452 34.515427
21.469168 51.087887 34.515427
21.474983 51.088322 34.515427
21.480799 51.088757 34.515427
21.486614 51.089191 34.515427
21.49243 51.089626 34.515427
21.498245 51.090061 34.515427
21.504061 51.090496 34.515427
21.509876 51.090931 34.515427
21.515692 51.091366 34.515427
21.521507 51.091801 34.515427
21.527323 51.092236 34.515427
21.533138 51.09267 34.515427
21.538954 51.093105 34.515427
21.544769 51.09354 34.515427
21.550585 51.093975 34.515427
21.5564 51.09441 34.515427
21.562216 51.094845 34.515427
21.568031 51.09528 34.515427
21.573847 51.095715 34.515427
21.579662 51.096149 34.515427
21.585478 51.096584 34.515427
21.591293 51.097019 34.515427
21.597109 51.097454 34.515427
21.602924 51.097889 34.515427
21.60874 51.098324 34.515427
21.614555 51.098759 34.515427
21.620371 51.099194 34.515427
21.626186 51.099628 34.515427
21.632002 51.100063 34.515427
21.637817 51.100498 34.515427
21.643633 51.100933 34.515427
21.649448 51.101368 34.515427
21.655264 51.101803 34.515427
21.661079 51.102238 34.515427
21.666895 51.102673 34.515427
21.67271 51.103107 34.515427
21.678526 51.103542 34.515427
21.684341 51.103977 34.515427
21.690157 51.104412 34.515427
21.695972 51.104847 34.515427
21.701788 51.105282 34.515427
21.707603 51.105717 34.515427
21.713419 51.106152 34.515427
21.719234 51.106586 34.515427
21.72505 51.107021 34.515427
21.730865 51.107456 34.515427
21.736681 51.107891 34.515427
21.742496 51.108326 34.515427
21.748312 51.108761 34.515427
21.754128 51.109196 34.515427
21.759943 51.109631 34.515427
21.765759 51.110065 34.515427
21.771574 51.1105 34.515427
21.77739 51.110935 34.515427
21.783205 51.11137 34.515427
21.789021 51.111805 34.515427
21.794836 51.11224 34.515427
21.800652 51.112675 34.515427
21.806467 51.11311 34.515427
21.812283 51.113544 34.515427
21.818098 51.113979 34.515427
21.823914 51.114414 34.515427
21.829729 51.114849 34.515427
21.835545 51.115284 34.515427
21.84136 51.115719 34.515427
21.847176 51.116154 34.515427
21.852991 51.116589 34.515427
21.858807 51.117023 34.515427
21.864622 51.117458 34.515427
21.870438 51.117893 34.515427
21.876253 51.118328 34.515427
21.882069 51.118763 34.515427
21.887884 51.119198 34.515427
21.8937 51.119633 34.515427
21.899515 51.120068 34.515427
21.905331 51.120502 34.515427
21.911146 51.120937 34.515427
21.916962 51.121372 34.515427
21.922777 51.121807 34.515427
21.928593 51.122242 34.515427
21.934408 51.122677 34.515427
21.940224 51.123112 34.515427
21.946039 51.123547 34.515427
21.951855 51.123981 34.515427
21.95767 51.124416 34.515427
21.963486 51.124851 34.515427
21.969301 51.125286 34.515427
21.975117 51.125721 34.515427
21.980932 51.126156 34.515427
21.986748 51.126591 34.515427
21.992563 51.127026 34.515427
21.998379 51.12746 34.515427
22.004194 51.127895 34.515427
22.01001 51.12833 34.515427
22.015825 51.128765 34.515427
22.021641 51.1292 34.515427
22.027456 51.129635 34.515427
22.033272 51.13007 34.515427
22.039087 51.130505 34.515427
22.044903 51.130939 34.515427
22.050718 51.131374 34.515427
22.056534 51.131809 34.515427
22.062349 51.132244 34.515427
22.068165 51.132679 34.515427
22.07398 51.133114 34.515427
22.079796 51.133549 34.515427
22.085611 51.133984 34.515427
22.091427 51.134418 34.515427
22.097242 51.134853 34.515427
22.103058 51.135288 34.515427
22.108873 51.135723 34.515427
22.114689 51.136158 34.515427
22.120504 51.136593 34.515427
22.12632 51.137028 34.515427
22.132135 51.137463 34.515427
22.137951 51.137897 34.515427
22.143766 51.138332 34.515427
22.149582 51.138767 34.515427
22.155397 51.139202 34.515427
22.161213 51.139637 34.515427
22.167028 51.140072 34.515427
22.172844 51.140507 34.515427
22.178659 51.140942 34.515427
22.184475 51.141376 34.515427
22.19029 51.141811 34.515427
22.196106 51.142246 34.515427
22.201921 51.142681 34.515427
22.207737 51.143116 34.515427
22.213552 51.143551 34.515427
22.219368 51.143986 34.515427
22.225183 51.144421 34.515427
22.230999 51.144855 34.515427
22.236814 51.14529 34.515427
22.24263 51.145725 34.515427
22.248446 51.14616 34.515427
22.254261 51.146595 34.515427
22.260077 51.14703 34.515427
22.265892 51.147465 34.515427
22.271708 51.1479 34.515427
22.277523 51.148335 34.515427
22.283339 51.148769 34.515427
22.289154 51.149204 34.515427
22.29497 51.149639 34.515427
22.300785 51.150074 34.515427
22.306601 51.150509 34.515427
22.312416 51.150944 34.515427
22.318232 51.151379 34.515427
22.324047 51.151814 34.515427
22.329863 51.152248 34.515427
22.335678 51.152683 34.515427
22.341494 51.153118 34.515427
22.347309 51.153553 34.515427
22.353125 51.153988 34.515427
22.35894 51.154423 34.515427
22.364756 51.154858 34.515427
22.370571 51.155293 34.515427
22.376387 51.155727 34.515427
22.382202 51.156162 34.515427
22.388018 51.156597 34.515427
22.393833 51.157032 34.515427
22.399649 51.157467 34.515427
22.405464 51.157902 34.515427
22.41128 51.158337 34.515427
22.417095 51.158772 34.515427
22.422911 51.159206 34.515427
22.428726 51.159641 34.515427
22.434542 51.160076 34.515427
22.440357 51.160511 34.515427
22.446173 51.160946 34.515427
22.451988 51.161381 34.515427
22.457804 51.161816 34.515427
22.463619 51.162251 34.515427
22.469435 51.162685 34.515427
22.469477 51.162918 34.515427
22.469484 51.162807 34.497559
22.469492 51.162697 34.479691
22.4695 51.162586 34.461823
22.469507 51.162476 34.443954
22.469515 51.162365 34.426086
22.469522 51.162254 34.408218
22.46953 51.162144 34.39035
22.469538 51.162033 34.372482
22.469545 51.161922 34.354614
22.469553 51.161812 34.336746
22.469561 51.161701 34.318878
22.469568 51.161591 34.30101
22.469576 51.16148 34.283142
22.469584 51.161369 34.265274
22.469591 51.161259 34.247406
22.469599 51.161148 34.229538
22.469606 51.161037 34.21167
22.469614 51.160927 34.193802
22.469622 51.160816 34.175934
22.469629 51.160706 34.158066
22.469637 51.160595 34.140198
22.469645 51.160484 34.12233
22.469652 51.160374 34.104462
22.46966 51.160263 34.086594
22.469667 51.160152 34.068726
22.469675 51.160042 34.050858
22.469683 51.159931 34.03299
22.46969 51.159821 34.015121
22.469698 51.15971 33.997253
22.469706 51.159599 33.979385
22.469713 51.159489 33.961517
22.469721 51.159378 33.943649
22.469728 51.159267 33.925781
22.469736 51.159157 33.907913
22.469744 51.159046 33.890045
22.469751 51.158936 33.872177
22.469759 51.158825 33.854309
22.469767 51.158714 33.836441
22.469774 51.158604 33.818573
22.469782 51.158493 33.800705
22.46979 51.158382 33.782837
22.469797 51.158272 33.764969
22.469805 51.158161 33.747101
22.469812 51.158051 33.729233
22.46982 51.15794 33.711365
22.469828 51.157829 33.693497
22.469835 51.157719 33.675629
22.469843 51.157608 33.657761
22.469851 51.157497 33.639893
22.469858 51.157387 33.622025
22.469866 51.157276 33.604156
22.469873 51.157166 33.586288
22.469881 51.157055 33.56842
22.469889 51.156944 33.550552
22.469896 51.156834 33.532684
22.469904 51.156723 33.514816
22.469912 51.156612 33.496948
22.469919 51.156502 33.47908
22.469927 51.156391 33.461212
22.469934 51.156281 33.443344
22.469942 51.15617 33.425476
22.46995 51.156059 33.407608
22.469957 51.155949 33.38974
22.469965 51.155838 33.371872
22.469973 51.155727 33.354004
22.46998 51.155617 33.336136
22.469988 51.155506 33.318268
22.469995 51.155396 33.3004
22.470003 51.155285 33.282532
22.470011 51.155174 33.264664
22.470018 51.155064 33.246796
22.470026 51.154953 33.228928
22.470034 51.154842 33.21106
22.470041 51.154732 33.193192
22.470049 51.154621 33.175323
22.470057 51.15451 33.157455
22.470064 51.1544 33.139587
22.470072 51.154289 33.121719
22.470079 51.154179 33.103851
22.470087 51.154068 33.085983
22.470095 51.153957 33.068115
22.470102 51.153847 33.050247
22.47011 51.153736 33.032379
22.470118 51.153625 33.014511
22.470125 51.153515 32.996643
22.470133 51.153404 32.978775
22.47014 51.153294 32.960907
22.470148 51.153183 32.943039
22.470156 51.153072 32.925171
22.470163 51.152962 32.907303
22.470171 51.152851 32.889435
22.470179 51.15274 32.871567
22.470186 51.15263 32.853699
22.470194 51.152519 32.835831
22.470201 51.152409 32.817963
22.470209 51.152298 32.800095
22.470217 51.152187 32.782227
22.470224 51.152077 32.764359
22.470232 51.151966 32.74649
22.47024 51.151855 32.728622
22.470247 51.151745 32.710754
22.470255 51.151634 32.692886
22.470263 51.151524 32.675018
22.47027 51.151413 32.65715
22.470278 51.151302 32.639282
22.470285 51.151192 32.621414
22.470293 51.151081 32.603546
22.470301 51.15097 32.585678
22.470308 51.15086 32.56781
22.470316 51.150749 32.549942
22.470324 51.150639 32.532074
22.470331 51.150528 32.514206
22.470339 51.150417 32.496338
22.470346 51.150307 32.47847
22.470354 51.150196 32.460602
22.470362 51.150085 32.442734
22.470369 51.149975 32.424866
22.470377 51.149864 32.406998
22.470385 51.149754 32.38913
22.470392 51.149643 32.371262
22.4704 51.149532 32.353394
22.470407 51.149422 32.335526
22.470415 51.149311 32.317657
22.470423 51.1492 32.299789
22.47043 51.14909 32.281921
22.470438 51.148979 32.264053
22.470446 51.148869 32.246185
22.470453 51.148758 32.228317
22.470461 51.148647 32.210449
22.470469 51.148537 32.192581
22.470476 51.148426 32.174713
22.470484 51.148315 32.156845
22.470491 51.148205 32.138977
22.470499 51.148094 32.121109
22.470507 51.147984 32.103241
22.470514 51.147873 32.085373
22.470522 51.147762 32.067505
22.47053 51.147652 32.049637
22.470537 51.147541 32.031769
22.470545 51.14743 32.013901
22.470552 51.14732 31.996031
22.47056 51.147209 31.978161
22.470568 51.147099 31.960291
22.470575 51.146988 31.942421
22.470583 51.146877 31.924551
22.470591 51.146767 31.906681
22.470598 51.146656 31.888811
22.470606 51.146545 31.870941
22.470613 51.146435 31.853071
22.470621 51.146324 31.835201
22.470629 51.146214 31.817331
22.470636 51.146103 31.799461
22.470644 51.145992 31.781591
22.470652 51.145882 31.763721
22.470659 51.145771 31.745852
22.470667 51.14566 31.727982
22.470675 51.14555 31.710112
22.470682 51.145439 31.692242
22.47069 51.145329 31.674372
22.470697 51.145218 31.656502
22.470705 51.145107 31.638632
22.470713 51.144997 31.620762
22.47072 51.144886 31.602892
22.470728 51.144775 31.585022
22.470736 51.144665 31.567152
22.470743 51.144554 31.549282
22.470751 51.144444 31.531412
22.470758 51.144333 31.513542
22.470766 51.144222 31.495672
22.470774 51.144112 31.477802
22.470781 51.144001 31.459932
22.470789 51.14389 31.442062
22.470797 51.14378 31.424192
22.470804 51.143669 31.406322
22.470812 51.143559 31.388453
22.470819 51.143448 31.370583
22.470827 51.143337 31.352713
22.470835 51.143227 31.334843
22.470842 51.143116 31.316973
22.47085 51.143005 31.299103
22.470858 51.142895 31.281233
22.470865 51.142784 31.263363
22.470873 51.142673 31.245493
22.470881 51.142563 31.227623
22.470888 51.142452 31.209753
22.470896 51.142342 31.191883
22.470903 51.142231 31.174013
22.470911 51.14212 31.156143
22.470919 51.14201 31.138273
22.470926 51.141899 31.120403
22.470934 51.141788 31.102533
22.470942 51.141678 31.084663
22.470949 51.141567 31.066793
22.470957 51.141457 31.048923
22.470964 51.141346 31.031054
22.470972 51.141235 31.013184
22.47098 51.141125 30.995314
22.470987 51.141014 30.977444
22.470995 51.140903 30.959574
22.471003 51.140793 30.941704
22.47101 51.140682 30.923834
22.471018 51.140572 30.905964
22.471025 51.140461 30.888094
22.471033 51.14035 30.870224
22.471041 51.14024 30.852354
22.471048 51.140129 30.834484
22.471056 51.140018 30.816614
22.471064 51.139908 30.798744
22.471071 51.139797 30.780874
22.471079 51.139687 30.763004
22.471087 51.139576 30.745134
22.471094 51.139465 30.727264
22.471102 51.139355 30.709394
22.471109 51.139244 30.691525
22.471117 51.139133 30.673655
22.471125 51.139023 30.655785
22.471132 51.138912 30.637915
22.47114 51.138802 30.620045
22.471148 51.138691 30.602175
22.471155 51.13858 30.584305
22.471163 51.13847 30.566435
22.47117 51.138359 30.548565
22.471178 51.138248 30.530695
22.471186 51.138138 30.512825
22.471193 51.138027 30.494955
22.471201 51.137917 30.477085
22.471209 51.137806 30.459215
22.471216 51.137695 30.441345
22.471224 51.137585 30.423475
22.471231 51.137474 30.405605
22.471239 51.137363 30.387735
22.471247 51.137253 30.369865
22.471254 51.137142 30.351995
22.471262 51.137032 30.334126
22.47127 51.136921 30.316256
22.471277 51.13681 30.298386
22.471285 51.1367 30.280516
22.471292 51.136589 30.262646
22.4713 51.136478 30.244776
22.471308 51.136368 30.226906
22.471315 51.136257 30.209036
22.471323 51.136147 30.191166
22.471331 51.136036 30.173296
22.471338 51.135925 30.155426
22.471346 51.135815 30.137556
22.471354 51.135704 30.119686
22.471361 51.135593 30.101816
22.471369 51.135483 30.083946
22.471376 51.135372 30.066076
22.471384 51.135262 30.048206
22.47156 51.135143 30.047968
22.465744 51.134708 30.047968
22.459929 51.134274 30.047968
22.454113 51.133839 30.047968
22.448298 51.133404 30.047968
22.442482 51.132969 30.047968
22.436666 51.132534 30.047968
22.430851 51.132099 30.047968
22.425035 51.131664 30.047968
22.41922 51.131229 30.047968
22.413404 51.130795 30.047968
22.407589 51.13036 30.047968
22.401773 51.129925 30.047968
22.395958 51.12949 30.047968
22.390142 51.129055 30.047968
