# .PCD v0.7 - Point Cloud Data file format
VERSION 0.7
FIELDS x y z
SIZE 4 4 4
TYPE F F F
COUNT 1 1 1
WIDTH 1596
HEIGHT 1
VIEWPOINT 0 0 0 1 0 0 0
POINTS 1596
DATA ascii
11.044526 51.092876 5.3199153
10.961131 51.538387 5.7257829
10.993406 51.563477 5.3548031
10.967114 52.089329 5.4084048
10.815353 53.692795 7.5082226
10.828315 53.689949 7.1159773
10.828419 53.667603 6.7220292
10.837528 53.658993 6.3306274
10.629535 58.109699 13.243545
10.634499 58.091576 12.798061
10.647274 58.086826 12.357756
10.664601 57.883015 8.4324055
10.697435 57.912918 8.010993
10.692874 57.879829 7.5815535
10.691404 57.852024 7.1541133
10.703226 57.846661 6.7303157
10.702938 57.820969 6.3051729
10.726196 57.834911 5.8845668
10.716946 57.794258 5.4598098
10.580075 58.806644 15.199351
10.592045 58.772362 14.28384
10.600155 58.731949 13.375345
10.59116 58.689453 12.918581
10.604547 58.685635 12.473669
10.586302 58.627491 12.017686
10.605359 58.633644 11.578604
10.617497 58.470921 8.503933
10.665531 58.527237 8.0816097
10.651513 58.477436 7.6451807
10.660602 58.46722 7.2151847
10.67278 58.46233 6.7866111
10.693109 58.47139 6.3600817
10.686322 58.434223 5.9297733
10.677582 58.393795 5.5003996
10.697216 58.401775 5.0755215
10.523369 59.498631 17.240036
10.528251 59.478882 16.765064
10.521312 59.438538 16.286024
10.521574 59.411015 15.814068
10.548284 59.430027 15.359004
10.55368 59.411789 14.894524
10.547241 59.372959 14.426476
10.538555 59.330357 13.96004
10.561502 59.343243 13.510857
10.553287 59.301743 13.04931
10.562326 59.290531 12.597558
10.569273 59.275772 12.146722
10.471766 59.759186 11.796151
11.091345 51.680027 0.33733091
11.065238 51.731297 0.32291049
11.037899 52.084557 1.4831299
11.042955 52.084713 1.3235673
11.040265 52.076809 1.1660497
11.02871 52.148376 1.4694158
11.040449 52.155468 1.3068575
11.071341 52.182426 1.1365476
11.038224 52.233105 1.4514819
11.063379 52.254082 1.2833612
11.048783 52.315155 1.4232481
11.053624 52.314838 1.2611464
11.059005 52.396919 1.3893502
11.050248 52.382271 1.2309632
10.94092 52.77174 1.3173611
10.938723 52.763382 1.1525662
10.942204 52.760952 0.98519748
10.958011 52.771408 0.81253862
10.952675 52.759686 0.64689988
10.95963 52.760807 0.47583106
10.965488 52.760746 0.30429941
10.869795 53.096996 10.248884
10.887821 53.109943 10.083805
10.976689 52.929859 2.7711043
10.905913 53.212563 10.467757
10.94001 52.982521 3.4210184
10.95087 52.987881 3.2574816
10.953912 52.984966 3.0948625
10.949153 52.973812 2.9334338
10.825602 53.245522 9.987792
10.951956 53.212543 3.5896413
10.929219 53.259178 3.587183
10.87769 53.640266 9.429203
10.877448 53.633209 9.254879
10.882792 53.632202 9.0828199
10.866996 53.608429 8.9056473
10.876882 53.61237 8.7360325
10.905878 53.636909 8.5713463
10.907003 53.631435 8.4001493
10.913812 53.632095 8.2306843
10.91758 53.622871 7.890902
10.914526 53.61298 7.7207856
10.923978 53.616535 7.5532022
10.925641 53.61174 7.3846259
10.926282 53.605862 7.2162499
10.925904 53.598904 7.0480876
10.928907 53.58905 6.7131128
10.932303 53.586166 6.5461531
10.934698 53.582222 6.3792839
10.942915 53.584507 6.2129159
10.958958 53.556225 5.0478597
10.952389 53.54274 4.8818598
10.963627 53.541748 4.5486269
10.970881 53.536488 4.2149734
10.966179 53.52499 4.0487566
10.953794 53.498825 3.7166569
10.801715 53.618179 9.2607346
10.80034 53.610081 9.0869713
10.804564 53.608055 8.9154043
10.834536 53.633801 8.7508984
10.876967 53.67297 8.589201
10.878133 53.667667 8.4175692
10.884976 53.668503 8.2476721
10.890787 53.668236 8.0779076
10.888812 53.659611 7.9070182
10.899316 53.664417 7.7388301
10.895266 53.653595 7.5684462
10.896954 53.648956 7.3994322
10.897617 53.643227 7.2306175
10.904054 53.643707 7.0628524
10.902683 53.635822 6.8943882
10.900294 53.626854 6.7261624
10.910513 53.631413 6.5593405
10.912922 53.627605 6.3919454
10.914328 53.62273 6.2246532
10.91473 53.616787 6.057477
10.914132 53.609779 5.890429
10.919364 53.609013 5.7236629
10.923601 53.607182 5.5568762
10.92001 53.596985 5.3901157
10.91542 53.585732 5.2235351
10.923507 53.588013 5.0567293
10.923763 53.581936 4.8900747
10.936698 53.589371 4.7226977
10.928127 53.573879 4.556438
10.939066 53.57917 4.3887496
10.935337 53.568836 4.2220826
10.937443 53.564705 4.0547776
10.9522 53.574028 3.8857691
10.931825 53.545975 3.7208848
10.788961 53.647511 8.758666
10.858163 53.715771 8.6032782
10.859304 53.710651 8.4311247
10.859386 53.704414 8.2592611
10.865156 53.704315 8.0890617
10.856388 53.688587 7.9164619
10.860075 53.686279 7.7467394
10.862733 53.68288 7.577189
10.877918 53.692955 7.4098496
10.892108 53.701958 7.2423615
10.871342 53.673435 7.0705409
10.883506 53.680279 6.9032283
10.88787 53.678757 6.7351403
10.891226 53.676163 6.5671291
10.893575 53.672493 6.3992071
10.894917 53.667751 6.2313876
10.895256 53.661942 6.0636835
10.89459 53.655064 5.8961072
10.906578 53.661724 5.7289567
10.903912 53.652714 5.5615005
10.907076 53.649937 5.3941789
10.90241 53.638794 5.2269812
10.903577 53.633888 5.0597687
10.910582 53.635212 4.892293
10.909754 53.628174 4.7250662
10.914761 53.627354 4.5574274
10.925597 53.632744 4.3891273
10.91494 53.615219 4.222487
10.92377 53.618454 4.0539265
10.931589 53.620602 3.8851249
10.917934 53.599884 3.7188048
10.831291 53.751339 8.611455
10.839086 53.753624 8.4403982
10.84584 53.754799 8.2694588
10.844814 53.747608 8.097291
10.849484 53.746567 7.9267139
10.846359 53.737156 7.7551084
10.835418 53.719349 7.5827475
10.857294 53.736851 7.4159832
10.844271 53.716843 7.2442656
10.857354 53.724903 7.0764632
10.855845 53.717293 6.907033
10.860117 53.7159 6.7385058
10.870186 53.720734 6.5706329
10.865631 53.709885 6.4016929
10.866876 53.705261 6.2334337
10.873933 53.706871 6.0656061
10.873167 53.700108 5.8975024
10.871395 53.692268 5.7295399
10.882276 53.697975 5.561841
10.8785 53.688 5.3940239
10.887383 53.691563 5.2261467
10.881604 53.679451 5.0585265
10.881656 53.673573 4.8908167
10.887537 53.67392 4.7227693
10.892417 53.673191 4.5546031
10.903122 53.678665 4.385776
10.892338 53.661217 4.2186093
10.887381 53.649986 4.0509815
10.881423 53.637688 3.8834605
10.881282 53.63158 3.7151558
10.819422 53.800911 8.6227589
10.82045 53.796124 8.449563
10.813683 53.782955 8.2752104
10.832798 53.797688 8.1067715
10.823914 53.782276 7.9330387
10.834231 53.787552 7.7633686
10.829997 53.77718 7.5914969
10.831489 53.77298 7.4209957
10.831949 53.767685 7.2506924
10.83817 53.768593 7.0814385
10.843376 53.768414 6.9122348
10.840768 53.759853 6.7424288
10.837135 53.750206 6.5728736
10.846104 53.754082 6.404563
10.847255 53.74958 6.2357769
10.847397 53.743999 6.0671053
10.853351 53.744656 5.8987913
10.858302 53.744232 5.7304435
10.855424 53.735432 5.5620198
10.865195 53.74017 5.3936982
10.853479 53.721916 5.2255654
10.861246 53.724506 5.0571785
10.86801 53.726021 4.8886476
10.86694 53.719158 4.720367
10.871695 53.718513 4.5516734
10.875443 53.716789 4.382875
10.864533 53.699421 4.2152691
10.806949 53.85178 8.6359253
10.821383 53.861664 8.465188
10.807876 53.841427 8.2886076
10.81348 53.84182 8.1167555
10.811295 53.833828 7.9437733
10.821566 53.839272 7.7734942
10.81052 53.82177 7.5999112
10.825498 53.832294 7.4309125
10.825911 53.827152 7.2599106
10.832078 53.828209 7.0899582
10.830435 53.820877 6.9193029
10.83456 53.819756 6.7495494
10.83767 53.817547 6.5798721
10.832956 53.806942 6.4097915
10.834032 53.802567 6.2403913
10.84091 53.804417 6.0714231
10.846783 53.805187 5.9024081
10.838005 53.79026 5.7330732
10.855508 53.803493 5.5642891
10.851535 53.79372 5.3952427
10.860205 53.797485 5.2261372
10.861042 53.792862 5.0570812
10.847219 53.77256 4.8886423
10.852869 53.773087 4.7194538
10.850685 53.765236 4.5506148
10.854318 53.763599 4.38129
10.843297 53.746307 4.2131567
10.795997 53.910835 8.6561222
10.817219 53.928139 8.4862366
10.810528 53.915325 8.3103199
10.809484 53.908627 8.13624
10.800632 53.89352 7.9611983
10.81096 53.899113 7.7902293
10.813501 53.89632 7.6181517
10.808233 53.885128 7.4452395
10.808689 53.880116 7.2736268
10.814893 53.881298 7.1030664
10.813285 53.874084 6.9317985
10.824237 53.880386 6.7621045
10.820579 53.870983 6.5911469
10.829502 53.875111 6.4214416
10.830606 53.870838 6.2512546
10.837506 53.872795 6.0815024
10.83658 53.866352 5.911469
10.841457 53.866138 5.7417221
10.845324 53.864841 5.5719533
10.84818 53.862457 5.4021754
10.850024 53.858994 5.2324023
10.850858 53.854446 5.0626459
10.850679 53.848816 4.8929195
10.84949 53.842102 4.7232361
10.854112 53.841606 4.5531445
10.8509 53.832726 4.3834982
10.799144 53.985249 8.6785908
10.820507 54.002682 8.5078516
10.813963 53.98999 8.331068
10.81306 53.983402 8.1561232
10.804344 53.968407 7.9802113
10.808046 53.966824 7.8071866
10.810702 53.964127 7.6343293
10.81908 53.967602 7.4626727
10.819656 53.962681 7.2901044
10.81241 53.949348 7.1168971
10.8109 53.942207 6.9448447
10.821939 53.948578 6.7743716
10.825167 53.946545 6.6032128
10.834174 53.950733 6.4326391
10.828553 53.939201 6.261169
10.828713 53.933891 6.0903106
10.827852 53.927486 5.9195781
10.846421 53.941944 5.749433
10.823073 53.911419 5.5785437
10.846437 53.931011 5.4081678
10.84151 53.920254 5.237721
10.842387 53.915726 5.067266
10.84225 53.91011 4.896841
10.847918 53.910709 4.7260847
10.845749 53.902916 4.5556703
10.849383 53.901329 4.3847766
10.871912 54.133949 8.7062845
10.871029 54.110355 7.9997244
10.87486 54.108868 7.8250537
10.864121 54.091679 7.6483412
10.852299 54.073341 7.4721551
10.859712 54.07576 7.2993026
10.838976 54.047855 7.1231079
10.830726 54.033428 6.9491692
10.848584 54.047119 6.7783184
10.845047 54.037785 6.6054449
10.84047 54.02734 6.4328322
10.85527 54.037743 6.2617192
10.848635 54.025101 6.0894065
10.854587 54.025993 5.9178629
10.852705 54.018471 5.7461371
10.849799 54.009853 5.574564
10.852687 54.007462 5.4031291
10.847736 53.996658 5.231813
10.855402 53.99939 5.0602841
10.855228 53.993713 4.8889003
10.860853 53.994247 4.7171836
10.858639 53.986382 4.5458126
10.869034 53.992016 4.3734093
10.797266 54.415066 8.7434502
10.764318 54.448208 8.7374277
10.818052 54.676243 4.1722069
11.059445 50.72411 5.7534714
11.066432 50.766438 5.3958182
11.018791 50.751705 5.3893652
11.006423 50.785465 5.3863192
11.003062 51.12949 6.5232491
10.988005 51.098812 6.1504269
10.978653 51.406052 8.7803192
10.976398 51.390945 8.4019547
10.984356 51.388699 8.0270739
10.977863 51.368347 7.6500349
10.98782 51.368668 7.2773962
10.977122 51.343113 6.9017153
10.989135 51.346062 6.5310035
10.974263 51.315346 6.1567125
10.975636 51.509247 10.29295
10.992236 51.505199 9.532258
11.000391 51.503048 9.1535473
10.994125 51.482784 8.7722502
10.979546 51.45211 8.3903742
10.999794 51.465275 8.0178022
10.993289 51.444832 7.6401668
11.01558 51.460606 7.2693148
11.011074 51.442738 6.8939776
10.998278 51.414497 6.5182967
11.001996 51.407017 6.1463127
10.971578 51.521606 8.7790947
10.963282 51.498661 8.3985023
10.971314 51.49633 8.0229321
10.971091 51.483627 7.6464949
10.981119 51.483864 7.273077
10.976715 51.465965 6.8977394
10.976413 51.453259 6.5241079
10.992633 51.461353 6.1538286
10.848061 51.810181 20.092453
10.853587 51.802731 19.656975
10.859548 51.767456 18.362751
10.951419 51.492313 6.5435662
10.955938 51.684711 10.33763
10.963048 51.656269 9.1897221
10.963151 51.644001 8.8090162
10.961117 51.62907 8.4290123
10.975386 51.634792 8.0538664
10.962971 51.606812 7.6738086
10.973067 51.607315 7.2995248
10.97493 51.597443 6.924428
10.974718 51.58498 6.5498366
10.966253 51.56213 6.1748381
10.95948 51.790276 11.497382
10.967918 51.763203 10.335526
10.968363 51.751266 9.9504128
10.966629 51.736614 9.5660791
10.974941 51.734745 9.1858187
10.968893 51.714703 8.802969
10.979074 51.715275 8.4253674
10.981023 51.705444 8.0467806
10.993156 51.708546 7.6713548
10.984758 51.68568 7.2926064
10.998897 51.691368 6.9191284
10.980142 51.655468 6.5406837
10.990154 51.655987 6.1679869
10.947855 51.775806 9.1954699
10.9542 51.771275 8.8155394
10.946187 51.748547 8.433217
10.942156 51.730919 8.0531731
10.954416 51.734001 7.6777511
10.958465 51.726688 7.3014016
10.966587 51.724571 6.9266415
10.954166 51.696438 6.5491333
10.958152 51.689133 6.1753259
10.805064 52.113567 22.425285
10.814773 52.095547 21.517159
10.806844 52.070251 21.059429
10.807205 52.055763 20.611559
10.839082 52.067249 19.747461
10.825385 52.035007 19.300344
10.932347 51.757992 6.9425349
10.950186 51.962311 10.377453
10.938875 51.935089 9.9873562
10.943568 51.928352 9.6035385
10.946112 51.918915 9.2203579
10.940416 51.89901 8.8362989
10.950882 51.899754 8.4574938
10.953139 51.890068 8.0776997
10.959414 51.885532 7.69978
10.945212 51.854942 7.3187008
10.959577 51.860771 6.9441891
10.953459 51.840549 6.5667505
10.957561 51.833363 6.1919007
10.950169 52.057312 11.155725
10.931185 52.020245 10.759283
10.952233 52.034485 10.377459
10.940881 52.007301 9.9868526
10.957646 52.016136 9.6059513
10.954069 51.998989 9.2204523
10.954417 51.986904 8.8373375
10.952629 51.97213 8.4549227
10.954817 51.962475 8.0746098
10.973246 51.973583 7.6987395
10.952882 51.935204 7.3157759
10.973292 51.948895 6.9417644
10.967119 51.928692 6.5636349
10.971151 51.921532 6.1880898
10.918265 52.021149 8.8505535
10.916593 52.006443 8.468049
10.919082 51.984619 7.7078342
10.935521 51.993195 7.3322415
10.94379 51.991337 6.9556603
10.931613 51.963371 6.5763249
10.935747 51.956284 6.2006927
10.789404 52.376598 22.069859
10.801674 52.3773 21.620918
10.805532 52.367188 21.169304
10.82253 52.344597 19.839397
10.91376 52.070354 8.1055155
10.912418 52.043343 7.3454642
10.908607 52.025864 6.966392
10.914948 52.021423 6.5900555
10.91311 52.006531 6.2131338
10.912402 52.272366 11.982197
10.928311 52.279743 11.593021
10.912058 52.245686 11.194016
10.911532 52.231976 10.802299
10.914814 52.223221 10.413355
10.915912 52.2117 10.025154
10.939004 52.228542 9.6446037
10.929746 52.203773 9.2560081
10.936494 52.19965 8.8730621
10.922907 52.169411 8.4862595
10.937563 52.175526 8.1073999
10.944057 52.171181 7.7274919
10.94237 52.156353 7.3468251
10.938588 52.138866 6.9668036
10.938829 52.126579 6.5884852
10.96148 52.143078 6.2144613
10.909396 52.3587 12.387646
10.91557 52.353611 11.992796
10.919504 52.345676 11.59873
10.921208 52.334911 11.205481
10.926689 52.329079 10.815055
10.935991 52.328228 10.427228
10.943131 52.324627 10.039972
10.917943 52.27935 9.6447315
10.926771 52.278019 9.2607737
10.927423 52.266178 8.8757629
10.938068 52.267262 8.4943676
10.940548 52.257847 8.1119814
10.947003 52.25359 7.7314658
10.939194 52.230995 7.3489928
10.935372 52.213573 6.968451
10.947776 52.217056 6.5916643
10.933691 52.186493 6.2113032
10.809453 52.576191 20.355289
10.900513 52.328007 9.2813282
10.895248 52.308495 8.8945074
10.899941 52.301891 8.5114794
10.890398 52.276936 8.1262512
10.903008 52.280628 7.7471128
10.895309 52.258133 7.3646317
10.897681 52.248669 6.9852014
10.916268 52.260143 6.6093612
10.920623 52.253284 6.2316442
10.892262 52.426781 10.063559
10.888466 52.395966 9.2865858
10.889361 52.384247 8.9008856
10.890815 52.360489 8.1329756
10.897468 52.356331 7.7519431
10.908111 52.357365 7.3725538
10.910612 52.347893 6.9923458
10.904954 52.327908 6.611608
10.909401 52.321007 6.2334585
10.897915 52.624523 13.231267
10.903094 52.617718 12.830608
10.900068 52.600285 12.428518
10.900678 52.58765 12.029743
10.904971 52.579872 11.634063
10.907035 52.569244 11.239197
10.894926 52.540234 10.841228
10.898516 52.5317 10.450147
10.911918 52.535973 10.06341
10.899154 52.506279 9.6702366
10.920293 52.520679 9.2879934
10.921264 52.508915 8.9012642
10.914062 52.486588 8.5137711
10.916806 52.477207 8.12992
10.929558 52.480843 7.7492223
10.92205 52.458237 7.3651962
10.930647 52.456539 6.9853234
10.918949 52.428577 6.6027021
10.929494 52.429455 6.2247124
10.885702 52.71072 13.657031
10.881527 52.691647 13.249963
10.886802 52.68499 12.84888
10.877968 52.659966 12.444047
10.87866 52.647453 12.04493
10.87709 52.632042 11.646763
10.891125 52.637051 11.25576
10.897022 52.631489 10.863285
10.876822 52.591957 10.46396
10.896266 52.604153 10.078685
10.889606 52.582371 9.6867943
10.898785 52.581268 9.3007746
10.905843 52.577442 8.9152451
10.898728 52.55521 8.527317
10.901544 52.54594 8.1430321
10.920393 52.557549 7.7631903
10.900867 52.519302 7.3762412
10.903448 52.509827 6.9949083
10.910026 52.505569 6.6151023
10.920624 52.506554 6.2365918
10.767873 52.934265 22.278954
10.780868 52.920437 21.366402
10.771983 52.893398 20.90451
10.782419 52.891987 20.460125
10.773358 52.864971 20.005644
10.876986 52.614204 8.5478516
10.873892 52.597221 8.1618433
10.868677 52.577515 7.7765884
10.87344 52.570847 7.3945251
10.882178 52.569386 7.0140471
10.882801 52.557384 6.632864
10.881356 52.542717 6.2522087
10.427777 53.167305 39.657024
10.872784 52.843262 12.886389
10.864224 52.818462 12.48045
10.871067 52.813942 12.082459
10.863829 52.791008 11.680951
10.872115 52.78849 11.286778
10.866313 52.767559 10.889325
10.864233 52.751564 10.49481
10.86592 52.740551 10.103008
10.871414 52.734573 9.7136946
10.868773 52.717987 9.3233767
10.875974 52.714321 8.936985
10.881061 52.707928 8.5511141
10.884039 52.698814 8.1657915
10.872859 52.671234 7.7784748
10.883692 52.672451 7.3969207
10.898506 52.67889 7.016777
10.893126 52.658993 6.6337004
10.903836 52.660114 6.254149
10.881593 52.960438 13.30014
10.875457 52.938644 12.892314
10.890531 52.944824 12.494963
10.885685 52.924858 12.091495
10.890375 52.917492 11.693431
10.892837 52.907249 11.296176
10.887137 52.886341 10.897789
10.879202 52.862556 10.500448
10.892882 52.867207 10.111397
10.892488 52.85342 9.7193365
10.883944 52.828995 9.3264475
10.891194 52.825329 8.9391956
10.89633 52.818928 8.5524616
10.899356 52.809795 8.1662788
10.912314 52.813709 7.7832465
10.899099 52.783379 7.3956847
10.895828 52.766109 7.0113349
10.908592 52.769848 6.6307325
10.937458 52.794662 6.2531261
10.847126 52.955669 11.702906
10.855607 52.953262 11.307626
10.855967 52.940205 10.911041
10.848174 52.91647 10.513441
10.856009 52.913361 10.122332
10.855732 52.899624 9.7300987
10.847317 52.875229 9.3370342
10.866632 52.887344 8.9527025
10.8659 52.873135 8.5641661
10.863041 52.856178 8.1763506
10.888105 52.875923 7.7957211
10.875038 52.845631 7.4078088
10.859846 52.812599 7.0208836
10.872697 52.816391 6.6401105
10.883508 52.817528 6.2595181
10.720856 53.283733 23.327774
10.7408 53.294167 22.869684
10.747019 53.286385 22.404436
10.728465 53.245663 21.924286
10.75067 53.259487 21.478859
10.753775 53.232372 20.567945
10.835889 52.969578 9.7481279
10.839543 52.96101 9.3578959
10.847032 52.957531 8.9698706
10.840446 52.935551 8.5794382
10.843697 52.926567 8.1926498
10.850845 52.922752 7.8077283
10.855914 52.916229 7.423243
10.858907 52.907005 7.0392246
10.871871 52.910923 6.6577601
10.864711 52.888405 6.2736483
10.843227 53.210846 13.767042
10.845679 53.200169 13.358997
10.857502 53.201988 12.956764
10.861216 53.193111 12.552917
10.850917 53.165718 12.145513
10.844187 53.143127 11.741537
10.846972 53.133205 11.342831
10.841629 53.112576 10.942986
10.857733 53.120388 10.551746
10.865769 53.117565 10.159093
10.859772 53.096226 9.7635937
10.857538 53.07991 9.3706961
10.871031 53.084431 8.9832687
10.870487 53.070435 8.5932636
10.873796 53.061565 8.2053509
10.875001 53.049957 7.818017
10.874108 53.035614 7.4312911
10.871122 53.018551 7.0452042
10.890096 53.030468 6.6638975
10.870933 52.992138 6.2769504
10.846519 53.33942 14.615306
10.85292 53.319828 13.791915
10.849691 53.301586 13.380541
10.855784 53.295811 12.975143
10.859598 53.287067 12.570618
10.86114 53.275368 12.166998
10.854547 53.252918 11.762171
10.863334 53.250957 11.364672
10.864027 53.2383 10.965863
10.856598 53.214924 10.566034
10.858786 53.204357 10.170889
10.870664 53.206688 9.7799454
10.874474 53.198364 9.3878202
10.870193 53.179359 8.9948053
10.875681 53.17334 8.6055698
10.87906 53.164562 8.2168798
10.868378 53.137215 7.8261924
10.885497 53.14669 7.4424629
10.882587 53.129696 7.0555091
10.883592 53.117908 6.6702518
10.888535 53.111359 6.2864604
10.823414 53.398289 14.222799
10.828503 53.390938 13.81252
10.820067 53.351608 12.990095
10.816415 53.291397 11.374475
10.823107 53.286617 10.977559
10.827614 53.27898 10.58134
10.829941 53.268494 10.185851
10.830097 53.255165 9.7911253
10.828089 53.23901 9.3971949
10.835806 53.235821 9.0071869
10.847361 53.237766 8.6191559
10.827029 53.197411 8.224618
10.846304 53.209671 7.840373
10.839626 53.187523 7.4514041
10.848794 53.186428 7.0665941
10.849915 53.174686 6.681076
10.854965 53.168186 6.2970243
10.72239 53.671844 23.014481
10.72277 53.639797 22.071964
10.809022 53.412739 12.192082
10.806779 53.368145 10.98667
10.811386 53.360542 10.589939
10.808164 53.328896 9.796978
10.824012 53.336414 9.4075203
10.837763 53.341175 9.0183725
10.8316 53.319443 8.6251812
10.84709 53.32658 8.2383795
10.830725 53.291355 7.8453641
10.842042 53.293007 7.4594846
10.818192 53.640507 15.513013
10.824916 53.634998 15.095381
10.823511 53.618641 14.676035
10.825458 53.606869 14.260572
10.825039 53.591991 13.846209
10.822265 53.574032 13.43298
10.822949 53.560783 13.023322
10.827146 53.552311 12.617018
10.829073 53.540859 12.211616
10.834583 53.534267 11.809296
10.837867 53.52475 11.407776
10.82133 53.488758 11.001163
10.837787 53.496983 10.60727
10.828548 53.470879 10.206547
10.828897 53.457649 9.8103638
10.850723 53.473171 9.421504
10.852709 53.462215 9.028142
10.854623 53.39732 7.0766845
10.843938 53.369698 6.6875529
10.804338 53.727421 15.53753
10.811206 53.722088 15.119313
10.798491 53.690449 14.6939
10.817795 53.702023 14.285983
10.811774 53.679562 13.868373
10.391698 54.126961 39.686008
10.686649 53.977036 24.083418
10.815371 53.62545 9.0579014
10.821369 53.619793 8.6656494
10.819344 53.603397 8.272562
10.8152 53.584206 7.8802204
10.832678 53.594055 7.4934678
10.836228 53.585251 7.1045966
10.837708 53.5737 6.716217
10.831165 53.551426 6.3274159
10.782893 53.858517 13.905868
10.786334 53.848694 13.493352
10.781693 53.828011 13.079431
10.792073 53.827709 12.673664
10.788619 53.808765 12.26416
10.795135 53.719303 9.4565687
10.815079 53.732342 9.0662985
10.815257 53.718788 8.6718102
10.813312 53.702412 8.2780342
10.821076 53.699146 7.8875799
10.82676 53.693115 7.4975557
10.8363 53.692295 7.1091075
10.837844 53.680756 6.7199483
10.81949 53.642502 6.328486
10.785147 54.057201 16.460052
10.780364 54.035679 16.028522
10.795749 54.041683 15.610058
10.797404 54.029087 15.186763
10.790943 54.005547 14.761914
10.804912 54.009846 14.349073
10.793653 53.979954 13.926707
10.811443 53.946396 12.285742
10.805855 53.924564 11.876236
10.797993 53.899719 11.467867
10.805337 53.895531 11.066594
10.822168 53.904232 10.669791
10.766706 53.815166 10.251721
10.789464 53.818077 9.4622107
10.8153 53.839123 9.072794
10.809649 53.817654 8.6760712
10.825436 53.82518 8.2857265
10.827348 53.813999 7.893034
10.838986 53.815983 7.5033445
10.830806 53.79126 7.1106009
10.84423 53.7957 6.7228031
10.843747 53.781422 6.3332987
10.783891 54.167694 16.498455
10.773713 54.138733 16.063101
10.783627 54.137276 15.640982
10.7798 54.117161 15.214192
10.793206 54.06213 13.130094
10.798107 54.054356 12.720229
10.777639 54.012154 12.302327
10.777964 53.998295 11.894626
10.793443 54.005085 11.494076
10.789316 53.985294 11.088079
10.800431 53.986256 10.688789
10.662001 54.407425 24.744942
10.75796 54.171944 14.395329
10.758492 54.157913 13.97709
10.762399 54.14856 13.562463
10.769731 54.143955 13.151233
10.757537 54.112778 12.733902
10.754526 54.0942 12.322441
10.755011 54.08046 11.914228
10.759039 54.071606 11.509042
10.760854 54.059795 11.10468
10.766275 54.052952 10.703071
10.765788 54.340641 15.690464
10.756441 54.297707 14.835394
10.753796 54.279152 14.412573
10.754458 54.265213 13.993578
10.764195 54.263779 13.580681
10.771651 54.259281 13.168605
10.759614 54.228176 12.750432
10.77975 54.241158 12.347057
10.757346 54.196022 11.929064
10.761486 54.187252 11.523026
10.769203 54.183422 11.119789
10.786341 54.192505 10.721023
10.751512 54.485584 17.007101
10.744406 54.460407 16.568197
10.745968 54.447269 16.136831
10.75631 54.446308 15.712546
10.74721 54.403648 14.855975
10.761693 54.408615 14.440366
10.762503 54.394859 14.020362
10.772367 54.393612 13.606453
10.75137 54.35006 13.181355
10.768065 54.35833 12.774177
10.765324 54.339989 12.360853
10.783319 54.350147 11.957212
10.770305 54.317848 11.543712
10.772341 54.306244 11.137474
10.777961 54.299606 10.733984
10.80461 54.321804 10.338431
10.733319 54.513325 14.893671
10.736711 54.502945 14.471909
10.743418 54.497211 14.053801
10.736425 54.472675 13.631666
10.738475 54.460674 13.215664
10.726788 54.429832 12.796046
10.735681 54.427391 12.386761
10.71937 54.390343 11.969634
10.729519 54.389751 11.564294
10.737479 54.3862 11.159604
10.754816 54.39558 10.759384
10.614974 54.89806 26.959642
10.632291 54.867516 25.440586
10.628113 54.791061 23.457691
10.623329 54.750034 22.490925
10.717185 54.562984 13.654221
10.713694 54.543266 13.235221
10.719289 54.536171 12.82205
10.716903 54.518124 12.407532
10.735164 54.528625 12.002704
10.734021 54.512417 11.592127
10.730641 54.493187 11.182539
10.730801 54.478897 10.775869
10.709358 54.744293 15.796641
10.712624 54.718319 14.941356
10.733205 54.731735 14.526135
10.717602 54.695045 14.096051
10.716565 54.678635 13.675054
10.713193 54.659065 13.255208
10.713189 54.644238 12.83887
10.716604 54.634212 12.425821
10.723487 54.629047 12.015842
10.716683 54.605007 11.602519
10.736343 54.617626 11.200248
10.725086 54.587555 10.788852
10.706964 54.924068 17.577621
10.714314 54.91861 17.14053
10.702538 54.886574 16.695391
10.704871 54.874313 16.260944
10.704741 54.858711 15.827756
10.718943 54.863159 15.404342
10.719578 54.848793 14.976277
10.717813 54.831173 14.549419
10.736227 54.841698 14.1341
10.712792 54.794102 13.701963
10.732263 54.806229 13.290889
10.726785 54.783752 12.871043
10.71899 54.758137 12.45242
10.726017 54.753166 12.041504
10.730823 54.745171 11.63137
10.739148 54.742115 11.22403
10.733803 54.720154 10.813584
10.591916 55.246445 27.639721
10.596622 55.234371 27.119011
10.597986 55.217766 26.60037
10.606243 55.211075 26.093225
10.695332 55.000294 16.732807
10.692333 54.980537 16.294535
10.697972 54.97295 15.863504
10.690807 54.93227 14.99938
10.694806 54.922649 14.574676
10.69645 54.909817 14.151044
10.690105 54.885918 13.726034
10.704027 54.890358 13.311964
10.710036 54.883827 12.896249
10.708099 54.866291 12.479178
10.720973 54.86945 12.069647
10.703107 54.829868 11.650396
10.734982 54.844978 10.841056
10.582629 55.354523 27.687828
10.592637 55.349949 27.17119
10.57907 55.312153 26.637434
10.685406 55.107128 16.759483
10.69171 55.069458 15.458027
10.692664 55.055466 15.028537
10.680017 55.022518 14.594931
10.698631 55.033417 14.17835
10.675566 54.986061 13.744941
10.689573 54.990654 13.330194
10.684362 54.968437 12.909159
10.688183 54.958916 12.493814
10.695436 54.954254 12.081535
10.697587 54.927853 11.257369
10.709638 54.930054 10.851405
10.677215 55.268192 18.119972
10.673541 55.231236 17.227062
10.678886 55.223022 16.788992
10.671085 55.180859 15.910707
10.669017 55.162498 15.476557
10.681237 55.164307 15.051965
10.691125 55.16291 14.628238
10.698689 55.158321 14.205413
10.681458 55.118999 13.773566
10.706878 55.139614 13.362615
10.696227 55.109688 12.938072
10.705877 55.108303 12.523859
10.696282 55.080002 12.103936
10.701449 55.072456 11.691499
10.693011 55.045918 11.275913
10.705157 55.04826 10.869092
10.66293 55.346931 17.263512
10.679483 55.354511 16.830769
10.671575 55.327629 16.386923
10.672201 55.312901 15.95048
10.675927 55.302631 15.518153
10.682811 55.296898 15.089729
10.681752 55.280048 14.659676
10.683903 55.267803 14.233433
10.700531 55.276028 13.815768
10.686805 55.241573 13.386706
10.693238 55.23558 12.968447
10.686116 55.210579 12.54659
10.688012 55.198338 12.130287
10.69901 55.198948 11.719062
10.696452 55.180565 11.304514
10.691668 55.159122 10.890982
10.544971 55.708504 28.383068
10.549245 55.695457 27.852173
10.565152 55.699261 27.337934
10.551861 55.642868 26.281979
10.653393 55.44709 16.855856
10.651961 55.413624 15.977311
10.650312 55.395714 15.541488
10.662881 55.398003 15.115221
10.656421 55.373455 14.681834
10.669871 55.377144 14.260154
10.681037 55.377666 13.839239
10.678709 55.359196 13.414311
10.674059 55.337524 12.99056
10.678367 55.328568 12.572496
10.686071 55.324467 12.157494
10.680238 55.301334 11.73913
10.684541 55.277775 10.91347
10.534829 55.766815 26.842348
10.548843 55.731548 25.31048
10.649693 55.651585 19.136488
10.646935 55.598965 17.77634
10.644459 55.57943 17.328133
10.653834 55.561028 16.448221
10.654829 55.546719 16.010113
10.666108 55.531555 15.146013
10.659846 55.507206 14.711618
10.667877 55.50322 14.286351
10.673595 55.496025 13.862017
10.660221 55.461845 13.43143
10.644232 55.760166 18.715576
10.645156 55.712978 17.363672
10.650609 55.673168 16.039749
10.638314 55.639973 15.596348
10.656681 55.650551 15.171064
10.661665 55.642143 14.74115
10.658742 55.622559 14.309721
10.64788 55.591766 13.877069
10.668134 55.605305 13.46033
10.652592 55.56802 13.030156
10.673959 55.58326 12.617188
10.659416 55.547546 12.191707
10.6755 55.525589 10.948756
10.754964 55.448769 5.690495
10.766929 55.451321 5.2924213
10.782645 55.459175 4.8950558
10.634775 55.726158 14.334632
10.650027 55.717205 13.486295
10.664249 55.691925 12.223982
10.750592 55.579514 5.7032857
10.779897 55.606609 5.3063121
10.772641 55.581963 4.9053354
10.796812 55.753742 4.9176669
10.81361 56.328007 4.5486798
10.767979 56.42292 4.9574494
10.712156 57.237423 8.7305202
10.698466 57.531773 8.7642488
10.761409 57.519718 5.8478312
10.75739 57.498768 5.4321151
10.479321 57.950123 24.744541
10.480485 57.933262 24.232767
10.493692 57.934822 23.735365
10.488951 57.909317 23.227324
10.496411 57.902458 22.73328
10.511204 57.906837 22.248671
10.513083 57.8918 21.75779
10.527518 57.895893 21.279852
10.529028 57.880554 20.795898
10.527817 57.861237 20.313614
10.549759 57.877026 19.850508
10.543243 57.84993 19.37129
10.539259 57.826786 18.897207
10.569223 57.854988 18.44754
10.565363 57.832245 17.979464
10.564194 57.813675 17.516079
10.576331 57.815262 17.063175
10.586057 57.813301 16.611301
10.588074 57.79982 16.157667
10.587669 57.782787 15.705312
10.590191 57.770248 15.256937
10.606391 57.778362 14.81749
10.620314 57.783119 14.378765
10.610458 57.752213 13.93116
10.619797 57.750221 13.494332
10.616076 57.728691 13.053859
10.62089 57.720047 12.618907
10.623466 57.708107 12.184864
10.623814 57.692894 11.751766
10.663636 57.643929 8.7744198
10.685198 57.660835 8.3576756
10.682626 57.641701 7.9361424
10.694532 57.644238 7.5187511
10.687775 57.618927 7.0985374
10.701086 57.623615 6.6829615
10.712356 57.625278 6.2675629
10.710482 57.607353 5.8508229
10.723222 57.611248 5.436738
10.722812 57.595558 5.0215502
10.463249 57.983303 21.782494
10.472705 57.979851 21.300335
10.48459 57.980206 20.82329
10.493835 57.976673 20.347584
10.479824 57.937977 19.859293
10.499282 57.950172 19.396967
10.495475 57.9272 18.922308
10.489045 57.900375 18.449337
10.511374 57.917221 17.99708
10.520821 57.914646 17.539444
10.522557 57.900501 17.079962
10.537651 57.906654 16.630587
10.539795 57.893311 16.176451
10.539522 57.876408 15.723592
10.542163 57.863995 15.274714
10.547772 57.856152 14.829602
10.551054 57.844875 14.38555
10.546654 57.822086 13.940187
10.550669 57.812069 13.500778
10.547022 57.790577 13.060134
10.562685 57.798256 12.629324
10.559928 57.778244 12.192869
10.582038 57.795742 11.767453
10.607451 57.818249 11.344233
10.616591 57.723259 8.3620625
10.614079 57.704147 7.9403553
10.620491 57.698467 7.5216675
10.624835 57.689713 7.1034393
10.638165 57.694458 6.6876035
10.638395 57.6796 6.2702188
10.642106 57.669979 5.854167
10.649316 57.665623 5.43922
10.648948 57.649948 5.0239444
10.450378 58.109707 21.341454
10.457337 58.102608 20.859859
10.487245 58.130596 20.39764
10.458101 58.068748 19.897724
10.472545 58.073406 19.431086
10.463745 58.042805 18.952276
10.483471 58.05571 18.494797
10.485123 58.041229 18.028727
10.489479 58.030964 17.567179
10.480865 58.001095 17.100952
10.496027 58.007439 16.650991
10.498105 57.977509 15.742824
10.511454 57.98135 15.298683
10.520571 57.962601 14.408002
10.170893 58.517677 39.413315
10.430266 58.249725 21.38497
10.447648 58.258522 20.909714
10.447103 58.240005 20.424906
10.438732 58.209652 19.938313
10.450009 58.192158 18.994225
10.48375 58.17551 17.147591
10.478162 58.150204 16.684639
10.491203 58.136803 15.779959
10.561678 58.082317 11.382779
10.421654 58.414394 21.441315
10.413973 58.384579 20.946564
10.439174 58.405418 20.478817
10.426073 58.367546 19.987507
10.446141 58.380726 19.52215
10.448276 58.366486 19.047783
10.472824 58.318184 16.728659
10.402691 58.564114 21.488255
10.410526 58.558022 21.00342
10.420774 58.555771 20.523647
10.433503 58.557468 20.048742
10.433431 58.539543 19.56827
10.475888 58.466373 15.8583
10.413344 58.7603 21.558764
10.406412 58.731251 21.06142
10.414726 58.707928 20.093658
10.460263 58.655323 16.813971
10.282048 59.095127 31.15209
10.396007 58.895683 21.118811
10.419048 58.841507 18.718195
10.369509 59.096603 22.656693
10.363799 59.068836 22.149727
10.389005 59.071018 21.174826
10.390084 59.054287 20.684082
10.402709 59.019516 19.238806
10.148191 59.526104 38.078136
10.230353 59.487167 33.688789
10.354656 59.24551 22.205667
10.370483 59.232758 21.220867
10.3819 59.232075 20.736134
10.395468 59.198311 19.286932
10.40668 59.197777 18.814474
10.210054 59.601906 32.555248
10.349126 59.427757 22.27103
10.372383 59.407829 20.793789
10.370824 59.578987 20.367985
10.372641 59.563259 19.87998
10.474176 58.275288 17.408451
10.504121 58.255356 14.830604
10.512584 58.164207 19.308067
10.536244 58.162437 18.003469
10.497222 58.074486 16.042189
10.610909 58.176743 14.786215
10.571645 58.117447 14.134643
10.586807 58.120754 13.49937
10.516865 55.561695 26.801971
10.513949 55.52676 25.43107
10.512325 55.493607 24.077631
10.537453 55.504974 23.418411
10.520654 55.376747 24.763611
10.682797 55.314587 14.418912
10.527827 55.243324 24.073347
10.579014 55.28265 23.426521
10.668907 55.159382 13.775192
10.561179 55.082268 25.332266
10.579111 55.006393 21.33634
10.527212 54.931747 25.264061
10.699409 54.814747 13.026399
10.562023 54.81517 23.896421
10.596449 54.741352 24.560146
10.723904 54.652905 15.49908
10.706238 54.558434 12.364133
10.524869 54.668434 30.013981
10.574748 54.426586 23.138666
10.600288 54.406273 21.172434
10.617369 54.343952 22.4384
10.613005 54.300194 25.05599
10.590612 54.227917 23.038351
10.621772 54.211613 21.076778
10.597281 54.223515 27.046719
10.784612 53.96669 9.1237879
10.634182 54.112652 25.656622
10.624412 54.085751 24.975489
10.637662 54.065826 23.640696
10.761304 53.873665 10.931765
10.672515 54.031902 25.630751
10.67967 53.908241 20.32914
10.793638 53.790623 10.905883
10.600486 53.905838 28.29661
10.667455 53.89053 24.910633
10.619113 53.808746 23.550148
10.690091 53.784916 19.648952
10.672722 53.73597 18.358068
10.686524 53.718884 17.088875
10.650803 53.787228 25.553799
10.597884 53.700703 24.183868
10.678486 53.766006 23.552912
10.634566 53.657188 20.903086
10.661008 53.652229 19.617466
10.677481 53.637466 18.339304
10.631412 53.63863 24.187992
10.685324 53.67659 23.545088
10.721531 53.696747 22.897005
10.674704 53.568958 19.613108
10.684396 53.547043 18.332848
10.70016 53.547176 17.700264
10.638199 53.612865 26.899191
10.673197 53.598255 24.879704
10.705027 53.597534 23.556078
10.72777 53.604164 22.902275
10.64734 53.475147 20.90169
10.642069 53.462372 24.890457
10.713891 53.51849 24.252756
10.696202 53.469162 22.91478
10.714449 53.471783 22.262829
10.649261 53.375423 20.928949
10.727115 53.407326 19.019306
10.719521 53.384521 18.376299
10.602894 53.393059 28.327877
10.679397 53.407333 25.627228
10.666316 53.363682 24.276384
10.720384 53.402557 23.63372
10.716008 53.38311 22.968599
10.720706 53.372807 22.310987
10.693727 53.330959 21.644201
10.67487 53.267891 19.690283
10.70497 53.268749 18.418024
10.720697 53.269936 17.785782
10.620003 53.352673 30.482395
10.656438 53.298321 26.337309
10.68397 53.281704 24.327454
10.745584 53.28545 21.708475
10.727798 53.25354 21.048782
10.678874 53.176685 19.735756
10.723567 53.207119 19.108671
10.725687 53.211433 23.04435
10.665021 53.109165 21.05302
10.704876 53.12986 23.043615
10.665156 53.047543 21.06094
10.695161 53.020874 18.495249
10.741398 53.011154 15.975965
10.679564 53.108063 25.018206
10.680192 53.032452 21.703897
10.745367 53.051991 19.7805
10.728652 53.020706 19.131271
10.687832 53.058781 24.332333
10.698534 53.037197 23.006989
10.758648 53.080517 22.372101
10.708309 52.999275 21.04282
10.757377 52.969833 17.842354
10.679256 53.02792 25.665688
10.697961 52.963684 22.338768
10.763807 52.979858 20.405348
10.765652 52.965645 19.759104
10.763178 52.947262 19.114399
10.686912 52.913746 23.668159
10.716281 52.909946 22.357805
10.715105 52.844593 19.752859
10.73739 52.887043 23.713387
10.763889 52.802433 19.149897
10.719919 52.82375 25.070692
10.740422 52.812027 23.741179
10.728951 52.76947 22.412825
10.734881 52.713509 19.809948
10.727015 52.645283 17.251347
10.753884 52.641499 15.996988
10.76822 52.640556 15.37316
10.730426 52.758991 25.096209
10.739927 52.705502 22.437996
10.74502 52.6796 21.130568
10.785989 52.70409 20.495949
10.77873 52.666626 19.2024
10.775111 52.63298 17.922186
10.773371 52.571781 15.395498
10.870698 52.463173 6.806365
10.691368 52.671837 25.77051
10.680513 52.629463 24.419771
10.711658 52.612625 22.443512
10.767003 52.604645 19.858948
10.799644 52.621025 19.226332
10.7263 52.519791 17.923407
10.781307 52.557995 17.305365
10.787724 52.534328 16.043928
10.717714 52.593956 24.448362
10.760223 52.619377 23.79957
10.768718 52.565529 21.168539
10.789756 52.525028 18.593906
10.749837 52.456512 17.307957
10.697226 52.523399 25.792864
10.754803 52.547733 24.472916
10.756935 52.458065 20.522921
10.800872 52.485371 19.891941
10.770706 52.441376 19.237541
10.801351 52.42643 17.333042
10.800758 52.396538 16.069458
10.727925 52.491745 26.49785
10.737736 52.304249 17.96007
10.78593 52.33585 17.340006
10.738111 52.401901 25.145864
10.744188 52.39212 24.477316
10.766271 52.397789 23.819508
10.756214 52.3727 23.151451
10.726089 52.298023 21.170589
10.80234 52.355976 20.549335
10.781922 52.2915 18.61054
10.785988 52.251072 16.705986
10.798375 52.233662 15.451361
10.796754 52.188622 13.580487
10.713341 52.332516 25.789486
10.724659 52.295486 23.781677
10.762898 52.316307 23.134499
10.802256 52.291645 20.529833
10.804525 52.278431 19.883656
10.81206 52.194767 16.064196
10.829753 52.197495 17.952202
10.768589 52.111805 19.212746
10.801346 52.110588 17.944677
10.817196 52.093567 16.681004
10.816252 52.060852 15.422141
10.708126 52.209236 27.844685
10.761494 52.139324 23.138653
10.79198 52.084934 19.882931
10.797427 52.073677 19.240858
10.752837 51.998829 17.947664
10.736588 52.066696 23.803888
10.747509 52.043594 22.48481
10.811764 52.02224 19.257748
10.802181 51.964806 17.339703
10.809936 51.940212 16.078634
10.829541 51.927025 14.829768
10.750351 52.083565 26.505615
10.76406 52.045708 24.484446
10.804931 52.034382 22.509052
10.790744 51.98814 21.19286
10.811972 51.991871 20.550434
10.849597 51.978897 18.630171
10.839311 51.953201 17.988153
10.782416 51.852043 16.072454
10.763571 51.999161 24.463522
10.811216 51.959946 21.179897
10.818419 51.950161 20.532095
10.792261 51.87635 18.590818
10.852855 51.917061 17.971714
10.833482 51.866539 16.696592
10.831645 51.848755 16.06538
10.825589 51.827076 15.435509
10.844 51.812531 14.190247
10.750161 51.97876 25.0888
10.738173 51.931805 23.744246
10.751304 51.891418 21.769251
10.78424 51.887669 20.478304
10.843551 51.926136 19.852062
10.806636 51.806477 16.646782
10.831705 51.779789 14.768693
10.949923 51.70998 8.0169783
10.786024 51.937893 23.048567
10.814468 51.909546 21.087757
10.775356 51.800819 18.491268
10.821898 51.80883 17.231846
10.758442 51.793137 20.424133
10.836924 51.793953 17.879164
10.858324 51.795986 17.249372
10.844754 51.694645 14.101322
10.753569 51.867199 25.765539
10.807926 51.844738 23.107357
10.816464 51.781025 20.486677
10.831299 51.724567 17.918692
10.841219 51.699116 16.651815
10.842415 51.614666 13.519425
10.844218 51.582516 12.281331
10.805182 51.716194 21.17848
10.801349 51.645771 18.593006
10.840918 51.649548 17.330444
10.849186 51.624496 16.067852
10.870784 51.624523 17.358948
10.967774 51.480183 8.074481
11.006812 51.485569 6.8620496
10.865312 51.602764 17.989073
10.86795 51.572521 16.718742
10.984476 51.519894 10.5161
10.967831 51.457348 8.6766701
10.971384 51.444942 8.0673475
10.992998 51.449169 7.4609008
10.981313 51.422802 6.8518796
10.987941 51.474415 9.8810186
10.999666 51.468777 9.2700481
10.978078 51.432575 8.6558552
11.025687 51.443611 7.4418497
11.028898 51.43026 6.8336649
10.991375 51.379578 6.2230806
11.01306 51.416973 8.0356541
10.998264 51.386684 7.4246545
11.030366 51.382683 6.2114897
10.98904 51.391857 10.503595
10.982895 51.458332 9.0550756
11.012242 51.466564 8.4368658
10.99163 51.377827 5.9579659
10.846176 51.50174 12.808379
10.971395 51.540409 10.318287
10.83532 51.77499 20.561398
10.838679 51.702354 17.939413
10.833899 51.642242 16.000193
10.958927 51.552677 9.075345
10.95867 51.5345 8.4524698
10.984168 51.539101 7.8335271
10.983161 51.520317 7.2125397
10.961484 51.546875 6.5621872
10.827929 51.892132 19.833269
10.843752 51.867168 18.524483
10.834917 51.72517 14.007693
10.972713 51.678822 8.3653708
10.819068 51.93042 18.462177
10.819687 51.870796 16.511345
10.824512 51.795921 13.945865
10.948046 51.692039 7.0504384
10.814045 52.094746 21.070091
10.8339 52.070187 19.748022
10.84781 52.061596 19.092617
10.836258 51.968288 16.478191
10.768543 52.211929 23.767614
10.81274 52.123394 19.753664
10.840924 52.085861 17.789745
10.806525 51.993412 15.832459
10.751242 52.292179 25.17378
10.801532 52.212776 21.116823
10.78409 52.13649 19.119024
10.775974 52.069363 17.152042
10.920355 51.906639 7.6412997
10.81352 52.182911 17.850414
10.814098 52.127411 15.898866
10.744335 52.370277 24.565634
10.798717 52.307301 20.524204
10.773075 52.229916 18.52939
10.910274 52.036152 7.0601001
10.743962 52.443134 23.897419
10.789135 52.427639 21.876295
10.755541 52.342655 19.856892
10.766535 52.280312 17.226803
10.766887 52.244995 15.926214
10.947141 52.178402 7.685236
10.73003 52.547607 23.873381
10.800119 52.495926 19.847582
10.798929 52.365341 15.256771
10.889668 52.230556 7.6375833
10.792592 52.60376 19.790344
10.782166 52.51733 17.145401
10.779962 52.439487 14.545354
10.877511 52.303699 6.9373646
10.91564 52.319195 6.3129382
10.875658 52.461266 8.7662725
10.875278 52.423183 7.5046473
10.902425 52.428459 6.8778462
10.77826 52.835278 20.400053
10.74426 52.764389 19.053301
10.749694 52.729191 17.731598
10.879965 52.591602 9.3733845
10.871599 52.507679 6.845274
10.754811 53.179569 21.743107
10.861038 52.91811 9.9573011
10.891541 52.906868 8.6871662
10.718516 53.160458 18.362917
10.86618 52.996719 8.6612177
10.863914 52.975349 8.02491
10.726034 53.34478 20.40136
10.835368 53.222366 13.16259
10.840759 53.207542 12.516129
10.82667 53.116825 9.9412556
10.722408 53.528812 19.855284
10.698775 53.430424 17.174416
10.812993 53.363651 11.321895
10.820431 53.351753 10.678876
10.823612 53.336079 10.036596
10.819533 53.515045 12.667642
10.857692 53.531284 12.02585
10.798893 53.424583 10.079709
10.814718 53.403076 8.7986927
10.657701 53.68288 19.938206
10.81022 53.711227 15.973493
10.684296 53.782799 17.950336
10.801661 53.706215 11.402682
10.847936 53.60508 6.2646732
10.786556 53.951595 15.329217
10.815527 53.751072 7.5333467
10.809062 53.903355 8.169426
10.756996 54.172314 14.022866
10.748196 54.346741 15.371146
10.753743 54.331776 14.709109
10.817131 54.329651 12.744099
10.745863 54.205887 10.770179
10.782778 54.445263 12.77499
10.84502 54.325909 6.9239888
10.809276 54.274189 6.2759757
10.726796 54.628666 15.444972
10.740275 54.620613 14.782302
10.742038 54.60194 14.118965
10.802201 54.556156 10.839366
10.721909 54.862427 12.814547
10.68673 55.002007 13.494871
10.736772 55.161503 12.242786
11.08574 50.616367 0.30340976
11.074793 50.677155 0.28111663
11.122692 51.168987 0.44119826
11.074967 51.114594 0.3069208
11.104189 51.220181 0.28294519
11.115697 51.225986 0.12109053
11.119217 51.303482 0.10361294
11.079863 51.33886 0.094679147
11.059206 51.39204 0.06882339
11.030282 51.437023 0.20243093
11.025532 51.512024 0.33130148
11.066977 51.635944 0.44965631
10.99921 51.560833 0.31857806
11.053337 51.730572 1.3844161
11.044783 51.716572 1.2305712
11.062276 51.729427 1.0669583
11.041178 51.686699 0.43904993
11.066807 51.707775 0.26743808
11.084338 51.841358 1.5121937
10.977171 51.715279 1.0765616
10.995162 51.707935 0.27258486
11.005117 51.829636 1.503327
11.082592 51.888878 0.84128881
11.022547 51.805679 0.21939765
11.07104 51.944271 0.79762805
11.007516 51.851437 0.010646527
11.011671 52.031204 0.91804534
11.055118 52.150238 0.885759
11.053272 52.243248 1.5143218
11.070649 52.2402 0.85743135
11.013269 52.276653 1.5013393
10.982752 52.316006 1.4853735
10.973729 52.374561 1.4616866
10.969516 52.440407 1.4345342
10.9617 52.426476 1.2730744
10.952888 52.411495 1.1115854
10.969982 52.423489 0.94054997
11.033502 52.577568 1.3865767
11.032215 52.570305 1.22129
11.029899 52.561947 1.0558078
11.021776 52.657196 -0.16474992
11.013969 52.720131 -0.16891591
10.894643 53.022743 10.102804
10.992129 52.843388 2.0308175
11.008386 52.85461 1.8599952
11.016798 52.857578 1.6905209
11.024154 52.859413 1.5206412
11.023698 52.853043 1.3524799
11.015458 52.838509 1.1863068
11.026381 52.844006 1.0132716
11.036204 52.84832 0.83971786
11.031519 52.83744 0.67055941
11.039155 52.839413 0.49618271
11.045678 52.840191 0.32133242
11.05108 52.839764 0.1460238
10.869877 53.077408 10.291231
10.866493 53.061398 9.9410763
10.982299 53.166138 3.4877591
10.845884 53.330597 9.8684702
10.893444 53.139221 3.4949565
10.804048 53.355629 9.8708277
10.880148 53.430698 9.7202597
10.895556 53.440521 9.5489454
10.889901 53.427742 9.3715029
10.889799 53.420952 9.1965733
10.901991 53.42738 9.025795
10.899717 53.418312 8.8514929
10.89635 53.4081 8.6776114
10.940157 53.396343 7.1506872
10.931736 53.3745 6.8125992
10.943052 53.38015 6.6457076
10.946538 53.377457 6.4781361
10.949016 53.373695 6.3106542
10.844893 53.461124 9.7247095
10.860316 53.470982 9.55305
10.861346 53.465393 9.3773155
10.854588 53.451469 9.1999969
10.860092 53.450741 9.0269947
10.888874 53.42276 7.4866271
10.884521 53.405231 7.1471753
10.811203 53.489464 9.7356224
10.819995 53.492275 9.5614882
10.827703 53.493938 9.3875456
10.820966 53.480114 9.2098818
10.867217 53.40855 4.1365199
10.869278 53.404514 3.9680796
10.870328 53.399399 3.7995713
10.879783 54.273163 8.4795408
10.867261 54.253223 8.2953243
10.860334 54.239342 8.1130943
10.825264 54.195206 7.9263082
10.84987 54.21529 7.7512674
10.826044 54.183311 7.5682683
10.828193 54.179276 7.3901396
10.849623 54.195961 7.214941
10.842846 54.182358 7.0361252
10.84858 54.182201 6.8591814
10.84645 54.173611 6.6816454
10.836438 54.15659 6.5037932
10.818535 54.131126 6.3258996
10.833645 54.141048 6.1505804
10.813602 54.113327 5.9735122
10.847094 54.142925 5.7988214
10.838589 54.127567 5.6226282
10.829026 54.111095 5.4467645
10.845737 54.122719 5.2710595
10.847739 54.11861 5.0952787
10.835026 54.098789 4.9199595
10.83493 54.092449 4.7444077
10.847454 54.099571 4.5681133
10.845263 54.090984 4.3924947
10.842022 54.081284 4.2169504
10.774228 54.23476 8.65938
10.851734 54.641148 8.5851307
10.866032 54.817261 4.2802744
10.835732 54.936195 5.0357833
10.820157 54.977016 5.0066996
10.812972 54.963615 4.8208661
10.849025 55.069927 4.9903779
10.836792 55.120338 4.9912815
10.851751 55.200356 5.0006237
10.823895 55.165154 4.8129568
10.863147 55.201778 4.6222401
10.227168 59.784756 33.446327
10.152094 59.817204 36.029076
10.15797 59.812218 35.49902
