# .PCD v0.7 - Point Cloud Data file format
VERSION 0.7
FIELDS x y z
SIZE 4 4 4
TYPE F F F
COUNT 1 1 1
WIDTH 1612
HEIGHT 1
VIEWPOINT 0 0 0 1 0 0 0
POINTS 1612
DATA ascii
11.64091 51.495632 21.858517
11.659541 51.50655 21.596746
11.651243 51.488968 21.30105
11.650104 51.47916 21.020706
11.651393 51.47208 20.748547
11.650208 51.462521 20.477646
11.656743 51.461285 20.221464
11.66613 51.463196 19.973007
11.657822 51.446491 19.705803
11.657523 51.438396 19.453039
11.665494 51.439171 19.214359
11.66611 51.432278 18.970259
11.664596 51.423252 18.727285
11.67171 51.423443 18.497959
11.671464 51.41597 18.26338
11.669205 51.406475 18.029888
11.675921 51.406544 17.809591
11.669747 51.393127 17.578236
11.672726 51.389442 17.359856
11.679489 51.389828 17.148233
11.684521 51.388474 16.937428
11.678013 51.368603 16.507153
11.689329 51.374084 16.310181
11.689878 51.362091 15.90198
11.68477 51.350571 15.696558
11.637269 51.609463 23.499414
11.641874 51.604641 23.187328
11.643527 51.596848 22.876627
11.642241 51.586102 22.567358
11.642815 51.577515 22.266724
11.640574 51.566101 21.967497
11.645269 51.562241 21.683784
11.642447 51.550533 21.394356
11.646853 51.546677 21.120157
11.64877 51.54031 20.84717
11.653251 51.536812 20.582212
11.660436 51.536316 20.325129
11.660215 51.528088 20.062471
11.657644 51.517498 19.801052
11.657945 51.510078 19.547428
11.662412 51.499691 19.056528
11.656111 51.485641 18.806425
11.658345 51.480728 18.570107
11.663888 51.465378 17.879667
11.669198 51.464104 17.659548
11.668559 51.443359 16.998919
11.672246 51.44072 16.788313
11.668515 51.430363 16.572954
11.655046 51.578358 17.372095
11.661459 51.578594 17.159021
11.657723 51.561844 16.724113
11.658901 51.556801 16.513737
11.664138 51.556103 16.309752
11.620608 51.805458 23.832222
11.608818 51.78318 23.488338
11.612391 51.77758 23.175425
11.617738 51.774055 22.871143
11.620246 51.767662 22.568193
11.624737 51.763554 22.273729
11.621659 51.751514 21.973526
11.625579 51.747108 21.688755
11.626897 51.740074 21.405254
11.63061 51.735741 21.129917
11.631837 51.728893 20.855808
11.630592 51.719551 20.582964
11.642212 51.724033 20.331411
11.641341 51.715343 20.067623
11.632935 51.698765 19.798559
11.643036 51.701984 19.556772
11.640521 51.69191 19.303122
11.646403 51.690865 19.063362
11.639536 51.676395 18.812075
11.646637 51.676846 18.580669
11.646362 51.669579 18.344063
11.655003 51.671848 18.120663
11.650787 51.660599 17.886137
11.650122 51.653206 17.658682
11.658706 51.655674 17.443964
11.659931 51.650452 17.224264
11.653701 51.637436 16.999823
11.656972 51.634537 16.787777
11.664248 51.635941 16.582163
11.664136 51.629623 16.371819
11.66233 51.621593 16.162399
11.671247 51.618946 15.762235
11.618579 51.887234 23.922554
11.621264 51.880272 23.599943
11.63023 51.880249 23.293364
11.626911 51.867207 22.973618
11.634847 51.866428 22.676926
11.625635 51.847427 22.360182
11.637672 51.851368 22.080301
11.632505 51.83704 21.780584
11.634428 51.830456 21.496208
11.638739 51.826572 21.219988
11.630521 51.809448 20.931414
11.639905 51.811264 20.671249
11.636789 51.79987 20.398813
11.646662 51.802456 20.147495
11.649165 51.797306 19.890638
11.649414 51.789875 19.634933
11.652689 51.785782 19.386814
11.653816 51.779518 19.139786
11.647465 51.765415 18.887625
11.649682 51.760532 18.649141
11.666137 51.770859 18.43008
11.653499 51.750404 18.181431
11.655198 51.745266 17.952126
11.660514 51.744053 17.729748
11.652852 51.729183 17.496584
11.671268 51.742008 17.293489
11.659863 51.723358 17.062428
11.663557 51.720764 16.849522
11.671249 51.722473 16.64304
11.660051 51.704304 16.42086
11.664372 51.702606 16.216122
11.667074 51.699265 16.012186
11.668167 51.694302 15.809074
11.673546 51.69392 15.612001
11.665565 51.679527 15.405427
11.667838 51.676006 15.209975
11.662624 51.664669 15.010333
11.667875 51.664402 14.821407
11.665658 51.656342 14.628335
11.674107 51.65955 14.445566
11.675904 51.639282 13.70693
11.613616 51.982517 24.030954
11.612535 51.97102 23.700125
11.612967 51.961357 23.378155
11.619772 51.958755 23.072138
11.618979 51.948154 22.760281
11.620062 51.939754 22.457012
11.618331 51.928505 22.155157
11.628454 51.930157 21.87569
11.631129 51.923962 21.590443
11.62624 51.909813 21.299643
11.638737 51.914452 21.037455
11.633759 51.900513 20.756102
11.636426 51.894901 20.489485
11.641864 51.892387 20.230665
11.639853 51.882038 19.966431
11.64072 51.874897 19.709936
11.639344 51.865486 19.454628
11.641036 51.859467 19.206863
11.651268 51.862663 18.972736
11.65953 51.863861 18.739491
11.64417 51.840019 18.482677
11.653829 51.842915 18.257618
11.650644 51.832249 18.021431
11.65099 51.825436 17.792303
11.649426 51.816692 17.564211
11.657167 51.817917 17.348726
11.646251 51.799438 17.116957
11.661757 51.809059 16.914589
11.664264 51.804985 16.701687
11.65357 51.787014 16.478716
11.652594 51.779415 16.267769
11.649926 51.770111 16.057766
11.663116 51.777641 15.864514
11.65132 51.758839 15.651069
11.667356 51.769501 15.464347
11.658228 51.753666 15.257926
11.659411 51.748779 15.062493
11.660059 51.731441 14.485756
11.60054 52.068218 24.150932
11.591255 52.047356 23.804533
11.592589 52.038204 23.481792
11.60497 52.041187 23.182228
11.600364 52.026012 22.86236
11.607103 52.023273 22.565403
11.615944 52.022968 22.27677
11.617282 52.014751 21.982359
11.601169 51.987926 21.668571
11.616834 51.995461 21.404551
11.610162 51.979134 21.114325
11.615973 51.976368 20.845776
11.614311 51.965733 20.571726
11.630708 51.974598 20.325384
11.629486 51.964706 20.060295
11.625921 51.952446 19.796478
11.625276 51.943447 19.540369
11.622396 51.932182 19.285473
11.627953 51.930058 19.044348
11.631458 51.925858 18.804235
11.638331 51.925358 18.571291
11.632364 51.91127 18.327177
11.646236 51.918438 18.10825
11.636251 51.900288 17.866381
11.640872 51.897797 17.64336
11.63807 51.887501 17.415483
11.639005 51.881275 17.194397
11.643795 51.879238 16.979919
11.646859 51.875454 16.766298
11.642472 51.863846 16.548079
11.636311 51.850441 16.330917
11.651597 51.859859 16.136194
11.647892 51.849224 15.926199
11.642511 51.836895 15.717193
11.647271 51.835377 15.519431
11.650508 51.832314 15.322409
11.646264 51.821407 15.121184
11.657192 51.820316 14.740816
11.654454 51.811203 14.5469
11.656324 51.807018 14.358493
11.59681 52.146481 24.284801
11.597727 52.136452 23.952145
11.600127 52.128246 23.628332
11.594788 52.111874 23.298779
11.605256 52.112804 22.999563
11.603419 52.100616 22.687355
11.613135 52.101089 22.397804
11.615354 52.093643 22.102459
11.609958 52.078163 21.801552
11.601788 52.059875 21.502176
11.605842 52.054916 21.224766
11.61748 52.058266 20.962053
11.63189 52.064728 20.707026
11.613374 52.035957 20.413317
11.623128 52.037697 20.16057
11.625496 52.031639 19.902355
11.630852 52.028912 19.651709
11.623485 52.012684 19.389462
11.629774 52.011204 19.147392
11.639366 52.013371 18.912525
11.630797 51.996231 18.660166
11.636352 51.994301 18.427332
11.634488 51.984554 18.18947
11.636129 51.978657 17.95866
11.646946 51.982643 17.740576
11.639246 51.966988 17.505919
11.635197 51.955326 17.278194
11.646233 51.959816 17.068495
11.644223 51.950512 16.848372
11.646151 51.94548 16.634764
11.646366 51.938717 16.42206
11.64488 51.930229 16.210287
11.647534 51.926216 16.004744
11.648575 51.920567 15.800034
11.648012 51.913292 15.596182
11.645856 51.904408 15.393212
11.648075 51.900227 15.196122
11.648783 51.894512 14.999809
11.654009 51.893646 14.809117
11.651753 51.88493 14.614352
11.654095 51.881134 14.425098
11.655021 51.875904 14.236557
11.65454 51.869247 14.048749
11.663718 51.854885 13.32204
11.596638 52.215801 24.407454
11.60291 52.211639 24.081263
11.60611 52.204353 23.756495
11.606255 52.193962 23.433205
11.608088 52.185604 23.118618
11.616536 52.184582 22.819712
11.612611 52.170368 22.507963
11.615507 52.163708 22.211744
11.61079 52.149006 21.90995
11.613188 52.142147 21.623405
11.603015 52.12191 21.324574
11.620287 52.131378 21.067766
11.620111 52.122215 20.791828
11.622588 52.116047 20.523804
11.63301 52.118546 20.270075
11.625652 52.102093 19.997915
11.636822 52.105648 19.752808
11.635354 52.095776 19.495949
11.636971 52.089333 19.246593
11.641802 52.086449 19.004572
11.639192 52.075714 18.757442
11.639899 52.068645 18.517576
11.638583 52.059525 18.278803
11.651775 52.065998 18.058933
11.641015 52.047005 17.816372
11.644936 52.043774 17.592495
11.635795 52.026722 17.358122
11.641648 52.025742 17.141922
11.634392 52.010891 16.91543
11.636715 52.006325 16.701094
11.648836 52.01226 16.498503
11.653598 52.010445 16.291193
11.650909 52.000793 16.079411
11.652393 51.995651 15.873807
11.646379 51.982628 15.663927
11.644626 51.974205 15.460127
11.647237 51.970478 15.262203
11.642349 51.958874 15.060153
11.64191 51.952053 14.863874
11.658111 51.962902 14.68266
11.648702 51.946716 14.483139
11.65607 51.948334 14.298415
11.649817 51.935612 14.105232
11.65443 51.934429 13.92183
11.651514 51.92535 13.734681
11.653431 51.921429 13.552603
11.657572 51.90826 13.014395
11.662371 51.901863 12.664008
11.668626 51.897167 12.319675
11.589424 52.279831 24.511906
11.591632 52.249962 23.520864
11.598742 52.247318 23.212786
11.598236 52.236614 22.898918
11.599625 52.228153 22.593601
11.598198 52.216824 22.289707
11.603774 52.213234 22.001139
11.60674 52.206989 21.713835
11.617081 52.208851 21.441439
11.609928 52.192013 21.14992
11.615335 52.188854 20.87994
11.618358 52.183273 20.611132
11.613858 52.169743 20.336988
11.627691 52.176048 20.090132
11.618494 52.157745 19.818521
11.622706 52.153973 19.567398
11.619452 52.142311 19.311089
11.624679 52.139858 19.068453
11.617075 52.123783 18.814564
11.628988 52.128712 18.586281
11.628096 52.120045 18.346807
11.630691 52.115208 18.114384
11.631358 52.108414 17.882969
11.630108 52.09967 17.652594
11.632565 52.094982 17.429005
11.63885 52.094463 17.212017
11.637712 52.086121 16.990295
11.634774 52.075951 16.769587
11.641553 52.07621 16.56077
11.646691 52.074799 16.352726
11.63856 52.059357 16.134922
11.634528 52.048359 15.923442
11.646474 52.054405 15.728352
11.639197 52.040112 15.518666
11.636213 52.030453 15.315008
11.643609 52.031868 15.122078
11.637535 52.01907 14.920132
11.641982 52.017487 14.728655
11.65107 52.020874 14.542535
11.646592 52.00996 14.347769
11.64677 52.004032 14.158401
11.645543 51.996677 13.969778
11.642917 51.987904 13.78192
11.645116 51.984283 13.599133
11.65336 51.969696 12.882585
11.666524 51.94997 11.84827
11.593185 52.317684 23.005711
11.58576 52.299381 22.685421
11.58989 52.293785 22.387777
11.591304 52.285427 22.091469
11.590018 52.274323 21.796539
11.591027 52.265865 21.50984
11.604513 52.271038 21.244703
11.595434 52.252007 20.953859
11.599029 52.246799 20.684401
11.605394 52.24472 20.422689
11.604298 52.234741 20.155609
11.61653 52.239239 19.909046
11.610877 52.224625 19.64436
11.613515 52.219055 19.393583
11.614007 52.2113 19.143925
11.612365 52.201378 18.895418
11.614024 52.195114 18.654171
11.608194 52.180939 18.408001
11.622253 52.188171 18.186813
11.628996 52.187664 17.960485
11.617184 52.167412 17.717678
11.631344 52.175026 17.504816
11.63254 52.168877 17.281324
11.626245 52.154823 17.053234
11.618077 52.13887 16.826294
11.619539 52.133286 16.611395
11.62507 52.132114 16.402767
11.628965 52.12928 16.194933
11.637082 52.131012 15.993125
11.626015 52.112411 15.776611
11.636854 52.117184 15.581498
11.634341 52.107834 15.377009
11.636216 52.103214 15.178343
11.630573 52.090683 14.975632
11.647504 52.102173 14.7929
11.632795 52.080162 14.587152
11.640859 52.082363 14.400967
11.635316 52.070206 14.206302
11.634456 52.063072 14.016977
11.644554 52.067589 13.837147
11.640955 52.057667 13.649208
11.642204 52.052929 13.46628
11.589489 52.366909 21.904436
11.586349 52.353607 21.60998
11.585551 52.34301 21.323727
11.587234 52.335262 21.045525
11.596637 52.336006 20.781836
11.593468 52.323318 20.506117
11.593032 52.313732 20.238245
11.605901 52.31863 19.990887
11.595642 52.298733 19.719051
11.598874 52.293507 19.467533
11.61063 52.297573 19.229549
11.609653 52.288059 18.980152
11.606551 52.276386 18.731937
11.606789 52.268421 18.490938
11.61598 52.270176 18.262913
11.62331 52.270031 18.035744
11.617662 52.256077 17.797878
11.615627 52.246105 17.566933
11.617325 52.240231 17.342726
11.622873 52.238567 17.125067
11.620979 52.229034 16.902761
11.61155 52.211552 16.676052
11.623359 52.216839 16.471977
11.621984 52.208134 16.257977
11.636431 52.216381 16.060566
11.620029 52.191822 15.83802
11.619536 52.184299 15.631967
11.629314 52.18779 15.436769
11.625695 52.17709 15.232363
11.626493 52.171162 15.033724
11.625783 52.1637 14.835889
11.62963 52.161148 14.64356
11.632047 52.157139 14.451927
11.633039 52.151676 14.26101
11.638762 52.151295 14.075276
11.636962 52.14299 13.885775
11.635402 52.128719 13.513335
11.635714 52.122826 13.330279
11.640986 52.122231 13.151953
11.648564 52.100094 12.268736
11.588628 52.44101 21.705891
11.583494 52.42548 21.412001
11.585799 52.418182 21.132961
11.59581 52.41938 20.868425
11.593255 52.407131 20.591856
11.593425 52.39798 20.323126
11.596454 52.392063 20.062077
11.597222 52.383842 19.802197
11.595746 52.373337 19.543524
11.608031 52.377796 19.304724
11.60222 52.362877 19.048365
11.599611 52.35154 18.799391
11.611227 52.355618 18.569635
11.609998 52.345997 18.328836
11.612274 52.340252 18.095032
11.612621 52.332542 17.862251
11.605458 52.316883 17.624804
11.613206 52.317322 17.405529
11.624866 52.322037 17.192656
11.623456 52.312843 16.969479
11.620244 52.301819 16.747328
11.621012 52.295143 16.531586
11.63167 52.299122 16.327341
11.62326 52.28281 16.10813
11.624826 52.277241 15.900318
11.61888 52.263733 15.688307
11.623129 52.261181 15.487296
11.619884 52.250713 15.282134
11.621047 52.245022 15.082734
11.626721 52.244198 14.888891
11.618845 52.229023 14.686361
11.633747 52.23814 14.503238
11.629002 52.226429 14.306944
11.635061 52.226265 14.120432
11.627429 52.211617 13.925781
11.630732 52.208641 13.740641
11.632694 52.204296 13.556137
11.633327 52.198593 13.37229
11.632633 52.191544 13.189117
11.654378 52.183697 12.309583
11.64607 52.168888 12.130285
11.649381 52.166397 11.958762
11.586259 52.484146 20.93317
11.589239 52.477802 20.662491
11.595019 52.474636 20.399513
11.598523 52.469147 20.137663
11.594513 52.455681 19.870634
11.598754 52.451263 19.617495
11.600838 52.444645 19.365458
11.606144 52.441628 19.120697
11.603989 52.430691 18.870895
11.605159 52.423454 18.628302
11.615259 52.425945 18.398666
11.612454 52.414658 18.158155
11.607643 52.401333 17.918806
11.61202 52.397984 17.692085
11.614559 52.392761 17.466301
11.615273 52.385677 17.241482
11.608475 52.370644 17.012152
11.611265 52.365978 16.794846
11.606567 52.353386 16.573088
11.617482 52.357597 16.36825
11.620996 52.353962 16.158863
11.617021 52.342403 15.945173
11.623154 52.341728 15.742604
11.615888 52.32682 15.530799
11.618878 52.322941 15.329863
11.620344 52.317505 15.129702
11.620294 52.310524 14.930339
11.630836 52.314896 14.741151
11.621759 52.298439 14.538696
11.62946 52.299908 14.350829
11.629659 52.293453 14.159092
11.628444 52.285557 13.968105
11.632014 52.28281 13.782178
11.628022 52.272083 13.592676
11.628888 52.266575 13.408116
11.634698 52.266361 13.228278
11.632941 52.258179 13.045002
11.629872 52.248653 12.862436
11.631846 52.244526 12.684409
11.643145 52.238094 12.161043
11.589379 52.554222 20.737982
11.585283 52.540287 20.461256
11.589163 52.535141 20.19874
11.590776 52.527683 19.937384
11.590138 52.517925 19.677225
11.603241 52.523144 19.436922
11.598255 52.508949 19.17906
11.601864 52.504162 18.934639
11.603427 52.497284 18.69128
11.608434 52.494232 18.454945
11.600463 52.477314 18.207872
11.607065 52.4762 17.979464
11.60064 52.461178 17.740524
11.609102 52.462265 17.519739
11.610147 52.455479 17.294199
11.615067 52.452946 17.075146
11.61825 52.448639 16.856966
11.60818 52.430214 16.628973
11.613644 52.428535 16.418041
11.61164 52.418938 16.202705
11.625523 52.426426 16.00374
11.626127 52.419781 15.795213
11.613271 52.398827 15.5776
11.616555 52.395206 15.375906
11.612324 52.383636 15.170155
11.618546 52.383293 14.974856
11.61727 52.375019 14.775546
11.620568 52.371689 14.581674
11.628538 52.373398 14.393028
11.629005 52.367176 14.200512
11.621892 52.352947 14.00438
11.631882 52.356976 13.82203
11.62193 52.339859 13.627535
11.635505 52.347801 13.450516
11.629045 52.334511 13.261705
11.627504 52.3265 13.077712
11.630967 52.323853 12.898314
11.626826 52.31319 12.715674
11.627754 52.307949 12.537506
11.64545 52.284321 11.330202
11.643301 52.276161 11.159815
11.646566 52.27375 10.992983
11.587188 52.660057 21.650089
11.58745 52.620846 20.532122
11.596988 52.621696 20.275213
11.583351 52.59758 19.993967
11.59365 52.599529 19.74568
11.591214 52.58783 19.485943
11.591913 52.579651 19.233604
11.590475 52.56929 18.98243
11.59779 52.568504 18.744444
11.597666 52.559803 18.50148
11.601031 52.554981 18.265495
11.602457 52.548176 18.030521
11.601956 52.539406 17.796589
11.610784 52.540775 17.575012
11.600879 52.522099 17.33754
11.611777 52.525887 17.123331
11.603827 52.509514 16.893574
11.611288 52.509785 16.681055
11.611302 52.502155 16.464033
11.615434 52.49902 16.25316
11.612071 52.487942 16.037985
11.618801 52.487755 15.833913
11.612136 52.473305 15.620609
11.621664 52.476261 15.423059
11.617752 52.464912 15.216475
11.618269 52.458378 15.015584
11.617272 52.450298 14.815508
11.608696 52.434196 14.611675
11.616874 52.436043 14.422406
11.617548 52.429947 14.229269
11.616801 52.422398 14.036878
11.627016 52.426582 13.853817
11.623507 52.41621 13.662822
11.624841 52.411053 13.476757
11.624841 52.40453 13.291361
11.629806 52.403336 13.110615
11.620865 52.387424 12.922647
11.635932 52.397053 12.750778
11.630741 52.385227 12.568001
11.630643 52.378853 12.389626
11.629302 52.371208 12.211867
11.626726 52.362301 12.034742
11.631159 52.348713 11.51704
11.638221 52.338245 11.01013
11.647428 52.324528 10.347113
11.586833 52.693665 20.582336
11.588571 52.676449 20.049194
11.588629 52.667175 19.787626
11.591767 52.661377 19.533482
11.592752 52.653381 19.280462
11.591597 52.643196 19.028605
11.599192 52.642593 18.789921
11.604821 52.639977 18.552183
11.608498 52.635365 18.315424
11.610232 52.628769 18.079674
11.598866 52.608158 17.833549
11.607922 52.609669 17.611322
11.615212 52.609371 17.389906
11.615057 52.601158 17.163837
11.601638 52.578781 16.927946
11.615075 52.585369 16.720106
11.615339 52.577888 16.502352
11.613889 52.568657 16.285542
11.610736 52.55769 16.069702
11.617672 52.557621 15.864952
11.61121 52.543274 15.650983
11.614984 52.539974 15.447848
11.611238 52.528698 15.240664
11.617931 52.528667 15.043907
11.61108 52.514225 14.838481
11.620881 52.517647 14.647805
11.617095 52.506618 14.448659
11.617949 52.500614 14.254824
11.623536 52.499718 14.066086
11.621577 52.490833 13.873682
11.624423 52.487133 13.686259
11.613443 52.468765 13.491253
11.619818 52.468937 13.30934
11.618622 52.461102 13.123997
11.616103 52.451916 12.93936
11.624951 52.454865 12.763037
11.626225 52.449806 12.583419
11.619856 52.436684 12.400765
11.631432 52.442654 12.229548
11.62899 52.433792 12.051696
11.631774 52.430515 11.877882
11.627302 52.413448 11.528559
11.633059 52.413441 11.359527
11.637691 52.412273 11.190882
11.634645 52.403023 11.019663
11.637027 52.399544 10.851918
11.6383 52.394932 10.684605
11.645087 52.396168 10.520462
11.584053 52.735222 20.080936
11.582073 52.714684 19.557951
11.581976 52.69672 19.05212
11.589613 52.696232 18.812941
11.589804 52.687813 18.568796
11.582451 52.671364 18.319933
11.59522 52.676746 18.09544
11.595024 52.668243 17.860306
11.587285 52.651722 17.620615
11.588887 52.64537 17.393276
11.600052 52.649406 17.177883
11.598083 52.6394 16.952394
11.600072 52.633747 16.73328
11.594542 52.620102 16.509825
11.598886 52.617153 16.297836
11.595732 52.606243 16.081558
11.596777 52.599918 15.871313
11.602128 52.598289 15.666902
11.594022 52.582321 15.453465
11.608198 52.590286 15.260335
11.60292 52.577496 15.053494
11.602108 52.569561 14.852275
11.605861 52.566574 14.656469
11.620378 52.575146 14.470365
11.615177 52.562717 14.271408
11.614654 52.555347 14.077695
11.606524 52.539932 13.880483
11.615573 52.542892 13.69677
11.617086 52.537876 13.50944
11.617259 52.531483 13.322777
11.616098 52.523727 13.1368
11.607295 52.507896 12.947661
11.609809 52.504158 12.766979
11.617428 52.505886 12.590582
11.61745 52.499592 12.410997
11.622637 52.498825 12.235571
11.620193 52.489998 12.057155
11.616513 52.479912 11.879389
11.618086 52.475437 11.705586
11.624225 52.469772 11.362687
11.628843 52.468632 11.193458
11.62578 52.4594 11.021664
11.635215 52.445744 10.353627
11.581848 52.73967 18.844275
11.59122 52.733284 18.367792
11.587223 52.712906 17.889643
11.590725 52.708797 17.660696
11.592389 52.702805 17.432703
11.592227 52.694942 17.205692
11.590248 52.685219 16.979691
11.60376 52.692234 16.770716
11.592485 52.672703 16.541342
11.591025 52.663803 16.32357
11.593722 52.659447 16.111876
11.59479 52.653419 15.901026
11.594237 52.645733 15.691048
11.603989 52.649155 15.491723
11.58831 52.625423 15.2738
11.60101 52.632137 15.080757
11.600213 52.624474 14.878921
11.603981 52.621754 14.68249
11.606303 52.617554 14.486761
11.607189 52.611881 14.291754
11.606646 52.60474 14.09749
11.604682 52.596146 13.903991
11.607523 52.592731 13.715456
11.609013 52.587933 13.527567
11.60916 52.581753 13.340344
11.607973 52.574207 13.153806
11.59914 52.558578 12.964111
11.607967 52.561787 12.78664
11.609212 52.556973 12.605888
11.61559 52.557659 12.429352
11.614351 52.550297 12.249731
11.618305 52.548489 12.074197
11.616159 52.534325 11.721313
11.616531 52.528835 11.547368
11.627284 52.51133 10.697156
11.633021 52.506062 10.363993
11.63759 52.505264 10.199261
11.589389 52.819561 19.666824
11.585279 52.806866 19.405895
11.586755 52.792309 18.905876
11.598078 52.796616 18.672344
11.590951 52.78112 18.422134
11.592848 52.775463 18.184742
11.581623 52.755768 17.936995
11.602107 52.770317 17.724331
11.592643 52.752716 17.484436
11.598305 52.751484 17.262239
11.596484 52.74229 17.0355
11.604389 52.743629 16.820454
11.604832 52.737034 16.600916
11.597724 52.722416 16.377138
11.600571 52.718563 16.164688
11.601785 52.713028 15.953082
11.595448 52.699482 15.737385
11.605311 52.703354 15.537372
11.601715 52.692883 15.328361
11.602545 52.687218 15.125015
11.613947 52.692917 14.931779
11.611795 52.684189 14.729918
11.62035 52.686954 14.537901
11.602984 52.662106 14.328778
11.608666 52.661922 14.13822
11.612981 52.660328 13.948265
11.609718 52.650711 13.754753
11.611291 52.646301 13.566144
11.617786 52.647182 13.382219
11.616701 52.640038 13.194875
11.620604 52.638248 13.012093
11.616888 52.628403 12.826088
11.618224 52.623974 12.644522
11.618299 52.618248 12.46355
11.610709 52.604424 12.279654
11.608261 52.596107 12.100005
11.617488 52.60022 11.927752
11.612612 52.589405 11.749251
11.613009 52.584221 11.574641
11.612228 52.577827 11.400564
11.616817 52.577152 11.230078
11.620277 52.575314 11.059991
11.629196 52.579281 10.893194
11.630437 52.57515 10.723866
11.630565 52.569874 10.554983
11.622953 52.556446 10.383934
11.633417 52.551514 9.8889265
11.635106 52.542763 9.5606375
11.634376 52.536762 9.397049
11.639342 52.536785 9.2358809
11.643295 52.535759 9.0749445
11.646238 52.533688 8.9142532
11.591506 52.873154 19.483301
11.585523 52.858814 19.222822
11.588879 52.847019 18.729502
11.59302 52.843929 18.490324
11.600769 52.844822 18.257912
11.584283 52.819698 18.003603
11.593797 52.822678 17.778902
11.590213 52.811646 17.543898
11.596121 52.810913 17.320971
11.600276 52.808376 17.098898
11.608454 52.810234 16.883039
11.597572 52.791706 16.652168
11.596498 52.783787 16.432896
11.605438 52.78669 16.224804
11.601017 52.775333 16.007332
11.600832 52.768589 15.79583
11.593074 52.753803 15.580333
11.595622 52.750126 15.375511
11.608668 52.757744 15.180929
11.602166 52.744507 14.972888
11.612314 52.749134 14.779552
11.60886 52.739277 14.577762
11.603906 52.727879 14.376842
11.603621 52.721527 14.181156
11.608096 52.72031 13.990489
11.604994 52.71106 13.79626
11.606723 52.707008 13.606932
11.613368 52.708248 13.422287
11.60614 52.694756 13.230274
11.610161 52.693287 13.046846
11.606565 52.683758 12.860192
11.614377 52.686409 12.681676
11.620974 52.687798 12.50359
11.613538 52.674316 12.318872
11.611239 52.66634 12.138402
11.614153 52.663933 11.961951
11.615872 52.660294 11.785998
11.616405 52.65543 11.610559
11.615755 52.649349 11.43565
11.61393 52.642056 11.261287
11.617492 52.640503 11.090448
11.621244 52.633915 10.75002
11.614833 52.621891 10.577751
11.627163 52.629726 10.413986
11.63181 52.629456 10.247814
11.622064 52.613995 10.077044
11.632663 52.614948 9.748971
11.633045 52.610268 9.5842381
11.639099 52.611588 9.4219971
11.637396 52.604744 9.2579403
11.634648 52.596825 9.094285
11.637624 52.594955 8.9329062
11.639588 52.592037 8.7717838
11.640546 52.588078 8.6109314
11.654846 52.583393 7.9745169
11.589304 52.900322 18.068714
11.579066 52.874744 17.590628
11.579575 52.868156 17.361568
11.583986 52.865856 17.13891
11.592415 52.86795 16.922462
11.581792 52.84964 16.691002
11.592622 52.854465 16.481501
11.584289 52.838779 16.257336
11.585972 52.833927 16.044371
11.586025 52.827396 15.832267
11.58446 52.819199 15.621045
11.581285 52.809349 15.410732
11.582525 52.804295 15.206079
11.594322 52.8106 15.011531
11.59257 52.802464 14.808351
11.595407 52.799294 14.610512
11.602927 52.801182 14.417805
11.596751 52.78849 14.216996
11.595275 52.780876 14.021359
11.598588 52.778427 13.83068
11.606778 52.781231 13.64474
11.601142 52.769333 13.451253
11.59411 52.756001 13.258603
11.598317 52.754696 13.074533
11.60758 52.75882 12.894796
11.596536 52.74136 12.70437
11.603282 52.742882 12.525714
11.615221 52.749962 12.351041
11.606709 52.735329 12.166299
11.603356 52.726227 11.985737
11.605237 52.722721 11.809127
11.605927 52.717987 11.633028
11.611945 52.718945 11.460584
11.603757 52.704857 11.282432
11.607464 52.703426 11.110928
11.610041 52.700825 10.939833
11.611494 52.69706 10.769163
11.611828 52.692139 10.598934
11.611049 52.686066 10.429161
11.615802 52.685879 10.262398
11.626143 52.691624 10.098408
11.6221 52.682175 9.9298363
11.623652 52.678669 9.7640657
11.624145 52.674065 9.5986528
11.623582 52.668365 9.4336138
11.635434 52.6758 9.2730227
11.626053 52.660835 9.1066532
11.63588 52.666164 8.9464493
11.631175 52.656174 8.7827806
11.638086 52.648487 8.300539
11.642939 52.648636 8.1412287
11.578011 52.95599 17.626919
11.584498 52.955608 17.402607
11.577774 52.941071 17.168354
11.581862 52.931149 16.724382
11.575484 52.917248 16.498608
11.584899 52.920414 16.289236
11.575067 52.902958 16.065477
11.575318 52.896423 15.852775
11.585852 52.900997 15.6507
11.582931 52.891193 15.439635
11.578406 52.879738 15.229502
11.578332 52.873123 15.024965
11.588874 52.877949 14.83038
11.585819 52.868263 14.627359
11.611893 52.889828 14.447247
11.58751 52.857426 14.232602
11.604748 52.869625 14.049097
11.589681 52.847324 13.845034
11.598029 52.850113 13.658453
11.592554 52.838181 13.464343
11.598251 52.83823 13.278934
11.590037 52.823479 13.086356
11.599445 52.827579 12.905968
11.601266 52.823624 12.722298
11.601815 52.818359 12.539217
11.607506 52.818611 12.360271
11.605557 52.810764 12.178341
11.602358 52.801632 11.997052
11.604385 52.7981 11.819704
11.605219 52.793331 11.642868
11.604863 52.787338 11.466559
11.603325 52.780121 11.290795
11.613711 52.785603 11.121492
11.603294 52.769028 10.943831
11.604852 52.765198 10.772496
11.611892 52.767212 10.604301
11.604603 52.754059 10.431163
11.615916 52.749931 9.9298115
11.617549 52.746338 9.7633657
11.618118 52.741642 9.5972776
11.624346 52.742954 9.43367
11.622815 52.73608 9.2682571
11.626977 52.735245 9.1051798
11.636875 52.740486 8.9441957
11.632241 52.730396 8.779768
11.626568 52.719231 8.6157808
11.632528 52.715218 8.2937021
11.637424 52.705032 7.8129086
11.639362 52.701988 7.6534772
11.591398 53.062275 17.900665
11.582935 53.045597 17.657772
11.589574 53.045334 17.43251
11.582995 53.030884 17.19733
11.586052 53.026924 16.973942
11.581575 53.014927 16.74622
11.581128 53.007355 16.524738
11.58482 53.004326 16.309301
11.586866 52.999596 16.094698
11.581356 52.986809 15.876015
11.574159 52.97229 15.658367
11.583231 52.975334 15.456128
11.578795 52.963924 15.2451
11.596929 52.976822 15.053545
11.583358 52.955738 14.839588
11.592549 52.959148 14.644685
11.594218 52.954544 14.44594
11.594441 52.948448 14.247929
11.599411 52.947495 14.054909
11.596797 52.938469 13.858345
11.598998 52.934654 13.666656
11.59984 52.92944 13.475624
11.593045 52.916107 13.281346
11.597475 52.914825 13.095604
11.594285 52.905449 12.906654
11.596123 52.901489 12.722116
11.596687 52.896214 12.538166
11.602387 52.896458 12.358338
11.600447 52.888592 12.175539
11.6037 52.886303 11.996732
11.605749 52.882771 11.81842
11.60011 52.871086 11.637433
11.612767 52.878918 11.466451
11.598199 52.857811 11.283598
11.602019 52.8563 11.110451
11.611272 52.860596 10.940567
11.612843 52.856758 10.76817
11.60008 52.837723 10.590843
11.599366 52.831524 10.419511
11.610814 52.838253 10.253684
11.607907 52.829777 10.083139
11.603894 52.82016 9.9130955
11.618835 52.830654 9.7503567
11.61267 52.818806 9.5811014
11.618841 52.820045 9.4165764
11.630709 52.827332 9.2542763
11.628093 52.819309 9.0881901
11.617671 52.803055 8.9206829
11.61971 52.799999 8.7572765
11.62073 52.795883 8.594141
11.620734 52.790714 8.4312887
11.626526 52.791672 8.2702246
11.624518 52.784409 8.107893
11.628324 52.783295 7.9472027
11.632979 52.777985 7.6263227
11.647525 52.788219 7.4682775
11.63371 52.768585 7.3061934
11.644263 52.769562 6.9885135
11.641225 52.761314 6.8290501
11.46466 53.478561 25.825607
11.470573 53.473156 25.471994
11.473193 53.46434 25.119946
11.467879 53.446991 24.762312
11.47333 53.441734 24.427902
11.46548 53.411182 23.749546
11.461542 53.571007 25.932079
11.468229 53.566109 25.577585
11.472916 53.679745 26.047256
11.475824 53.670292 25.684443
11.475344 53.657318 25.323298
11.458504 53.758873 26.142305
11.457544 53.744835 25.77141
11.466906 53.742523 25.424067
11.468425 53.731731 25.071005
11.471366 53.722755 24.726734
11.461679 53.700001 24.369896
11.45823 53.684395 24.028973
11.471152 53.675743 23.393589
11.467794 53.649872 22.757103
11.448029 53.836502 26.263376
11.457063 53.833363 25.906233
11.449006 53.81144 25.528833
11.451309 53.801304 25.174988
11.455024 53.792973 24.829926
11.450848 53.776108 24.479361
11.457747 53.771763 24.151602
11.461691 53.764343 23.825275
11.46755 53.759251 23.507324
11.470572 53.751205 23.190779
11.468163 53.726349 22.56209
11.464726 53.701096 21.952719
11.446995 53.913269 26.393862
11.447817 53.900887 26.021124
11.454325 53.8951 25.664675
11.452906 53.88073 25.302597
11.457478 53.873268 24.95656
11.449437 53.852016 24.597921
11.452364 53.843189 24.262215
11.471474 53.852528 23.955893
11.473346 53.84293 23.629976
11.467397 53.824871 23.298748
11.469474 53.783218 22.063614
11.469578 53.772785 21.766672
11.562486 53.412525 8.8056383
11.5795 53.371414 7.1297245
11.445111 53.987652 26.511057
11.44214 53.970993 26.130102
11.444753 53.960831 25.765549
11.44398 53.94714 25.402685
11.444513 53.935154 25.04871
11.446503 53.925022 24.703503
11.445338 53.911606 24.359903
11.441036 53.894928 24.017969
11.467541 53.912655 23.726042
11.467095 53.900658 23.400818
11.463735 53.885628 23.077154
11.467421 53.878597 22.768517
11.463379 53.863197 22.454632
11.46161 53.850494 22.148897
11.462254 53.84063 21.851162
11.437487 54.057713 26.608301
11.430603 54.036572 26.21925
11.433789 54.026951 25.853983
11.442839 54.02412 25.504812
11.430012 53.997135 25.128546
11.441945 53.997986 24.796837
11.436621 53.979843 24.44541
11.442473 53.974354 24.116652
11.440531 53.960411 23.782452
11.450228 53.959595 23.470392
11.44732 53.944984 23.14609
11.466358 53.954887 22.85693
11.467895 53.945564 22.548843
11.456626 53.922256 22.22904
11.462875 53.918503 21.937023
11.461483 53.906467 21.639824
11.467859 53.903175 21.356812
11.462923 53.877525 20.781963
11.467348 53.87252 20.509001
11.432751 54.135582 26.713263
11.435673 54.12516 26.338045
11.439672 54.116203 25.971827
11.454145 54.119202 25.628904
11.442173 54.092911 25.251608
11.440802 54.078705 24.8976
11.440935 54.06641 24.552336
11.452314 54.06686 24.229607
11.451144 54.053551 23.894402
11.456715 54.047943 23.574495
11.46437 54.044842 23.262781
11.454391 54.022362 22.932281
11.461468 54.018993 22.630127
11.465919 54.01289 22.329269
11.452498 53.987175 22.010221
11.461881 53.986874 21.725182
11.468195 53.972965 21.152313
11.445157 54.244167 26.866253
11.449203 54.234585 26.489859
11.436025 54.205978 26.09337
11.446791 54.204468 25.742285
11.454352 54.199608 25.392673
11.449318 54.180916 25.030416
11.459933 54.179939 24.698095
11.443614 54.149139 24.33234
11.462576 54.157906 24.023865
11.454467 54.136715 23.682308
11.44818 54.117779 23.349318
11.463697 54.123287 23.051594
11.461649 54.109459 22.73505
11.461848 54.098316 22.426638
11.464434 54.09 22.126204
11.467052 54.060387 21.245958
11.465065 54.037323 20.676416
11.411396 54.3018 26.947281
11.420684 54.297684 26.577633
11.421983 54.28487 26.202305
11.433619 54.283924 25.850386
11.428083 54.263981 25.478476
11.433188 54.256218 25.129726
11.435119 54.245148 24.782553
11.433894 54.230785 24.437008
11.439187 54.223934 24.106953
11.4464 54.219437 23.785219
11.450764 54.211971 23.464888
11.452295 54.20155 23.146008
11.451011 54.188198 22.828621
11.451962 54.177525 22.519361
11.455287 54.169682 22.218075
11.450891 54.153442 21.911707
11.454138 54.145863 21.61965
11.454889 54.135685 21.328915
11.458394 54.128719 21.045784
11.464784 54.125103 20.770098
11.459989 54.098877 20.210173
11.464837 54.09399 19.944201
11.400749 54.368027 27.050346
11.410748 54.364548 26.679934
11.403636 54.34211 26.289282
11.420485 54.346867 25.94392
11.424909 54.337925 25.585588
11.416662 54.315041 25.214705
11.423927 54.309788 24.873882
11.432899 54.306675 24.541527
11.429255 54.28968 24.196781
11.437083 54.285728 23.87429
11.432243 54.267853 23.539635
11.449147 54.274429 23.240253
11.433537 54.244972 22.902075
11.435001 54.234741 22.592159
11.443904 54.232971 22.296734
11.445168 54.222881 21.996084
11.438685 54.204372 21.690456
11.44512 54.200371 21.405363
11.438688 54.18227 21.108988
11.445516 54.179024 20.832689
11.444736 54.167507 20.551435
11.452282 54.165352 20.283604
11.466208 54.160152 19.757162
11.461779 54.145172 19.486813
11.460608 54.13393 19.223566
11.41096 54.446529 27.184835
11.403689 54.423691 26.784071
11.401748 54.40715 26.399912
11.419236 54.412704 26.053713
11.419653 54.399345 25.68737
11.421387 54.387718 25.329872
11.429323 54.383286 24.988123
11.434181 54.375637 24.64786
11.426338 54.354019 24.295319
11.439599 54.356205 23.978849
11.430466 54.333603 23.636511
11.442977 54.335354 23.329578
11.437865 54.317657 23.003912
11.444951 54.313744 22.699665
11.444339 54.301445 22.390207
11.441033 54.286339 22.082237
11.440199 54.274162 21.782185
11.447161 54.270809 21.496216
11.446485 54.259144 21.205202
11.453867 54.256565 20.927946
11.448337 54.239841 20.63961
11.456388 54.238297 20.370878
11.456857 54.228508 20.097256
11.465893 54.228325 19.836708
11.467373 54.219921 19.571342
11.464437 54.187363 18.788143
11.408963 54.50959 27.310747
11.397964 54.482643 26.901741
11.414972 54.487488 26.545864
11.433343 54.494106 26.198591
11.430002 54.476597 25.823988
11.43257 54.465981 25.465443
11.431865 54.451939 25.108566
11.427905 54.434502 24.753414
11.430344 54.424458 24.413868
11.429736 54.411232 24.075901
11.435903 54.405781 23.753139
11.439224 54.397358 23.431803
11.444703 54.391537 23.118595
11.442425 54.377266 22.800182
11.437352 54.360077 22.483335
11.449924 54.362694 22.193937
11.444617 54.345612 21.88648
11.44183 54.331505 21.586916
11.452143 54.332092 21.307598
11.449608 54.318592 21.017006
11.455211 54.314259 20.740074
11.453179 54.30162 20.458271
11.454165 54.292469 20.183805
11.463708 54.292912 19.922421
11.460243 54.279114 19.650358
11.396183 54.574429 27.4298
11.38606 54.548298 27.019951
11.390248 54.538578 26.641394
11.40471 54.54068 26.286249
11.402031 54.523777 25.911032
11.405246 54.513756 25.551872
11.40991 54.505604 25.201416
11.41617 54.499474 24.859533
11.419362 54.490131 24.519169
11.419502 54.477604 24.180376
11.411714 54.456436 23.836411
11.420575 54.454082 23.521158
11.431665 54.454399 23.2139
11.425045 54.435162 22.8881
11.425664 54.424187 22.577049
11.433782 54.421738 22.280399
11.434232 54.410934 21.978598
11.421733 54.385918 21.665556
11.432593 54.387016 21.385567
11.43587 54.379852 21.100481
11.431461 54.364323 20.810541
11.435266 54.358044 20.534166
11.442155 54.355324 20.26499
11.452251 54.356281 20.002838
11.454791 54.349014 19.73584
11.455157 54.339474 19.47002
11.458879 54.333767 19.211115
11.454972 54.319771 18.947678
11.460104 54.315861 18.69664
11.458779 54.29562 18.192244
11.377032 54.651081 27.529364
11.381224 54.640636 27.140795
11.377247 54.621277 26.746717
11.387934 54.618732 26.383511
11.390669 54.607498 26.014677
11.39937 54.603233 25.661774
11.400156 54.590324 25.303354
11.392916 54.568661 24.939659
11.396764 54.559685 24.59861
11.402405 54.55294 24.265982
11.405092 54.54311 23.934841
11.414706 54.541241 23.618692
11.41162 54.525372 23.290545
11.415659 54.51767 22.977224
11.427084 54.518394 22.678389
11.415585 54.493744 22.354883
11.426907 54.494713 22.065149
11.42027 54.475857 21.757566
11.4214 54.46582 21.464106
11.425295 54.459023 21.178205
11.416216 54.437977 20.881317
11.431241 54.443844 20.616302
11.433396 54.43557 20.340237
11.433273 54.424919 20.065413
11.430886 54.411907 19.791864
11.437198 54.408657 19.531185
11.441417 54.403217 19.27157
11.460191 54.413979 19.029953
11.454786 54.398151 18.766783
11.452871 54.386303 18.51041
11.454561 54.378548 18.260645
11.448606 54.362488 18.006615
11.452065 54.356911 17.764378
11.459398 54.355698 17.528322
11.453375 54.339893 17.2829
11.457061 54.334873 17.048763
11.458971 54.327991 16.81555
11.44737 54.306377 16.573503
11.457508 54.308716 16.352005
11.46009 54.302849 16.126465
11.384411 54.756935 27.64782
11.384967 54.741898 27.250914
11.377264 54.717838 26.848614
11.393288 54.720871 26.491735
11.396819 54.710075 26.121943
11.410977 54.711521 25.775169
11.403155 54.688477 25.401628
11.406172 54.677891 25.050974
11.410828 54.669392 24.708866
11.407578 54.652252 24.361462
11.406088 54.637329 24.022583
11.406502 54.624767 23.692087
11.418901 54.625835 23.383154
11.413607 54.607307 23.055672
11.420576 54.602695 22.749451
11.424915 54.595329 22.444557
11.416375 54.573784 22.128237
11.420589 54.56665 21.832584
11.427506 54.562702 21.544512
11.426763 54.550388 21.251469
11.434114 54.547245 20.972073
11.43383 54.53577 20.687784
11.436538 54.527771 20.41082
11.442361 54.523376 20.141008
11.435119 54.504639 19.860638
11.441961 54.501656 19.599039
11.446707 54.496483 19.338499
11.449367 54.489128 19.079052
11.45553 54.485775 18.826288
11.448481 54.467937 18.563564
11.456251 54.466595 18.318413
11.46212 54.463264 18.074188
11.454678 54.445366 17.820391
11.450971 54.431702 17.573065
11.451109 54.422386 17.332022
11.458057 54.402241 16.629932
11.456841 54.391838 16.397818
11.373521 54.823524 27.723692
11.392529 54.829197 27.355511
11.385474 54.805676 26.952328
11.392418 54.783337 26.202362
11.411747 54.790462 25.861954
11.409184 54.773159 25.494659
11.412779 54.763058 25.143139
11.408405 54.744244 24.786325
11.405642 54.727493 24.438169
11.414405 54.723919 24.112104
11.420306 54.717346 23.787436
11.418393 54.702232 23.457554
11.423588 54.69529 23.142479
11.436151 54.696785 22.841866
11.420708 54.667164 22.510136
11.422846 54.657394 22.205877
11.427549 54.650665 21.909351
11.424534 54.635509 21.607882
11.42944 54.629356 21.320282
11.426657 54.614807 21.027819
11.432055 54.60952 20.748894
11.435152 54.601833 20.471167
11.44136 54.597748 20.200583
11.445368 54.591358 19.931128
11.44719 54.582684 19.662836
11.446838 54.571739 19.395741
11.455407 54.570808 19.141132
11.456394 54.561607 18.881945
11.449707 54.544048 18.618427
11.463473 54.549221 18.37788
11.464049 54.539932 18.127438
11.456956 54.522293 17.872833
11.459333 54.515224 17.629883
11.459842 54.506199 17.387945
11.458491 54.495235 17.147047
11.455293 54.482342 16.907217
11.4611 54.47028 16.445305
11.36785 54.883732 27.825499
11.373942 54.874886 27.434521
11.380939 54.867363 27.052588
11.38441 54.85614 26.672354
11.389003 54.84647 26.301044
11.385526 54.827969 25.924332
11.378582 54.805843 25.549496
11.401493 54.817593 25.225449
11.392777 54.793987 24.861025
11.409794 54.799549 24.539639
11.404475 54.780247 24.192312
11.400968 54.76321 23.853485
11.409348 54.75972 23.536333
11.399954 54.736526 23.200754
11.407776 54.732815 22.893085
11.407872 54.720654 22.580267
11.410395 54.711391 22.275337
11.415479 54.70517 21.978136
11.418049 54.696316 21.682241
11.423365 54.690693 21.393888
11.426274 54.682549 21.106789
11.421471 54.665981 20.814922
11.42493 54.658768 20.536495
11.436889 54.66114 20.271124
11.430424 54.643196 19.989201
11.427093 54.628876 19.714493
11.438023 54.630512 19.458225
11.435855 54.617756 19.191637
11.43711 54.608925 18.931868
11.441905 54.604137 18.678732
11.439074 54.59103 18.421219
11.44555 54.588329 18.175596
11.45013 54.583645 17.930922
11.452825 54.576984 17.687225
11.447873 54.562 17.439421
11.4468 54.551403 17.197842
11.449713 54.545296 16.962292
11.456715 54.543785 16.732571
11.450217 54.527515 16.494041
11.453757 54.522381 16.26613
11.46157 54.522026 16.043743
11.46032 54.503033 15.5922
11.451163 54.48431 15.363402
11.458516 54.483768 15.148768
11.458246 54.474949 14.930543
11.373669 54.944607 27.947269
11.371412 54.926586 27.540707
11.369877 54.909691 27.143417
11.382964 54.909607 26.776972
11.383467 54.895584 26.397699
11.38515 54.883171 26.027346
11.38345 54.867207 25.658737
11.397412 54.869122 25.319862
11.398775 54.857098 24.968508
11.406665 54.852638 24.632526
11.401819 54.834103 24.28442
11.408628 54.828869 23.958265
11.40762 54.815083 23.626877
11.403695 54.798241 23.297094
11.401917 54.784008 22.975502
11.412599 54.783897 22.674879
11.41048 54.769661 22.362673
11.41084 54.758381 22.058327
11.424219 54.761784 21.77421
11.41952 54.745205 21.472572
11.422821 54.737698 21.18471
11.429045 54.733601 20.904188
11.422248 54.715176 20.612871
11.423797 54.706181 20.334892
11.433927 54.706852 20.069866
11.436469 54.699234 19.800072
11.436831 54.689335 19.531466
11.4461 54.68943 19.275345
11.453355 54.687412 19.020191
11.458607 54.683292 18.766033
11.456227 54.670849 18.507486
11.446128 54.650002 18.244804
11.456754 54.652161 18.004581
11.454079 54.639744 17.754793
11.449461 54.625294 17.506155
11.454518 54.621613 17.268785
11.446115 54.603207 17.022388
11.459269 54.608631 16.796799
11.44719 54.58638 16.552603
11.451009 54.581715 16.323919
11.453137 54.575275 16.0961
11.459572 54.573647 15.873753
11.457096 54.545338 15.202644
11.382236 54.9949 28.048645
11.375865 54.972706 27.633955
11.383743 54.966908 27.250521
11.378924 54.94706 26.854311
11.379674 54.933777 26.474422
11.386276 54.927345 26.110556
11.389582 54.917446 25.748304
11.38485 54.898762 25.380741
11.400775 54.903519 25.049639
11.399269 54.888924 24.69924
11.399509 54.876511 24.357342
11.411491 54.877464 24.037268
11.410768 54.864384 23.705156
11.412131 54.853844 23.381247
11.415722 54.845982 23.065388
11.406412 54.823902 22.738026
11.409619 54.815987 22.431612
11.420549 54.816849 22.139252
11.418625 54.803543 21.83552
11.424608 54.799213 21.545654
11.417613 54.780594 21.24477
11.418709 54.771137 20.95756
11.422778 54.765129 20.677656
11.429947 54.762699 20.404888
11.429476 54.75193 20.127382
11.43767 54.7509 19.862722
11.43825 54.741554 19.593393
11.447735 54.742199 19.33655
11.444058 54.728394 19.069542
11.443846 54.71854 18.809305
11.447211 54.712761 18.555656
11.448596 54.704903 18.303064
11.448011 54.694981 18.051558
11.456948 54.695663 17.811558
11.452525 54.681717 17.562164
11.446169 54.665745 17.313946
11.449561 54.660614 17.076876
11.457036 54.660061 16.845631
11.451006 54.644741 16.605555
11.455004 54.640541 16.376102
11.456882 54.617317 15.692989
11.460209 54.612698 15.47155
11.455984 54.591759 15.026823
11.366717 55.01672 28.101048
11.355868 54.990044 27.678589
11.359194 54.97966 27.287498
11.358902 54.965466 26.898209
11.368906 54.963127 26.532286
11.370919 54.952038 26.160812
11.374267 54.942696 25.79812
11.383858 54.940586 25.451067
11.385554 54.929844 25.098564
11.379247 54.910351 24.740856
11.379493 54.898418 24.398569
11.39642 54.905354 24.084831
11.390775 54.887234 23.745592
11.397162 54.882751 23.427883
11.400808 54.875389 23.111557
11.396637 54.859486 22.790192
11.405072 54.857811 22.489635
11.405801 54.84771 22.183996
11.398723 54.829086 21.873516
11.404726 54.82518 21.583233
11.408317 54.818733 21.294188
11.409507 54.809769 21.006416
11.408312 54.798298 20.719959
11.41554 54.79631 20.446695
11.420558 54.792 20.17454
11.423378 54.785381 19.903526
11.424014 54.776463 19.63369
11.428019 54.771397 19.370701
11.435509 54.770298 19.11438
11.435384 54.760895 18.853556
11.433195 54.749321 18.593899
11.440309 54.748127 18.346128
11.422681 54.719746 18.078213
11.437347 54.727081 17.843033
11.444487 54.726204 17.603428
11.438209 54.710648 17.354603
11.441681 54.705917 17.116922
11.431632 54.686409 16.87038
11.437379 54.684361 16.639555
11.435493 54.674007 16.404816
11.443768 54.674892 16.180418
11.44443 54.667496 15.952158
11.449431 54.664936 15.729315
11.446782 54.65406 15.502813
11.454617 54.654747 15.285975
11.448721 54.640461 15.061252
11.447314 54.631168 14.841728
11.444336 54.62022 14.623073
11.458322 54.627888 14.417419
11.452305 54.613747 14.200332
11.457194 54.611584 13.991933
11.456397 54.595882 13.57335
11.453898 54.571331 12.956423
11.348176 55.033241 28.14591
11.350809 55.022331 27.745134
11.354259 55.012611 27.3535
11.372457 55.019733 26.992579
11.364229 54.997387 26.597185
11.371051 54.992195 26.232262
11.374574 54.983528 25.868946
11.384345 54.98209 25.521261
11.381411 54.966625 25.161203
11.380081 54.953175 24.809774
11.380504 54.941891 24.466843
11.392686 54.943947 24.145723
11.402094 54.943077 23.825891
11.388684 54.916924 23.480991
11.397484 54.91573 23.170666
11.393446 54.900398 22.848696
11.391754 54.887848 22.534729
11.397714 54.88398 22.234945
11.39594 54.871662 21.930182
11.396832 54.862461 21.633081
11.400521 54.856514 21.343479
11.41246 54.859856 21.06727
11.406072 54.842999 20.774118
11.408036 54.835541 20.494297
11.418587 54.837719 20.227419
11.421538 54.831596 19.955761
11.427811 54.829269 19.690985
11.431979 54.824722 19.427271
11.434056 54.817978 19.164656
11.434055 54.809052 18.903172
11.420699 54.785496 18.632015
11.433548 54.790955 18.389071
11.433133 54.781887 18.136368
11.4365 54.777081 17.889973
11.437982 54.77029 17.644567
11.425976 54.748756 17.390089
11.441175 54.757236 17.161816
11.431231 54.738159 16.914585
11.431188 54.730049 16.678249
11.441234 54.733101 16.452377
11.443684 54.727882 16.222538
11.444446 54.72089 15.993578
11.449545 54.718727 15.770029
11.446989 54.708241 15.542821
11.448846 54.702663 15.320918
11.449109 54.695408 15.099835
11.441663 54.67979 14.8754
11.457194 54.689362 14.668453
11.452784 54.677189 14.449809
11.453019 54.670155 14.236032
11.451757 54.661545 14.02303
11.457326 54.653328 13.606861
11.450874 54.632217 13.18984
11.452896 54.606857 12.381649
11.358382 55.085827 28.24456
11.374872 55.090992 27.865061
11.37425 55.077156 27.465176
11.379105 55.069729 27.081657
11.37117 55.048183 26.685528
11.378292 55.043774 26.319864
11.377388 55.03059 25.948753
11.387418 55.029869 25.60038
11.394354 55.025883 25.253468
11.393361 55.013229 24.901211
11.394119 55.002728 24.55744
11.39677 54.994534 24.222019
11.401457 54.988792 23.894802
11.398284 54.974461 23.562441
11.397262 54.962704 23.238249
11.403623 54.959335 22.928547
11.407351 54.953194 22.620174
11.40846 54.94429 22.313175
11.41218 54.938435 22.013859
11.408138 54.924107 21.709667
11.417395 54.924683 21.425364
11.418994 54.916893 21.136127
11.418202 54.906586 20.848196
11.420436 54.899757 20.567528
11.414945 54.884506 20.282246
11.423526 54.884945 20.015722
11.429988 54.883152 19.750227
11.423259 54.86689 19.474516
11.436608 54.872917 19.222446
11.43679 54.864502 18.96023
