# .PCD v0.7 - Point Cloud Data file format
VERSION 0.7
FIELDS x y z
SIZE 4 4 4
TYPE F F F
COUNT 1 1 1
WIDTH 1613
HEIGHT 1
VIEWPOINT 0 0 0 1 0 0 0
POINTS 1613
DATA ascii
13.12132 50.407726 5.7123342
13.123578 50.407276 5.5772729
13.074803 50.304684 2.7305236
13.065422 50.292973 2.5946307
13.062251 50.287224 2.4568493
13.058192 50.280613 2.3189564
13.067347 50.286682 2.1767471
13.075559 50.291828 2.0341074
13.061745 50.275829 1.897885
13.054072 50.26572 1.7594026
13.117262 50.581398 10.10487
13.112848 50.573769 9.9545622
13.114297 50.571888 9.807415
13.10784 50.562302 9.6580343
13.12115 50.572037 9.5166588
13.140489 50.587658 9.3777227
13.138056 50.582047 9.2316904
13.120691 50.561886 9.0815744
13.137255 50.574829 8.9429731
13.117906 50.552773 8.7939386
13.125616 50.55711 8.6536083
13.125389 50.553722 8.5114822
13.124232 50.549438 8.3696394
13.136264 50.55801 8.2315445
13.14035 50.558849 8.091773
13.136458 50.551933 7.9505944
13.13874 50.551037 7.8112135
13.140127 50.549278 7.6720009
13.133513 50.539745 7.5316739
13.154467 50.557018 7.3965411
13.153201 50.552704 7.2577276
13.15105 50.547531 7.1191263
13.155156 50.548443 6.9816957
13.151246 50.54158 6.8434649
13.146456 50.533867 6.7054791
13.155108 50.539207 6.5691223
13.162908 50.543716 6.4326835
13.034767 50.407387 5.8810501
13.038239 50.407742 5.7461896
13.040863 50.40728 5.6113095
13.035458 50.399044 5.4764318
12.993447 50.307274 3.181459
12.987094 50.298107 3.0459833
12.985995 50.290928 2.7715907
12.991209 50.292873 2.6323516
12.988444 50.287132 2.4947343
12.991855 50.287319 2.3549986
12.994354 50.286617 2.2149889
12.981862 50.271496 2.0790668
12.996603 50.282536 1.9341947
12.975312 50.258949 1.8004677
13.023258 50.594273 10.57918
13.015511 50.582855 10.424692
13.013502 50.577099 10.273757
13.013227 50.569317 9.9760714
13.015009 50.567341 9.8291817
13.008901 50.557652 9.6800413
13.022519 50.567303 9.53895
13.02829 50.569283 9.3954649
13.033113 50.570351 9.2521915
13.023067 50.556881 9.1046324
13.025976 50.556103 8.9619875
13.020955 50.547588 8.8175049
13.028987 50.551849 8.6774502
13.043137 50.562099 8.5394077
13.03531 50.550884 8.3958225
13.033578 50.545639 8.2544451
13.037983 50.546398 8.1150293
13.027354 50.532497 7.9726191
13.037027 50.538418 7.8351583
13.052919 50.550407 7.6990895
13.046664 50.540802 7.5589223
13.04661 50.537258 7.4203405
13.059903 50.546726 7.2842331
13.050973 50.53455 7.1448383
13.055408 50.535397 7.0077662
13.05184 50.528461 6.8698759
13.054539 50.52763 6.7330189
13.063526 50.532921 6.5969439
13.050193 50.51651 6.4589386
12.941712 50.394043 5.7751484
12.966211 50.414429 5.640902
12.946811 50.392216 5.5060906
12.905408 50.287498 2.9433939
12.90098 50.272839 2.5319514
12.9048 50.273029 2.3925676
12.907714 50.272335 2.252907
12.916751 50.277519 2.1108227
12.910802 50.268272 1.9728029
12.910971 50.264896 1.8323824
12.896226 50.247169 1.6965597
12.921804 50.573494 10.139671
12.91115 50.558891 9.9870825
12.906298 50.550018 9.8378448
12.907309 50.546936 9.6917219
12.928043 50.563255 9.5535107
12.92714 50.558327 9.407856
12.932197 50.559269 9.2649317
12.92936 50.552479 9.1199636
12.932522 50.551594 8.9775801
12.934749 50.549809 8.8354435
12.936044 50.547123 8.6935644
12.950428 50.557278 8.5558023
12.935852 50.53907 8.4106274
12.948439 50.547485 8.273097
12.953109 50.548157 8.1338615
12.949827 50.541058 7.9931898
12.9527 50.539993 7.8543386
12.961762 50.544987 7.717062
12.969956 50.549141 7.5797892
12.963088 50.538578 7.4400611
12.962423 50.534096 7.3018537
12.975106 50.542652 7.1659784
12.972696 50.536476 7.0280275
12.948021 50.508583 6.8876443
12.965244 50.521584 6.7528296
12.967349 50.519836 6.6163182
12.97574 50.524223 6.4805231
12.854465 50.387325 5.7966251
12.85771 50.386749 5.6623702
12.860114 50.385357 5.5281034
12.830016 50.277412 2.69488
12.827972 50.271618 2.557771
12.832105 50.271767 2.4185665
12.835331 50.271027 2.2790837
12.837649 50.269398 2.1393342
12.846076 50.273636 1.9970968
12.832539 50.256706 1.8613995
12.846112 50.265862 1.7161992
12.821208 50.586636 10.903725
12.822914 50.574696 10.449737
12.828188 50.575417 10.302248
12.812007 50.554981 10.146463
12.815228 50.553726 9.9998426
12.817459 50.551521 9.853549
12.818705 50.548363 9.7075968
12.839641 50.564632 9.5695877
12.82516 50.546017 9.4192123
12.837336 50.553684 9.2789955
12.841664 50.553638 9.1365557
12.838101 50.545845 8.9921579
12.840547 50.54398 8.8502808
12.842062 50.541218 8.708662
12.849648 50.544437 8.5692453
12.842316 50.533012 8.4262409
12.855107 50.541367 8.2889891
12.859995 50.541973 8.1500196
12.871038 50.548626 8.012784
12.86004 50.533665 7.871016
12.869316 50.538605 7.7340131
12.86357 50.528828 7.5943489
12.871098 50.53207 7.4575362
12.877762 50.53447 7.3207479
12.869352 50.522121 7.18185
12.867163 50.515877 7.0443306
12.878338 50.522713 6.9088387
12.881541 50.521751 6.7724285
12.883885 50.519958 6.6360955
12.885371 50.51733 6.4998507
12.814567 50.444107 6.3581991
12.776082 50.386429 5.6832123
12.77873 50.385002 5.5491247
12.755003 50.281361 2.8563383
12.754112 50.276402 2.7195301
12.749702 50.263908 2.4455318
12.75322 50.263172 2.3063118
12.76286 50.268326 2.164686
12.750515 50.252247 2.0293
12.758323 50.255596 1.8870867
12.772179 50.264755 1.7420781
12.720553 50.561455 10.461346
12.726014 50.562107 10.314199
12.723671 50.555061 10.164476
12.727122 50.553776 10.018028
12.729585 50.551533 9.8719072
12.731062 50.548344 9.7261257
12.731559 50.544205 9.5806961
12.744871 50.55275 9.440547
12.743452 50.546761 9.2956915
12.734135 50.532997 9.1489382
12.744654 50.538834 9.0093651
12.754272 50.543797 8.8698664
12.75602 50.541008 8.7284203
12.735881 50.51667 8.5814018
12.756742 50.532749 8.4463425
12.762735 50.534191 8.3075094
12.767838 50.534767 8.168807
12.772053 50.534481 8.0302467
12.782427 50.540264 7.8933554
12.77782 50.531326 7.7535934
12.772308 50.521515 7.6141787
12.78713 50.531693 7.4788966
12.794022 50.534084 7.3422937
12.785862 50.521709 7.2035546
12.783914 50.515446 7.066205
12.781092 50.508335 6.9290848
12.791634 50.514336 6.7938519
12.794209 50.512531 6.6577845
12.795928 50.509892 6.5218039
12.768254 50.478485 6.3836675
12.691086 50.377396 5.572722
12.685983 50.368168 5.4389439
12.684627 50.276974 2.6081355
12.671956 50.255966 2.3361084
12.68891 50.26796 2.192631
12.676853 50.251896 2.0573938
12.677939 50.248516 1.9176595
12.685101 50.250984 1.7753097
12.627609 50.574215 11.085562
12.630691 50.572201 10.93389
12.626961 50.558422 10.628652
12.633625 50.560062 10.481395
12.63929 50.560734 10.334424
12.630373 50.546947 10.181971
12.634012 50.545662 10.035779
12.629834 50.536648 9.8871889
12.638335 50.540234 9.7443848
12.639027 50.536098 9.5992079
12.645628 50.537838 9.4568663
12.651292 50.538673 9.3147316
12.642187 50.524906 9.1682119
12.645954 50.523903 9.0266972
12.662687 50.535736 8.8896885
12.657668 50.526081 8.7464542
12.658674 50.522396 8.6056185
12.672739 50.531628 8.4688101
12.678938 50.5331 8.3301592
12.691261 50.540627 8.1933403
12.66759 50.512661 8.0484028
12.685167 50.525394 7.9134932
12.687809 50.523407 7.7755108
12.68251 50.513615 7.636343
12.69045 50.516869 7.5000768
12.690454 50.512321 7.3626466
12.696668 50.513893 7.226521
12.702025 50.514629 7.0904388
12.692324 50.500568 6.9525595
12.703064 50.506611 6.8176074
12.705849 50.504841 6.6818047
12.707781 50.502235 6.5460868
12.70886 50.498798 6.4104648
12.604692 50.378838 5.8659391
12.615778 50.385269 5.7324553
12.611742 50.376888 5.5986719
12.614017 50.374691 5.4650235
12.590925 50.267708 2.916151
12.590579 50.262856 2.7798548
12.589363 50.257149 2.6434231
12.601362 50.264236 2.5029874
12.591343 50.249969 2.3681729
12.587491 50.241669 2.2313166
12.596781 50.246075 2.089977
12.598141 50.242783 1.9504987
12.605577 50.24535 1.8084162
12.532212 50.564682 11.100877
12.535467 50.562675 10.949455
12.537668 50.55965 10.798444
12.532101 50.548912 10.644701
12.545672 50.557281 10.500775
12.544765 50.55125 10.350992
12.549605 50.550972 10.204578
12.553456 50.549736 10.058475
12.542683 50.533978 9.9072218
12.54453 50.530807 9.7619467
12.559111 50.54031 9.6221609
12.552171 50.528454 9.4749451
12.558006 50.529308 9.3330727
12.542192 50.508705 9.184473
12.553041 50.514576 9.0455341
12.562994 50.519577 8.9066658
12.579005 50.53059 8.7699413
12.587188 50.533855 8.6311646
12.580521 50.52243 8.4887161
12.579905 50.517017 8.3485289
12.585381 50.517651 8.2103596
12.582955 50.510487 8.0706968
12.59368 50.516331 7.9344473
12.58947 50.507431 7.7952681
12.598456 50.511578 7.6591783
12.599527 50.507919 7.5218124
12.606791 50.51038 7.3858395
12.606124 50.505028 7.248785
12.61167 50.50581 7.1129718
12.616362 50.505756 6.9772105
12.6202 50.504871 6.8415122
12.623187 50.503151 6.7058868
12.603987 50.479607 6.5683098
12.513265 50.362846 5.7571015
12.537992 50.382534 5.6240177
12.540477 50.380394 5.4904594
12.509639 50.276886 3.3522751
12.514394 50.26292 2.8086982
12.513417 50.25729 2.6724339
12.51861 50.257641 2.5341175
12.508851 50.243458 2.399538
12.519292 50.248867 2.2587342
12.52881 50.253357 2.1174963
12.523412 50.243362 1.980371
12.524112 50.239265 1.8408233
12.509968 50.220772 1.7059207
12.441349 50.563759 11.266282
12.445822 50.562778 11.114635
12.455904 50.56744 10.966711
12.451603 50.557743 10.812537
12.459631 50.56041 10.665278
12.453198 50.548656 10.512128
12.452438 50.542606 10.362591
12.464188 50.549072 10.219349
12.461409 50.541069 10.070585
12.464417 50.538864 9.9250612
12.466446 50.535709 9.7798719
12.467499 50.531612 9.6350317
12.467581 50.526569 9.4905529
12.473574 50.527435 9.3488579
12.471741 50.520538 9.2050533
12.468949 50.512714 9.0616474
12.485981 50.524612 8.9251204
12.481328 50.51498 8.7822914
12.489637 50.518242 8.6438684
12.510996 50.534466 8.5093489
12.503593 50.52216 8.3673468
12.495255 50.508949 8.2258139
12.507003 50.515671 8.0896883
12.496841 50.500694 7.9488721
12.5209 50.51963 7.8159089
12.508948 50.502918 7.6756821
12.524278 50.513218 7.5411696
12.517597 50.501755 7.4028726
12.538296 50.517368 7.2694473
12.529874 50.504208 7.131567
12.527651 50.497189 6.9950356
12.538743 50.503323 6.8604655
12.436163 50.368881 5.9106183
12.443974 50.367123 5.6442428
12.453767 50.372032 5.5110278
12.444743 50.277893 3.1028581
12.438734 50.262417 2.8326662
12.429296 50.243568 2.5622633
12.433826 50.243122 2.4240081
12.437461 50.241787 2.2854762
12.4472 50.246361 2.1445074
12.442036 50.236439 2.007628
12.449944 50.239189 1.8659933
12.442992 50.227497 1.7288109
12.349693 50.548744 11.115691
12.35318 50.546661 10.964769
12.368972 50.556953 10.820765
12.357012 50.539452 10.664165
12.364086 50.541061 10.517599
12.370167 50.541706 10.371317
12.361739 50.527859 10.219485
12.372586 50.533329 10.076815
12.362096 50.517487 9.9260349
12.364187 50.514259 9.7812672
12.378976 50.523739 9.6420221
12.379161 50.518654 9.4977961
12.378382 50.51263 9.3539429
12.390412 50.519413 9.2151423
12.394648 50.518436 9.074151
12.404877 50.523449 8.9355631
12.407286 50.520687 8.7949791
12.401831 50.51012 8.6526642
12.402393 50.505566 8.5127029
12.409018 50.507057 8.3748493
12.414761 50.507683 8.2371216
12.419622 50.50745 8.0995312
12.416597 50.499397 7.9605255
12.433732 50.511372 7.826283
12.428944 50.501598 7.6876926
12.437343 50.504917 7.5520649
12.43784 50.500412 7.4152384
12.444526 50.502052 7.2797451
12.450361 50.502857 7.1442919
12.441197 50.488823 7.0069733
12.448595 50.486244 6.7367077
12.355299 50.35989 5.791635
12.351799 50.351589 5.6586156
12.368844 50.363529 5.5257597
12.349899 50.24741 2.8543215
12.354901 50.242352 2.5807786
12.359596 50.241936 2.4426992
12.3634 50.240631 2.3043418
12.359311 50.231625 2.1678817
12.361333 50.22855 2.0290878
12.369425 50.231354 1.8877159
12.376585 50.233227 1.7459427
12.260413 50.556911 11.427574
12.259557 50.55019 11.27246
12.257597 50.542397 11.117888
12.267829 50.546913 10.97056
12.257059 50.530342 10.813694
12.2786 50.546291 10.673469
12.272395 50.534382 10.520802
12.271846 50.528198 10.371764
12.283768 50.534557 10.229045
12.281209 50.526417 10.080778
12.277633 50.517292 9.9330015
12.27985 50.514004 9.7884054
12.30157 50.530277 9.6519356
12.288219 50.511452 9.5027781
12.301271 50.519081 9.364027
12.299681 50.512081 9.220643
12.304025 50.511044 9.0799122
12.314356 50.516003 8.9415894
12.323799 50.520092 8.8033476
12.318484 50.509464 8.6611996
12.312229 50.497929 8.5194979
12.312001 50.492428 8.3800802
12.331795 50.506897 8.2461853
12.322809 50.492702 8.1054602
12.340898 50.505486 7.9715061
12.344135 50.503494 7.8343992
12.339478 50.493664 7.6960645
12.362056 50.510925 7.5633259
12.348617 50.492397 7.4241385
12.348374 50.487 7.2877746
12.354324 50.487759 7.1526742
12.360017 50.478027 6.7469234
12.267801 50.351349 5.8036027
12.264449 50.343018 5.6708431
12.274505 50.347927 5.5382586
12.273014 50.245556 2.8703039
12.276217 50.233242 2.4611943
12.28721 50.238785 2.3210247
12.283305 50.229774 2.1847324
12.292486 50.233501 2.0438683
12.28681 50.222733 1.9072453
12.294164 50.224632 1.7657335
12.161027 50.549458 11.582593
12.161388 50.543694 11.427278
12.16723 50.54351 11.276003
12.165407 50.535629 11.121675
12.175754 50.54007 10.974606
12.171791 50.530106 10.821243
12.166744 50.519096 10.668468
12.187411 50.534035 10.528701
12.1803 50.521019 10.37681
12.185599 50.520535 10.231419
12.189918 50.519093 10.086337
12.19326 50.516701 9.941577
12.195629 50.513355 9.7971516
12.210656 50.522751 9.6582737
12.190632 50.496986 9.5068398
12.203786 50.504547 9.3684416
12.209185 50.504349 9.2277431
12.227425 50.517036 9.091795
12.217222 50.501251 8.9470396
12.219867 50.498356 8.8070574
12.228525 50.501499 8.6693449
12.236301 50.503777 8.5317345
12.236244 50.498238 8.3924036
12.242249 50.498775 8.2551184
12.2404 50.491482 8.1163054
12.251633 50.497265 7.9809666
12.248013 50.488243 7.8426318
12.264538 50.499325 7.7088518
12.259168 50.488586 7.5709519
12.259942 50.48399 7.4346471
12.266893 50.485558 7.2996888
12.265949 50.479275 7.1637106
12.275611 50.478226 6.8942022
12.178481 50.360691 6.3480597
12.188237 50.349468 5.8173556
12.199275 50.355179 5.6849689
12.202385 50.353039 5.5523825
12.197455 50.243378 2.8879025
12.197247 50.237846 2.7524939
12.196177 50.231457 2.6169536
12.215272 50.244766 2.475354
12.205444 50.229778 2.3413923
12.215731 50.234428 2.2010517
12.21115 50.224537 2.0647545
12.226585 50.234158 1.9214199
12.20632 50.208931 1.7895374
12.077284 50.547817 11.590469
12.071239 50.535366 11.431714
12.077193 50.535122 11.280691
12.082094 50.533852 11.130047
12.099192 50.544956 10.98651
12.088758 50.528248 10.829951
12.097197 50.530663 10.68372
12.111331 50.53886 10.540868
12.104396 50.52581 10.389051
12.109852 50.525311 10.24375
12.107581 50.517044 10.095897
12.104296 50.507797 9.9485321
12.113572 50.511238 9.8070536
12.115115 50.506916 9.663146
12.115694 50.501652 9.5195971
12.122152 50.502331 9.3788595
12.141398 50.515884 9.2430468
12.132305 50.50098 9.0980415
12.142893 50.505867 8.9601679
12.145695 50.502956 8.8202753
12.154501 50.506092 8.6826582
12.148567 50.494465 8.5412846
12.141701 50.481934 8.4003677
12.161734 50.496365 8.2669477
12.167004 50.496021 8.1299763
12.164421 50.487839 7.9915667
12.174929 50.492764 7.8564844
12.177587 50.489849 7.719985
12.172363 50.47908 7.5823379
12.173279 50.474461 7.4462938
12.186606 50.476727 7.1769509
12.184957 50.469582 7.0413675
12.18245 50.461601 6.9060159
12.12141 50.379093 6.3638759
12.12883 50.359489 5.7001557
12.117893 50.343273 5.5676169
12.10613 50.326248 5.4354239
12.116509 50.233894 2.9083419
12.127906 50.228539 2.498558
12.125293 50.220436 2.3628697
12.128796 50.218304 2.2249396
12.138379 50.222092 2.0845232
12.147044 50.224953 1.9436891
12.14784 50.220097 1.8048465
11.986497 50.537384 11.594333
11.987095 50.53154 11.439424
11.993155 50.531288 11.288569
12.004752 50.536694 11.141541
12.008738 50.534409 10.991374
12.005047 50.524384 10.838331
12.006931 50.520054 10.689074
12.007784 50.514717 10.54025
12.021006 50.521935 10.397943
12.019851 50.514637 10.249863
12.031155 50.519966 10.107991
12.014494 50.497074 9.9551373
12.023855 50.500504 9.81392
12.025494 50.496162 9.6702652
12.032982 50.497753 9.529501
12.039548 50.498436 9.3889399
12.058886 50.512005 9.2533178
12.049922 50.497089 9.108469
12.060613 50.501987 8.9707785
12.06353 50.499084 8.8310575
12.058629 50.488342 8.6895752
12.066637 50.490601 8.5524101
12.066834 50.485027 8.4135065
12.086975 50.499493 8.2801952
12.078451 50.485207 8.1399555
12.075981 50.47702 8.0017996
12.079603 50.47496 7.8654799
12.082358 50.472042 7.7293277
12.091255 50.475288 7.5946884
12.092294 50.47068 7.4588175
12.099496 50.472248 7.3243074
12.09179 50.458927 7.187685
12.104335 50.465855 7.0544219
12.101958 50.457882 6.91924
12.105784 50.456116 6.7851148
12.09102 50.424713 6.3815937
12.02408 50.336056 5.8465648
12.028294 50.334763 5.7145224
12.03169 50.332653 5.5824661
12.027169 50.322689 5.4504633
12.039343 50.235657 3.0615072
12.047515 50.232498 2.7898998
12.046798 50.226177 2.6546993
12.052222 50.225861 2.5174127
12.049775 50.217808 2.3818913
12.046466 50.208893 2.2462685
12.070155 50.226406 2.1016798
12.05811 50.208897 1.9678515
12.066044 50.210922 1.8269593
11.904672 50.556061 12.23393
11.903858 50.535358 11.757195
11.912131 50.537266 11.605633
11.919346 50.538136 11.45442
11.925506 50.537971 11.303569
11.930615 50.536781 11.153095
11.928078 50.527855 10.99964
11.931079 50.524601 10.850044
11.926398 50.513588 10.697659
11.933981 50.515064 10.552124
11.94058 50.515575 10.40687
11.946199 50.515121 10.26191
11.950844 50.51371 10.117257
11.947766 50.504513 9.9701309
11.943683 50.494339 9.8235044
11.952169 50.49691 9.682641
11.966537 50.505447 9.544507
11.966374 50.499325 9.401494
11.972097 50.499172 9.2612343
11.963196 50.484291 9.1166267
11.980797 50.496166 8.9814005
11.97001 50.479443 8.8376188
11.985853 50.489578 8.7025604
11.980109 50.477989 8.5615969
11.994217 50.486401 8.4266663
12.00054 50.486996 8.2899132
11.999039 50.47974 8.1516066
12.010573 50.4856 8.01682
12.007312 50.476612 7.8789854
12.01015 50.473766 7.7429194
12.019123 50.477089 7.6083741
12.01324 50.465527 7.4713306
12.020511 50.467163 7.3369994
12.026943 50.467968 7.2027049
12.018469 50.453865 7.066463
12.023209 50.452999 6.9324455
11.960249 50.345768 5.8614717
11.943292 50.323387 5.7290525
11.953859 50.328411 5.5972977
11.963615 50.332623 5.465364
11.964191 50.217003 2.6751637
11.967422 50.20887 2.4028659
11.971216 50.206917 2.2653663
11.974125 50.204071 2.1276047
11.990043 50.213963 1.9850013
11.984208 50.202492 1.8489609
11.984426 50.196934 1.7103975
11.833133 50.530613 11.772045
11.834955 50.526028 11.616861
11.835671 50.520363 11.462187
11.841836 50.520294 11.311584
11.860097 50.532585 11.168287
11.857621 50.523792 11.014902
11.860679 50.520676 10.865387
11.862701 50.516544 10.71629
11.870356 50.518173 10.57076
11.870346 50.512051 10.422457
11.862615 50.498127 10.271643
11.867273 50.496819 10.12724
11.877702 50.501389 9.98596
11.880443 50.498192 9.842124
11.882219 50.494049 9.6986322
11.89663 50.502724 9.5605984
11.896528 50.496735 9.4176636
11.895474 50.489811 9.2751093
11.90032 50.488876 9.1352453
11.904253 50.487041 8.9956169
11.9004 50.477375 8.8541088
11.902504 50.473743 8.7150726
11.917517 50.48315 8.5802183
11.904006 50.463821 8.4378214
11.917276 50.4715 8.3031998
11.922759 50.471348 8.1668415
11.934332 50.477337 8.032239
11.931125 50.468472 7.8945656
11.934012 50.465752 7.7586708
11.950018 50.476223 7.6256604
11.937203 50.45776 7.487421
11.944522 50.45953 7.3532681
11.951003 50.460464 7.2191505
11.877894 50.332455 5.8792734
11.878719 50.322422 5.6156516
11.888533 50.326778 5.4839015
11.824688 50.498981 9.5774679
11.831443 50.500042 9.4370871
11.835581 50.481361 8.8735104
11.839383 50.468307 8.4572077
11.852706 50.476162 8.3226004
11.851311 50.469181 8.1845331
11.869876 50.482338 8.0516529
11.866737 50.473633 7.9139676
11.855742 50.457043 7.7751665
11.864793 50.460648 7.6409826
11.866013 50.456387 7.5055327
11.859374 50.444237 7.3690867
11.872898 50.45237 7.2363386
11.728099 50.31884 5.7830963
11.730498 50.217613 3.1450214
11.731829 50.213676 3.0109437
11.732313 50.208885 2.8767149
11.737714 50.203648 2.6059239
11.735639 50.196278 2.4712207
11.739664 50.194923 2.334316
11.74281 50.19268 2.197144
11.752006 50.196384 2.0574522
11.74645 50.185509 1.9220437
11.664306 50.326214 5.9263344
11.668699 50.325645 5.7949018
11.665219 50.317188 5.663372
11.675055 50.322079 5.5319901
11.656654 50.193707 2.6233213
11.658604 50.185406 2.3522141
11.66175 50.18338 2.2152936
11.670941 50.187313 2.0758591
11.672311 50.183487 1.9383506
11.686593 50.192398 1.7957547
11.612537 50.358643 6.3296018
11.637438 50.369408 5.9347219
11.634714 50.361916 5.8026795
11.633875 50.351578 5.5390644
11.607527 50.320404 5.4077039
11.580626 50.283978 5.1460543
11.580082 50.278717 5.0150867
11.578732 50.272644 4.88416
11.576574 50.265766 4.7532835
11.580665 50.265137 4.6218524
11.590998 50.270744 4.4896164
11.58641 50.261421 4.3586898
11.58806 50.258335 4.2269778
11.588896 50.254425 4.0951929
11.595952 50.256721 3.9622953
11.595147 50.251156 3.830307
11.593522 50.24477 3.6982763
11.598099 50.244556 3.5649037
11.60184 50.2435 3.4313362
11.611751 50.248573 3.2961023
11.606808 50.238842 3.1636581
11.601039 50.228279 3.0312231
11.608408 50.230778 2.8953273
11.600965 50.218533 2.7627697
11.606622 50.219296 2.6264293
11.611406 50.219173 2.4897974
11.615316 50.218163 2.3528852
11.618349 50.216263 2.2157042
11.558 50.36179 6.0712318
27.442043 51.71701 3.1049972
27.232891 51.715027 3.1179652
26.999907 51.693916 3.1238
26.829802 51.722519 3.1216383
26.529709 51.642319 3.1094296
26.292839 51.62595 3.5560465
26.0928 52.245171 18.711273
25.945917 52.486263 25.54875
25.940027 52.464565 24.99511
25.950771 52.457203 24.455297
25.964359 52.452389 23.920994
25.924452 52.402077 23.362032
25.719398 52.370037 22.77375
25.509966 52.353138 22.709986
25.250975 52.291798 22.622253
25.09939 52.314903 22.59676
24.978174 52.453304 25.815725
24.613585 52.44915 26.827112
22.280218 52.108131 24.398319
22.252909 52.354671 29.350437
22.213728 52.301094 28.754993
22.179369 52.235378 27.614796
22.163042 52.170708 25.96987
22.182219 52.172253 25.44725
22.197422 52.170242 24.92618
22.228775 52.183292 24.418957
21.995728 52.155449 26.45289
22.045048 52.184952 25.946922
21.919519 52.207989 26.451319
21.935831 52.206783 25.92383
21.861868 52.042336 22.745604
21.799335 52.33918 30.323338
21.693539 52.120102 26.345301
21.788218 52.192223 25.87155
21.73979 52.050892 22.714439
21.546289 52.120338 26.835197
21.605055 52.158833 26.335091
21.610872 52.051174 22.682844
21.439497 52.117371 26.279554
21.443127 52.007824 22.635637
21.270697 52.082222 26.759071
21.302698 52.095898 26.243095
21.188902 52.110985 26.752909
21.1882 52.09388 26.215145
21.217569 52.025936 23.105141
21.074318 52.09623 26.181051
21.095873 52.02087 23.070925
20.946396 52.109329 26.669445
20.932299 52.079247 26.124283
20.952345 52.001461 23.019884
20.864573 52.149059 26.64864
20.824532 52.093887 26.086105
20.299166 51.682354 18.876194
20.163214 51.635666 18.369137
20.054714 51.661011 19.283588
20.032019 51.624157 18.799978
20.04678 51.623478 18.337568
20.046028 51.593239 17.406965
19.945917 51.65514 19.254551
19.950266 51.644341 18.784706
19.944473 51.623848 18.313044
19.921652 51.587029 17.836744
19.950302 51.599953 17.386631
19.814608 51.610237 18.746357
19.822206 51.602707 18.282074
19.847046 51.611938 17.828381
19.827662 51.578484 17.357319
19.713259 51.606647 18.727312
19.713936 51.592434 18.26041
19.731792 51.594971 17.80427
19.753345 51.60117 17.352125
19.781046 51.570004 15.5416
19.640326 51.627289 18.723124
19.613796 51.586666 18.243685
19.651953 51.609043 17.797464
19.632418 51.575417 17.327473
19.678102 51.60524 16.888794
19.67325 51.557331 15.525678
19.521507 51.644039 20.110826
19.52247 51.600315 18.69463
19.529669 51.59264 18.231993
19.567665 51.615063 17.786188
19.568521 51.601368 17.325701
19.552481 51.571304 16.860661
19.574593 51.549988 15.511086
19.439358 51.606483 18.680084
19.450275 51.588017 17.756897
19.444094 51.567551 17.294205
19.441517 51.55069 16.835974
19.367136 51.581234 17.282824
19.371344 51.57098 16.827875
19.370375 51.541542 15.921682
19.365229 51.522388 15.47052
19.256077 51.562828 17.254702
19.265835 51.529255 15.898601
19.166683 51.562302 17.236727
19.184324 51.565117 16.788925
18.676376 51.70422 22.328934
18.70175 51.667892 20.413389
18.599236 51.729958 23.295261
18.616465 51.715645 22.31917
18.623032 51.706612 21.835423
18.606483 51.674538 21.341919
18.628479 51.66592 20.397371
18.62785 51.650135 19.923616
18.543232 51.919922 29.031981
18.537102 51.896294 28.479012
18.520452 51.862225 27.923666
18.536646 51.861496 27.399279
18.530148 51.838024 26.862734
18.525768 51.81686 26.333052
18.5488 51.823483 25.828011
18.555439 51.813725 25.315626
18.545534 51.787453 24.796419
18.569977 51.795895 24.304943
18.558807 51.768639 23.793915
18.582415 51.776485 23.309618
18.576694 51.754974 22.810518
18.580269 51.742931 22.321238
18.535101 52.0797 32.475319
18.497871 51.951504 29.580023
18.532658 51.969238 29.054552
18.495943 51.914757 28.476906
18.528591 51.930653 27.960016
18.489162 51.873817 27.392597
18.463888 51.831493 26.84227
18.490631 51.841888 26.335806
18.513613 51.848614 25.830765
18.532852 51.851696 25.3272
18.542023 51.844753 24.820829
18.528309 51.814877 24.303436
18.479685 51.994923 29.599182
18.508636 51.989559 28.519979
18.492214 51.955818 27.964088
18.440447 51.886475 27.387217
18.433821 51.863041 26.850973
18.454329 51.867218 26.339865
18.359316 51.973068 30.6565
18.353931 51.94986 30.087267
18.457558 52.020233 29.060444
18.401787 51.912521 27.388996
18.364067 51.857605 26.829515
18.415646 51.893364 26.341627
18.328882 52.134853 34.198971
18.276937 51.970974 30.624184
18.313601 51.99057 30.091051
18.349501 51.941036 27.382618
18.336693 51.911335 26.841728
18.203217 51.955425 30.584482
18.281727 52.01783 30.087584
18.249399 51.899197 27.327204
18.248644 51.881809 26.796452
18.189058 52.000237 30.598131
18.22546 52.019787 30.065292
18.179085 51.870472 26.766699
18.121595 51.971733 30.002289
18.122368 51.871059 26.74633
17.964893 51.961048 31.031075
18.010492 51.990368 30.503159
17.92761 51.970364 30.441229
17.899788 51.840424 27.141607
17.826315 51.934048 30.361832
17.767485 52.064579 34.418678
17.785959 51.956108 30.336281
17.708481 51.93618 30.287035
17.647739 51.932087 30.257631
17.541489 51.960201 30.773218
17.467216 51.931606 30.172529
17.419109 52.072937 34.245274
17.416073 51.961082 30.727182
17.394178 51.920872 30.145769
17.363171 51.951908 30.155891
17.287598 51.931728 30.123598
17.284956 52.111221 34.23164
17.23473 51.95002 30.6738
17.224434 51.921894 30.103668
17.12816 51.955196 30.657948
17.111958 51.920784 30.083088
16.625772 51.367554 19.77207
16.582132 51.474503 23.070387
16.625792 51.50544 22.615198
16.628462 51.493332 22.136644
16.64673 51.497742 21.671551
16.591774 51.42527 21.165394
16.61607 51.436249 20.711254
16.552402 51.340591 19.748411
16.548651 51.490459 23.062744
16.512846 51.422848 22.077078
16.53705 51.433598 21.617029
16.507212 51.387543 21.127306
16.512098 51.378178 20.662596
16.56498 51.419399 20.228863
16.544285 51.383316 19.755749
16.5783 51.404858 19.316406
16.457863 51.431511 22.534481
16.491524 51.45219 22.077389
16.484072 51.429592 21.597633
16.536715 51.470474 21.158218
16.497154 51.414253 20.666431
16.498816 51.4016 20.203066
16.497244 51.385651 19.741247
16.524694 51.400349 19.298626
16.4179 51.456173 23.007219
16.44318 51.438469 21.587929
16.438576 51.419029 21.114071
16.430614 51.396164 20.641994
16.470484 51.423874 20.20121
16.475309 51.414696 19.742992
16.476969 51.402283 19.286209
16.351284 51.423111 22.497768
16.365753 51.423687 22.029299
16.376932 51.420891 21.562195
16.397526 51.42815 21.104197
16.395855 51.411976 20.636045
16.410072 51.412693 20.180609
16.401917 51.389877 19.715595
16.401711 51.361565 18.804644
16.303276 51.426239 22.483707
16.335041 51.43058 21.552536
16.336542 51.417671 21.083166
16.35383 51.421581 20.626707
16.329659 51.381725 20.14934
16.372589 51.412956 19.713783
16.341881 51.366405 19.239971
16.268824 51.429932 22.002464
16.267197 51.413628 21.527994
16.268539 51.400589 21.059105
16.31745 51.43808 20.621943
16.286882 51.391426 20.140974
16.310511 51.402302 19.694778
16.298988 51.376045 19.231932
16.2176 51.474426 23.430416
16.182531 51.422226 22.921957
16.201536 51.413055 21.977274
16.206039 51.403324 21.507208
16.232548 51.417076 21.054092
16.243254 51.414135 20.594435
16.244404 51.401154 20.132442
16.255144 51.398449 19.679205
16.243517 51.372116 19.216686
16.127556 51.420128 22.902483
16.138594 51.417168 22.429716
16.165113 51.430801 21.970446
16.150671 51.400936 21.488688
16.164391 51.401157 21.028208
16.181269 51.404831 20.572794
16.18865 51.398506 20.114889
16.180084 51.375336 19.651176
16.082861 51.461231 23.861729
16.101282 51.436283 22.422119
16.071335 51.389721 21.926901
16.119583 51.426659 21.485174
16.101698 51.393196 21.005482
16.105753 51.383232 20.542948
16.106594 51.369946 20.081928
16.14257 51.394154 19.644064
16.037624 51.428799 22.400455
16.032665 51.40881 21.92165
16.043156 51.405437 21.456469
16.0504 51.398708 20.992708
16.079763 51.41568 20.545464
16.048861 51.368469 20.065962
16.078367 51.385777 19.624823
15.937833 51.397797 22.834988
15.967216 51.414406 22.375662
15.955886 51.387547 21.893332
15.97879 51.397434 21.436556
15.960712 51.363602 20.957832
15.983536 51.373604 20.507553
16.016005 51.393997 20.065664
16.020006 51.384068 19.61013
15.893601 51.437679 23.795372
15.892529 51.421455 23.308001
15.906542 51.421547 22.834982
15.923443 51.424847 22.367491
15.899562 51.384548 21.877317
15.922342 51.394375 21.42086
15.91678 51.373947 20.950142
15.958508 51.404251 20.511307
15.933825 51.363575 20.036215
15.824945 51.402767 23.286072
15.832597 51.396122 22.809368
15.855528 51.405998 22.346516
15.837765 51.372295 21.860819
15.87295 51.395535 21.412611
15.886211 51.395344 20.953659
15.889987 51.385086 20.492254
15.896908 51.3783 20.036049
15.894326 51.361435 19.577644
15.89497 51.348129 19.124365
15.776026 51.4207 23.764057
15.780902 51.410988 23.281635
15.794705 51.411007 22.809252
15.780316 51.380817 22.321978
15.824824 51.414074 21.876875
15.81621 51.390327 21.400963
15.841965 51.403618 20.95002
15.820448 51.366249 20.473724
15.846257 51.379787 20.029051
15.837266 51.356083 19.567286
15.835316 51.326172 18.662865
15.7259 51.423668 23.75334
15.744457 51.413872 22.799007
15.736239 51.390308 22.316055
15.755741 51.396713 21.855099
15.759532 51.386311 21.387512
15.766335 51.379265 20.92536
15.782553 51.382439 20.472208
15.776675 51.361961 20.009205
15.66527 51.414036 23.730751
15.657653 51.390846 23.240473
15.695923 51.417316 22.785536
15.662822 51.366879 22.286486
15.713292 51.406712 21.846107
15.692015 51.369282 21.362988
15.679833 51.341789 20.889786
15.721048 51.371918 20.452412
15.718976 51.327496 19.083923
15.617902 51.417484 23.715561
15.610201 51.394196 23.225519
15.629827 51.400585 22.758327
15.608989 51.363358 22.267925
15.665535 51.409843 21.831867
15.637939 51.365566 21.345064
15.644487 51.358269 20.883717
15.647839 51.34763 20.423845
15.673304 51.360931 19.980223
15.577001 51.425774 23.706947
15.56311 51.395786 23.212822
15.545627 51.362049 22.720888
15.574138 51.37822 22.26387
15.562183 51.350719 21.783848
15.615511 51.393921 21.349016
15.578186 51.339233 20.860683
15.625455 51.376057 20.427633
15.613017 51.348484 19.96184
15.603667 51.32436 19.501539
15.524168 51.419918 23.690622
15.497904 51.376526 23.188326
15.541924 51.409477 22.738501
15.564325 51.419086 22.277081
15.552456 51.391678 21.79682
15.537162 51.360691 21.318583
15.556061 51.366833 20.865482
15.565578 51.362919 20.409777
15.546718 51.328423 19.940704
15.4633 51.448193 25.143717
15.4484 51.386711 23.656086
15.45872 51.383099 23.179874
15.471828 51.382626 22.709391
15.494006 51.392109 22.248526
15.494367 51.378029 21.776829
15.485171 51.353706 21.302916
15.510195 51.366581 20.853981
15.500754 51.342216 20.387228
15.433975 51.418297 23.6667
15.413689 51.381458 23.169117
15.426704 51.380959 22.698868
15.43024 51.370274 22.225988
15.442858 51.369568 21.762779
15.433566 51.345188 21.289185
15.452213 51.351238 20.836727
15.448936 51.333603 20.37414
15.350639 51.392353 24.113569
15.35199 51.378948 23.627592
15.392726 51.408562 23.173145
15.362697 51.361244 22.673672
15.378428 51.363861 22.209438
15.403338 51.37656 21.754557
15.394002 51.352135 21.281122
15.400081 51.344574 20.821136
15.307149 51.379856 23.612728
15.323287 51.382713 23.141546
15.305383 51.348579 22.650955
15.339485 51.371243 22.199371
15.345727 51.363655 21.732635
15.367381 51.372952 21.279222
15.360955 51.351795 20.81155
15.357532 51.334015 20.349445
15.256069 51.40406 24.57136
15.261957 51.380573 23.598568
15.265784 51.369987 23.119139
15.278488 51.369213 22.649761
15.287907 51.364964 22.181839
15.294055 51.357262 21.715424
15.272079 51.319019 21.234863
15.296618 51.331581 20.787294
15.318133 51.340939 20.340725
15.209811 51.388748 24.064758
15.204815 51.368374 23.575247
15.245183 51.397732 23.121664
15.221082 51.356728 22.62723
15.248861 51.37254 22.171957
15.26115 51.371529 21.709703
15.251599 51.34679 21.237072
15.244958 51.325348 20.770206
15.260106 51.327778 20.320198
15.160194 51.398705 24.538506
15.170767 51.395233 24.056166
15.177899 51.388119 23.575455
15.193826 51.390759 23.104902
15.206455 51.3899 22.635763
15.185009 51.351883 22.147663
15.221892 51.377777 21.701904
15.212316 51.352982 21.229433
15.19318 51.317863 20.755041
15.214496 51.327045 20.309118
15.131256 51.447876 25.530539
15.106953 51.405823 25.012825
15.132972 51.419182 24.538023
15.119353 51.38916 24.038086
15.126386 51.381935 23.557688
15.142206 51.384472 23.087454
15.148605 51.376801 22.614466
15.157832 51.372341 22.147182
15.163801 51.364426 21.681404
15.14171 51.325912 21.201488
15.063128 51.422886 25.496307
15.074579 51.420116 25.006468
15.076488 51.40699 24.513832
15.080878 51.396729 24.027487
15.099998 51.402775 23.555887
15.103614 51.391914 23.077168
15.116084 51.390896 22.608501
15.119132 51.379654 22.137213
15.118875 51.364902 21.667593
15.120966 51.338608 20.741232
15.032819 51.4893 27.016191
15.023827 51.432152 25.484095
15.035235 51.429283 24.994411
15.043121 51.422668 24.506411
15.035423 51.399036 24.011347
15.054469 51.404964 23.539982
15.064118 51.400677 23.065742
15.05207 51.372665 22.580587
15.067273 51.374722 22.117943
15.073107 51.366596 21.652645
15.063316 51.341438 21.181059
14.99344 51.499474 27.002979
14.986339 51.475647 26.483953
14.975363 51.447712 25.967216
14.990294 51.448532 25.475981
14.995708 51.438984 24.981823
14.991537 51.419014 24.485025
15.013932 51.428463 24.012266
15.014824 51.414345 23.527864
15.024433 51.409954 23.053783
15.018476 51.38855 22.57295
15.033664 51.390537 22.110386
15.027156 51.368778 21.637165
14.9526 51.554562 28.561468
14.934016 51.517467 28.016037
14.946215 51.514652 27.502945
14.948758 51.501308 26.986856
14.93569 51.470856 26.463278
14.9542 51.475494 25.970388
14.945368 51.45005 25.460552
14.956672 51.447006 24.97118
14.976465 51.453472 24.492443
14.980812 51.443012 24.006332
14.999854 51.448898 23.534967
14.997345 51.431133 23.052248
14.979177 51.396244 22.563095
14.900545 51.53022 28.012506
14.91272 51.527405 27.499491
14.897684 51.494591 26.968893
14.919826 51.503139 26.474329
14.920655 51.488228 25.967161
14.935584 51.489075 25.475927
14.941009 51.479542 24.981768
14.95486 51.479465 24.4984
14.935142 51.442417 23.994619
14.884782 51.645115 30.729008
14.86034 51.600708 30.152716
14.859821 51.583134 29.605659
14.855104 51.561089 29.060978
14.86349 51.553791 28.533998
14.867917 51.542271 28.009069
14.86841 51.52655 27.486252
14.876691 51.519642 26.97533
14.869446 51.495667 26.45676
14.905607 51.519981 25.978153
14.902767 51.501194 25.472868
14.902191 51.485065 24.974232
14.903985 51.47171 24.482065
14.902233 51.454567 23.991791
14.833772 51.651897 31.266743
14.830526 51.630955 30.70422
14.851192 51.636868 30.170797
14.839379 51.606777 29.613041
14.857576 51.610298 29.088938
14.848843 51.584015 28.546316
14.859103 51.579048 28.026249
14.853862 51.557011 27.498264
14.862187 51.55022 26.987188
14.860872 51.532883 26.473251
14.873468 51.531143 25.975576
14.817288 51.735874 32.99823
14.805421 51.704666 32.405743
14.811039 51.693241 31.838287
14.795465 51.658348 31.256847
14.825875 51.67503 30.726791
14.812731 51.643265 30.161194
14.834974 51.651188 29.635019
14.824693 51.623013 29.084795
14.844676 51.628757 28.567694
14.837708 51.604641 28.032284
14.826687 51.576195 27.499283
14.81748 51.549946 26.973618
14.825081 51.812763 33.621361
14.774288 51.737701 32.98027
14.78989 51.737278 32.416027
14.784457 51.713512 31.837362
14.75213 51.659885 31.23954
14.754321 51.645096 30.68277
14.797402 51.676201 30.170893
14.820882 51.668865 29.104527
14.812238 51.642712 28.561676
14.811007 51.625011 28.031355
14.789348 51.552933 26.458981
14.773223 51.879738 36.023071
14.71455 51.757221 34.125027
14.766254 51.796928 33.585236
14.763732 51.758057 32.414394
14.786026 51.765358 31.863394
14.698092 51.649368 31.210611
14.733784 51.672104 30.686527
14.7317 51.652725 30.132071
14.760994 51.936787 36.666069
14.682621 51.772541 34.117054
14.748341 51.774292 31.850172
14.721726 51.726944 31.257597
14.67917 51.661964 30.657444
14.693841 51.661366 30.119295
14.651589 51.787079 34.109272
14.629124 51.672474 31.190123
14.653434 51.682556 30.655483
14.587781 51.781338 34.665047
14.66503 51.849937 34.14719
14.587969 51.673885 31.17094
14.590408 51.83284 34.690594
14.535783 51.663658 31.139757
14.50572 51.787323 34.623512
14.487784 51.659473 31.115627
14.431548 51.75528 34.567276
14.439592 51.656555 31.090565
14.474428 51.678669 30.56786
14.384578 51.771652 35.146122
14.395756 51.765514 34.551353
14.375561 51.634674 31.048235
14.354931 51.767414 34.531532
14.350755 51.654633 31.046078
14.329987 51.786343 34.530857
14.29255 51.635845 31.012669
14.294802 51.686436 31.039309
14.20918 51.745705 34.453407
14.196977 51.623714 30.968092
14.184596 51.771721 34.457699
14.178183 51.656216 30.977345
14.128219 51.800991 35.0448
14.096368 51.745598 34.403992
14.127519 51.672432 30.965353
14.082644 51.792778 35.022503
14.09854 51.792038 34.434959
14.042395 51.619293 30.906862
14.016246 51.758373 34.978306
13.999968 51.720871 34.355995
14.034826 51.652695 30.926682
13.959871 51.734489 34.947914
13.980585 51.739491 34.367241
14.004747 51.659412 30.926573
13.904787 51.710724 34.916298
13.988954 51.788738 34.406727
13.970289 51.659927 30.91979
13.866767 51.70652 34.900204
13.892433 51.717434 34.326057
13.903893 51.623783 30.877897
13.870067 51.751713 34.931484
13.895903 51.762859 34.356987
13.875413 51.632561 30.873911
13.794535 51.707054 34.872318
13.846483 51.748371 34.327976
13.830534 51.623367 30.85251
13.756885 51.704639 34.854134
13.771653 51.703125 34.268768
13.719059 51.701527 34.8368
13.791892 51.767136 34.316437
13.759131 51.622807 30.825453
13.754192 51.764191 34.298923
13.704321 51.600338 30.792849
13.639861 51.689941 34.79422
13.728181 51.773739 34.292023
13.618883 51.707336 34.791668
13.659632 51.736088 34.23645
13.571446 51.545094 31.25411
13.559705 51.683632 34.747253
13.64239 51.761078 34.239647
13.59074 51.594765 30.737471
13.532559 51.695103 34.73954
13.538117 51.593651 31.260746
13.50137 51.699131 34.726131
13.562772 51.75201 34.195168
13.511867 51.603539 31.253723
13.486015 51.719044 34.732861
13.474865 51.598656 31.237892
13.453052 51.69886 34.121544
13.405296 51.55476 31.190264
13.384557 51.695862 35.272224
13.381912 51.674175 34.662624
13.384417 51.570511 31.189375
13.392426 51.727131 34.69696
13.329526 51.695 34.64793
13.331585 51.590767 31.175543
13.284945 51.703987 35.225189
13.234074 51.722824 35.211418
13.26752 51.743557 34.644161
13.171988 51.566975 31.093748
12.947376 51.281857 24.724102
12.859791 51.295681 27.150034
12.908826 51.24596 23.745859
12.851355 51.275009 25.652233
12.834653 51.354816 27.669579
12.810359 51.279003 26.127817
12.780033 51.281155 26.116112
12.701608 51.282688 25.595131
12.697445 51.262531 25.101179
12.619447 51.258923 24.592405
12.537435 51.320793 28.553001
12.494208 51.274887 26.489511
12.437377 51.304432 28.498917
12.287707 51.282585 27.411036
12.326632 51.282185 25.937969
12.239978 51.301971 28.937292
12.242976 51.31411 27.411852
11.31845 51.105526 25.011978
10.974806 51.326553 32.091133
10.940769 51.348972 32.642689
10.959857 51.301975 30.442316
10.904395 51.447964 35.563965
10.917374 51.444832 34.974079
10.920902 51.430038 34.380581
10.919872 51.40976 33.789761
10.899302 51.365124 33.183887
10.929436 51.384617 32.645775
10.94042 51.380215 32.092064
10.921771 51.338757 31.512014
10.934658 51.3372 30.974577
10.948777 51.337399 30.444843
10.953847 51.326427 29.91165
10.881495 51.525959 37.436207
10.892614 51.499546 36.192734
10.876301 51.459114 35.55658
10.899018 51.468323 34.979053
10.89764 51.447338 34.37941
10.896604 51.427055 33.788589
10.891041 51.401325 33.20052
10.936344 51.439995 32.67979
10.92218 51.4039 32.096687
10.92397 51.388157 31.539454
10.911343 51.354492 30.973406
10.867059 51.548737 37.454323
10.855989 51.514404 36.805679
10.85904 51.49828 36.185452
10.852388 51.470161 35.561855
10.865309 51.467102 34.972038
10.878649 51.464828 34.390759
10.872692 51.438419 33.793858
10.88712 51.438023 33.229527
10.872178 51.40078 32.638142
10.898263 51.415565 32.101952
10.887444 51.366341 30.978662
10.838354 51.598789 38.738068
10.828159 51.564892 38.070347
10.879036 51.608891 37.495819
10.849077 51.550529 36.821316
10.876303 51.565056 36.232288
10.860211 51.524921 35.595722
10.873313 51.522083 35.005497
10.872062 51.501324 34.405575
10.84037 51.657669 38.772636
10.825725 51.617931 38.098045
10.729827 51.594139 39.33094
10.822637 51.691101 38.798241
10.703841 51.608414 39.3339
10.758705 51.636013 38.093998
10.746941 51.709869 39.407543
10.182442 51.551758 39.641159
10.204471 51.652298 39.758553
10.127328 51.598423 39.675667
10.060317 51.569546 39.593864
10.006178 51.590672 39.593269
26.434916 51.554813 2.3792701
26.435102 51.568958 2.1750562
26.439367 51.596706 3.5970869
26.440243 51.611099 3.3944249
26.42296 51.613541 3.192899
26.420849 51.625999 2.989943
26.408922 51.631996 2.7876394
26.403812 51.642517 2.5843654
26.388901 51.646572 2.3819482
26.347656 51.633179 2.1829095
26.401587 51.649445 4.2147717
26.398594 51.661236 4.0126576
26.377447 51.661037 3.8112795
26.379827 51.676399 3.608614
26.330784 51.657715 3.4092858
26.305271 51.654591 3.2087007
26.106424 51.59132 2.2172179
26.288969 51.696632 4.2280927
26.277658 51.702934 4.0265784
26.126945 51.64402 3.4302056
26.076672 51.62426 3.2328839
26.058172 51.625675 3.0332956
25.996813 51.598431 2.8381281
25.967188 51.592373 2.6402023
25.944403 51.590885 2.4415841
25.928427 51.593967 2.2420285
26.456108 51.747444 6.8841109
26.439009 51.75021 6.6783171
26.428734 51.757442 6.4736142
26.432688 51.781704 7.9310069
26.439768 51.800549 7.7260299
25.998411 51.700901 6.6788611
25.988129 51.707855 6.4769325
26.00127 51.730442 6.2771182
25.972092 51.735249 7.7103229
25.931858 51.736221 7.2998996
22.746374 51.21291 2.9953213
22.742222 51.222683 2.8144152
22.744778 51.237408 2.6322227
22.746008 51.251194 2.4496837
22.737919 51.258163 2.2680848
22.745829 51.262096 3.8953264
22.740055 51.270462 3.7152684
22.741041 51.28381 3.5344605
22.740734 51.29623 3.3534102
22.739128 51.30772 3.1721311
22.744238 51.324184 2.9897096
22.447346 51.168301 2.1239631
22.724613 51.337456 4.2536941
22.72946 51.353397 4.0728121
22.724974 51.362488 3.8921418
22.331455 51.194851 2.1301639
22.811384 51.370888 6.4277787
22.23164 51.232334 2.1337628
22.813326 51.413376 7.5380869
22.801117 51.416637 7.3527808
22.811665 51.436516 7.1710091
22.804873 51.443699 6.9871073
22.804813 51.455791 6.8042893
22.795431 51.461033 6.6206956
22.792793 51.471207 6.4380403
22.800072 51.458725 8.4851789
22.794577 51.466972 8.29807
22.787748 51.474213 8.1112223
22.787571 51.486294 7.9260631
22.786081 51.497387 7.7410216
22.74329 51.478134 7.5499082
22.771166 51.510742 7.3701954
22.732449 51.513344 8.6908274
22.736347 51.528427 8.5049744
22.746878 51.548367 8.3207827
22.496586 51.412167 7.5397515
22.446899 51.43475 6.6268797
22.420301 51.426819 6.4439569
22.543383 51.488796 8.6887007
22.602776 51.544716 8.5157385
22.503363 51.507195 7.9417157
22.430336 51.46497 7.7458429
22.355896 51.421574 7.5516572
22.351818 51.430325 7.3696556
22.338478 51.432167 7.186738
22.331835 51.438965 7.0051618
22.315929 51.438835 6.8228717
22.306736 51.44368 6.6417775
22.745617 51.581409 11.482922
22.746061 51.594505 11.284847
22.343874 51.45771 8.6860571
22.308191 51.443089 8.4940834
22.310726 51.456802 8.3110571
22.311968 51.469528 8.1281195
22.296041 51.469448 7.9424248
22.294685 51.480186 7.7598815
22.228436 51.442482 7.5674062
22.232241 51.49052 8.6984711
22.220377 51.493469 8.5118132
22.222994 51.507198 8.3287888
22.014248 51.397457 7.564877
22.038425 51.458267 8.6836081
22.065866 51.490593 8.506628
21.859814 51.393547 7.5635271
21.782923 51.369442 8.8333244
21.858501 51.438019 8.6690273
21.663868 51.359791 7.552599
21.723066 51.416065 7.3838205
21.633583 51.373581 8.8246031
21.693295 51.430267 8.6574221
21.673365 51.426575 8.472147
21.636395 51.409885 8.2842464
21.621685 51.410042 8.1018696
21.566307 51.379211 7.9127569
21.588404 51.407291 7.7384858
21.538292 51.380333 7.5524502
22.163086 51.610676 13.493763
19.07583 50.837055 2.2022674
19.085075 50.88076 3.1835194
19.074787 50.882748 3.0230281
19.078737 50.896473 2.8601871
19.073893 50.902985 2.6982403
19.075571 50.914902 2.5347867
19.076103 50.925903 2.3710027
19.075487 50.935993 2.2069018
18.974827 50.863365 2.0632372
19.073814 50.91732 4.0013967
19.061277 50.917522 3.841496
19.070763 50.935856 3.6795132
19.079121 50.953297 3.5171103
19.070984 50.957165 3.3560951
19.135344 51.144356 7.1397138
19.132925 51.155788 8.3234558
19.125988 51.16143 8.155158
19.133177 51.178619 7.990242
18.158314 50.768383 2.0612803
19.103058 51.187298 8.8450708
18.120577 50.831127 2.0603783
19.057957 51.169342 9.8793535
19.001066 51.193275 8.8409319
19.116905 51.215363 11.342896
19.115789 51.22681 11.162849
18.99424 51.176258 10.408102
18.944824 51.171535 9.8713255
18.925808 51.167728 9.6936722
19.109297 51.256027 12.115001
19.099098 51.260323 11.925945
19.09481 51.269348 11.740838
18.757118 51.182487 8.8317089
19.094458 51.28484 12.912491
19.082928 51.288387 12.716978
19.084352 51.302395 12.529488
19.062687 51.297489 12.33168
19.049561 51.309296 13.333386
18.934763 51.280491 12.326454
18.799078 51.255989 12.318798
18.696104 51.24633 11.183743
18.401917 51.155678 8.8543072
18.850426 51.318657 13.356014
18.777857 51.298733 12.745816
18.712982 51.284046 12.155454
18.673908 51.264519 11.953632
18.662344 51.26759 11.766499
18.649405 51.26944 11.580006
18.613203 51.251934 11.384608
18.604811 51.257362 11.202804
18.289358 51.148712 8.8692656
18.72378 51.307289 13.36121
18.583982 51.2827 11.979237
18.572359 51.268768 13.544551
18.501909 51.288166 12.375432
18.500647 51.299759 12.190838
18.430626 51.251846 13.536195
18.337751 51.263332 12.176256
18.301586 51.244015 13.537066
18.216555 51.260498 12.18395
18.17581 51.236122 13.552984
18.056326 51.222466 12.184707
18.152317 51.317303 13.442188
17.921465 51.196796 12.202289
17.822733 51.183624 11.092814
17.977415 51.261543 13.439039
17.976946 51.273655 13.249401
17.868824 51.231365 12.448045
17.825527 51.206711 12.244094
17.833569 51.234707 13.460525
17.812359 51.22913 13.259354
17.810629 51.239929 13.071024
15.401902 50.491066 2.4087059
15.39461 50.491211 2.2618747
15.39358 50.497128 2.1130824
15.385432 50.517151 3.3239799
15.377064 50.515774 3.1789789
15.382361 50.526947 3.0313547
15.386673 50.537235 2.8833768
15.382709 50.539948 2.7365313
15.385046 50.548466 2.5879674
15.371866 50.542732 2.442379
15.386725 50.562813 2.2898972
15.371593 50.555317 2.1440523
15.633419 50.688793 6.7142444
15.632332 50.693745 6.5665612
15.630289 50.697819 6.4189482
15.627291 50.701023 6.2714167
15.37553 50.553436 4.2296224
15.380569 50.5639 4.0839434
15.384654 50.573502 3.9380012
15.380439 50.575504 3.7926552
15.375279 50.576649 3.6472425
15.38383 50.590389 3.499732
15.384081 50.596527 3.3529387
15.376058 50.595074 3.2071342
15.374385 50.599468 3.0600269
15.371743 50.602985 2.9127369
