# .PCD v0.7 - Point Cloud Data file format
VERSION 0.7
FIELDS x y z
SIZE 4 4 4
TYPE F F F
COUNT 1 1 1
WIDTH 1604
HEIGHT 1
VIEWPOINT 0 0 0 1 0 0 0
POINTS 1604
DATA ascii
22.751665 50.691822 0.85116041
26.483812 51.760117 24.832001
26.46273 51.770378 24.471781
26.46423 51.794693 24.138493
26.442728 51.804001 23.787741
26.298418 51.734299 23.327711
26.289272 51.750721 22.999914
26.256828 51.751877 22.655416
26.207491 51.741817 22.300844
25.672682 51.576752 19.2609
24.765997 51.332008 13.608103
24.728451 51.322002 13.37232
23.429472 50.933578 5.8231964
23.39336 50.94611 5.2798634
23.283369 50.881268 5.0978503
23.262049 50.878788 4.9183393
23.247627 50.881153 4.7391086
23.231936 50.882607 4.5600624
23.21497 50.883152 4.3812141
23.196737 50.88279 4.2025771
23.160936 50.869965 4.0249906
23.156479 50.879341 3.8459923
23.118181 50.864693 3.6692443
22.647032 50.690948 1.4029363
22.615866 50.681133 1.2290887
22.583469 50.670425 1.0555183
22.565739 50.670319 0.87830275
26.435205 51.79641 25.571793
26.459835 51.83659 25.247215
26.442657 51.849762 24.884855
26.224789 51.780167 23.670881
26.126156 51.739281 23.255367
26.103111 51.74667 22.916273
26.049946 51.734261 22.554731
23.205244 50.876427 6.0023656
23.247467 50.918781 5.8254204
23.219503 50.936832 5.2854204
23.101542 50.865883 5.1042495
23.088415 50.869095 4.925807
23.065866 50.865604 4.7475986
23.058365 50.872784 4.5694475
23.041447 50.873264 4.3915577
23.006987 50.861244 4.2145286
22.995699 50.865707 4.0368366
22.966888 50.857666 3.8602066
22.953087 50.860321 3.6828303
22.499794 50.697319 1.4243315
22.452848 50.675922 1.2547617
22.428589 50.670971 1.0801649
22.403074 50.665115 0.90568626
26.39819 51.861137 25.998886
25.890318 51.700016 23.135067
25.919611 51.741196 22.846275
25.84593 51.715244 22.467596
23.048037 50.877029 6.0118732
23.082043 50.913712 5.8352709
23.046043 50.925884 5.2976809
22.952765 50.872036 5.1177621
22.92341 50.863621 4.9399605
22.909088 50.865898 4.762557
22.893511 50.867264 4.5853376
22.868547 50.861908 4.4085488
22.850471 50.861462 4.2318239
22.831148 50.860107 4.0553226
22.810579 50.857849 3.8790586
22.345884 50.697235 1.4539305
22.275326 50.658432 1.290493
22.283052 50.676689 1.1094038
22.226061 50.647736 0.94345641
25.730341 51.708015 23.082117
25.712687 51.718674 22.751385
22.860563 50.8545 6.0187478
22.9189 50.90863 5.8446927
22.765518 50.84914 5.1302738
22.760635 50.85812 4.9536877
22.738249 50.854542 4.7772098
22.714622 50.850048 4.601089
22.186018 50.691284 1.4848243
22.115744 50.652397 1.3222181
22.084021 50.641727 1.1513665
22.074802 50.647587 0.9749186
25.98546 51.797302 26.129131
25.475191 51.632893 23.249052
25.531994 51.692398 22.986628
25.50701 51.698109 22.650963
25.452097 51.683826 22.292845
22.696239 50.848331 6.0223546
22.721968 50.87928 5.8473096
22.601292 50.842525 5.138227
22.580196 50.839771 4.9624486
22.557865 50.836105 4.7870145
22.550518 50.843231 4.6116519
22.055964 50.706913 1.5041248
21.946285 50.63871 1.3509653
21.930584 50.639694 1.1773051
21.921511 50.645603 1.0016266
25.822006 51.814995 26.054451
25.328396 51.658436 23.19865
25.345274 51.691738 22.899805
22.539259 50.848862 6.0230403
22.564922 50.879776 5.848774
22.420155 50.82476 5.142468
22.407213 50.827724 4.9677649
22.393042 50.829784 4.793232
22.377642 50.830944 4.6188812
21.893602 50.698643 1.5267942
21.784271 50.630173 1.3744979
21.768747 50.631134 1.2016925
21.75197 50.631191 1.0288267
22.37607 50.844139 6.0213704
22.40979 50.880795 5.8484259
22.24925 50.812935 5.1450124
22.236382 50.815693 4.9712615
22.222292 50.817551 4.7976804
22.215059 50.824402 4.6241379
21.632977 50.625854 1.3943667
21.617647 50.626701 1.2223263
21.585354 50.614918 1.0541472
22.186056 50.822159 6.0153055
22.227823 50.864502 5.8439293
22.083967 50.806984 5.1449261
22.063129 50.803562 4.9720106
22.057213 50.811062 4.7993193
22.033958 50.805832 4.6269317
21.471863 50.614178 1.4132774
21.464628 50.620735 1.2402066
21.424747 50.602852 1.0747597
23.243593 51.173103 14.113735
23.218857 51.170097 13.887028
23.098146 51.155197 12.784244
21.99649 50.798668 6.0094008
22.046276 50.84676 5.8395886
21.910992 50.793785 5.144876
21.898321 50.796009 4.9729381
21.884449 50.797333 4.8011703
21.877419 50.803696 4.6294365
21.318991 50.607334 1.4305546
21.304117 50.60783 1.2601262
21.280184 50.601528 1.0916017
23.120501 51.176884 14.529308
23.084389 51.165798 14.293213
23.06876 51.168999 14.07048
21.826712 50.784321 6.0080013
21.892509 50.844204 5.8400488
21.765656 50.796188 5.148571
21.745018 50.792282 4.9773016
21.731224 50.793427 4.8063126
21.708204 50.787716 4.6356592
21.700056 50.793022 4.4648995
21.192575 50.617767 1.445835
21.130854 50.582603 1.2872123
21.12282 50.588039 1.1157732
21.6786 50.786869 6.0128016
21.736273 50.84087 5.8450918
21.617832 50.798111 5.1568308
21.58124 50.782127 4.9862041
21.567532 50.78315 4.8160815
21.552639 50.783276 4.646143
21.055864 50.623219 1.4674093
20.994398 50.587891 1.3093746
20.978722 50.587364 1.1404971
21.539665 50.806446 5.8528709
21.445812 50.780949 5.1697717
21.417393 50.770794 5.000113
21.395807 50.76572 4.830914
21.381054 50.765747 4.6619253
21.205048 50.721935 3.3198295
21.195721 50.72599 3.1513779
20.919851 50.628113 1.4938722
20.827457 50.568794 1.3439214
20.819849 50.57423 1.1740119
21.469114 50.841232 6.2146015
21.369661 50.788956 5.8675952
21.276453 50.76297 5.1882524
21.256214 50.758705 5.0195632
21.242796 50.759552 4.8511648
21.228209 50.759506 4.6829481
21.204473 50.752552 4.5151539
21.163628 50.732662 4.3483706
21.16151 50.741989 4.1803226
21.150249 50.744411 4.0126476
21.121899 50.733898 3.8461959
21.116268 50.740578 3.6781886
20.794952 50.638828 1.523976
20.687336 50.567345 1.3782089
20.656654 50.554882 1.2148502
20.632601 50.547516 1.0497333
21.205193 50.777042 5.8839912
21.152557 50.780769 5.2086926
21.108553 50.758347 5.040298
21.087326 50.753101 4.8726311
21.056973 50.740925 4.7054524
21.06531 50.758045 4.537715
21.040615 50.750126 4.3708906
21.030689 50.753399 4.2036705
20.544897 50.565895 1.4136938
20.522278 50.559406 1.2490418
20.483011 50.540058 1.0885737
22.811781 51.338428 17.948784
22.805202 51.349487 17.697968
21.033092 50.75848 5.8957157
20.988865 50.767929 5.2243505
20.937082 50.739311 5.0567532
20.923964 50.74004 4.8899903
20.917648 50.745934 4.7232804
20.90222 50.744884 4.5568037
20.893591 50.749012 4.3902307
20.86792 50.740131 4.2244802
20.409456 50.570019 1.4433228
20.356077 50.539463 1.2870381
20.340338 50.538124 1.1213912
22.793846 51.356827 19.282799
22.805519 51.381779 19.032421
22.787771 51.385593 18.760792
20.864407 50.739346 5.900229
20.836199 50.76059 5.2329569
20.768646 50.719662 5.0660372
20.763529 50.726391 4.9001913
20.73344 50.714005 4.7347302
20.741907 50.731125 4.5687428
20.733341 50.735207 4.4030385
20.715702 50.732327 4.2377663
20.27528 50.573517 1.4660321
20.222118 50.542877 1.3103354
20.191093 50.529491 1.1493419
20.151262 50.50922 0.99075472
22.804874 51.39587 20.724058
22.795824 51.407078 20.439201
22.797373 51.42561 20.167234
20.709652 50.732029 5.9026175
20.67359 50.746788 5.2383361
20.622053 50.717796 5.0723805
20.609041 50.718357 4.9072685
20.594891 50.718029 4.7423363
20.595448 50.729015 4.5771699
20.553549 50.717846 4.2483573
20.507158 50.70314 3.9208131
20.123516 50.563828 1.489427
20.055164 50.520969 1.3383852
20.047487 50.525692 1.1722403
20.015554 50.511387 1.0122174
22.787598 51.418587 22.241411
22.779747 51.431656 21.937792
22.775421 51.446976 21.641653
22.768316 51.460079 21.346706
20.584364 50.737061 6.0716987
20.562435 50.730667 5.9048862
20.534546 50.750923 5.243505
20.47525 50.715576 5.0781074
20.454412 50.709873 4.9137263
20.448271 50.715511 4.7494464
20.433088 50.714153 4.5853987
20.408878 50.705788 4.4218564
20.399347 50.70879 4.2579303
20.380793 50.704784 4.0945344
20.003328 50.576935 1.5047162
19.927523 50.527786 1.3560426
19.904625 50.520313 1.194464
19.872931 50.505905 1.0351183
19.832491 50.484589 0.87827379
22.760689 51.469471 23.222099
22.762024 51.489647 22.914246
22.729111 51.485138 22.575611
22.724392 51.500446 22.270462
20.439943 50.735294 6.0706134
20.418077 50.728676 5.9044938
20.374573 50.735989 5.2456098
20.331242 50.712601 5.0811801
20.318392 50.712837 4.9174519
20.296526 50.706051 4.7540321
20.289326 50.710659 4.5905495
20.273113 50.708244 4.4273992
19.870138 50.576645 1.5211124
19.779238 50.515072 1.3769372
19.756561 50.507496 1.2161243
19.740419 50.505119 1.0533121
19.69257 50.477581 0.89926541
22.763643 51.533524 24.272699
22.75029 51.544014 23.933828
22.672361 51.508068 23.530655
22.658092 51.517212 23.202112
22.640625 51.523762 22.875086
20.286873 50.72596 6.0654712
20.249239 50.706886 5.8991814
20.178265 50.702183 5.0807533
20.157558 50.69611 4.9178538
20.143621 50.695309 4.755178
20.128571 50.693626 4.5926952
20.104538 50.684902 4.4307232
20.103004 50.693787 4.2679648
20.076763 50.683304 4.1065278
19.628685 50.501614 1.3945432
19.613832 50.500061 1.2324686
19.597834 50.497616 1.0703396
19.573065 50.488194 0.91037393
19.524366 50.459667 0.75741887
22.548662 51.531094 23.485111
22.515553 51.526573 23.137476
21.983337 51.349796 19.238153
20.942896 50.992939 11.806535
20.925356 51.002796 11.424681
20.134636 50.714493 6.0615101
20.104891 50.701382 5.8964901
20.041727 50.70229 5.0816007
20.021032 50.696106 4.9193163
20.007099 50.69521 4.7572532
19.992058 50.693436 4.5953832
19.975914 50.690781 4.4337187
19.485981 50.493679 1.4114237
19.455956 50.47987 1.2541094
19.447737 50.48354 1.0907137
19.430735 50.480198 0.92931265
19.405001 50.469868 0.77017444
22.3605 51.498318 23.372116
22.345037 51.506382 23.045219
20.889971 51.008141 12.585954
20.876556 51.009903 12.387258
20.876554 51.021767 12.196213
19.985794 50.700832 6.0621228
19.963915 50.693768 5.8983636
19.884983 50.682007 5.0868855
19.872166 50.681938 4.925427
19.866096 50.687191 4.7640152
19.851072 50.685368 4.6028438
19.82711 50.676472 4.4421864
19.369671 50.503441 1.4269098
19.339743 50.489609 1.2700245
19.316359 50.481049 1.1113015
19.299469 50.477737 0.95049757
19.258717 50.455196 0.79654104
22.168297 51.46159 23.26333
22.145004 51.482803 22.626354
21.018805 51.109539 14.303154
20.95125 51.083961 13.855507
20.925659 51.077156 13.639674
20.890999 51.063351 13.420998
20.854561 51.048054 13.203605
20.80899 51.025681 12.983737
20.776415 51.013046 12.772759
20.756989 51.0103 12.57021
20.74342 51.011917 12.372084
20.713406 51.000893 12.167791
19.8507 50.698601 6.0676661
19.82099 50.685299 5.904037
19.734301 50.66713 5.0959978
19.72151 50.667042 4.9353237
19.699791 50.659863 4.7749629
19.69265 50.66423 4.6145296
19.684412 50.667725 4.4541268
19.221395 50.488552 1.4538996
19.199263 50.480907 1.2957433
19.16844 50.466244 1.1398212
19.151718 50.463001 0.97978193
19.141432 50.465 0.81741917
22.042839 51.472305 23.227137
20.899794 51.082878 14.915162
20.882866 51.083202 14.694967
20.849771 51.07114 14.467077
20.821987 51.062958 14.244771
20.806841 51.064232 14.032016
20.760944 51.042011 13.803751
20.713146 51.018181 13.577042
20.714638 51.031742 13.379514
20.670599 51.010498 13.159296
20.676268 51.027054 12.967022
20.650955 51.019867 12.760307
20.62401 51.011314 12.554623
20.58802 50.99572 12.346451
20.580172 51.001579 12.153341
20.555922 50.99477 11.954084
19.700258 50.68277 6.0722241
19.670582 50.669373 5.9093742
19.607513 50.669632 5.1053791
19.586927 50.6633 4.945271
19.57308 50.662312 4.785387
19.558147 50.66045 4.6256957
19.534317 50.651478 4.4665141
19.096556 50.490883 1.4751774
19.051752 50.464748 1.3236339
19.043875 50.468613 1.1621162
19.012146 50.453102 1.0069954
19.009558 50.461327 0.84302264
18.975657 50.444073 0.68818682
21.904732 51.471275 23.16777
21.075911 51.161758 17.55035
21.039728 51.149376 17.287348
20.745012 51.039146 15.294373
20.73126 51.042061 15.073415
20.701466 51.032654 14.844406
20.705456 51.048786 14.638761
20.66481 51.030842 14.4076
20.643806 51.027702 14.190705
20.613819 51.017582 13.970665
20.603769 51.022549 13.76415
20.577539 51.015038 13.550356
20.56418 51.017254 13.345552
20.541889 51.01252 13.137696
20.525293 51.012039 12.934611
20.514477 51.015892 12.736077
20.479954 51.001434 12.527392
20.466017 51.002689 12.33054
20.435699 50.991238 12.127521
19.567913 50.679092 6.0725646
19.530422 50.659386 5.9098163
19.459465 50.653149 5.1091166
19.470135 50.671738 4.9495888
19.448479 50.664474 4.7902422
19.425747 50.656326 4.6312628
19.401949 50.647305 4.472662
18.980722 50.498795 1.4883776
18.928452 50.466419 1.3392661
18.920645 50.470333 1.1782308
18.896585 50.460991 1.0213869
18.871447 50.450779 0.86467803
18.860256 50.452003 0.70336825
21.69121 51.399948 23.317846
21.73691 51.452972 23.059126
20.670301 51.059837 15.712661
20.632074 51.044388 15.471128
20.619942 51.04863 15.249703
20.577696 51.029781 15.010905
20.554712 51.025455 14.787155
20.529875 51.019569 14.564528
20.517511 51.023083 14.351728
20.489065 51.014164 14.131269
20.466021 51.009243 13.916186
20.441233 51.002857 13.702168
20.429239 51.006172 13.49728
20.408344 51.002537 13.289241
20.378489 50.991886 13.078311
20.368944 50.996758 12.87988
20.357866 51.000359 12.682139
20.337885 50.99699 12.481492
19.422415 50.668495 6.0506206
19.392744 50.654896 5.8890347
19.329535 50.654613 5.0913568
19.308975 50.648159 4.9325132
19.295141 50.647087 4.7738934
19.280233 50.645142 4.6154661
18.867142 50.511967 1.4783596
18.784704 50.454678 1.3377179
18.769449 50.452442 1.1794702
18.745548 50.443127 1.0233787
18.74313 50.451488 0.86055076
18.724527 50.446575 0.70210999
21.556997 51.40575 23.239332
21.596182 51.454124 22.9746
20.508278 51.041149 15.635697
20.457294 51.029247 15.17452
20.428896 51.020832 14.945764
20.412758 51.021664 14.727254
20.394831 51.020992 14.509715
20.375128 51.018822 14.293171
20.346493 51.009655 14.073385
20.33045 51.01004 13.863163
20.291056 50.992306 13.641541
20.271584 50.989796 13.433394
20.243181 50.980267 13.222259
20.242277 50.991875 13.027705
20.21792 50.985249 12.822321
20.199289 50.982944 12.621654
20.193829 50.990749 12.429103
20.164742 50.980133 12.226507
19.283693 50.662914 6.0248671
19.246265 50.642971 5.8634567
19.190908 50.64872 5.0695376
19.178171 50.648495 4.9113064
19.164364 50.647392 4.7532554
18.648264 50.448353 1.331535
18.625597 50.439941 1.1760496
18.609385 50.436867 1.0184797
18.599575 50.439106 0.85858262
18.566162 50.421867 0.70561445
18.546658 50.416138 0.54805475
18.5186 50.403347 0.39303884
18.48151 50.393597 0.075429454
18.428038 50.359756 -0.070870452
21.429602 51.403408 23.200138
20.397573 51.03632 15.842752
20.381767 51.037998 15.615799
20.343096 51.021988 15.375679
20.316402 51.014996 15.146379
20.294834 51.011784 14.922887
20.27849 51.012451 14.704997
20.260365 51.011612 14.488079
20.226206 50.998272 14.263474
20.218821 51.005455 14.057259
20.188244 50.994602 13.839218
20.163101 50.987808 13.626509
20.150717 50.990772 13.422941
20.129469 50.986759 13.216223
20.099302 50.9757 13.006614
20.096693 50.985935 12.813303
20.07795 50.983532 12.613118
20.05765 50.979813 12.41381
19.168808 50.667267 6.0354629
19.123657 50.641006 5.8739924
19.060621 50.640541 5.0826364
19.024614 50.621441 4.9251342
19.018623 50.626648 4.7678251
19.011564 50.630989 4.6105337
18.512814 50.434723 1.361057
18.482784 50.420162 1.2083635
18.489281 50.435871 1.0449529
18.472097 50.431995 0.88785124
18.446341 50.421024 0.73309422
18.434431 50.421577 0.57358176
18.41395 50.415031 0.41643921
18.392366 50.407593 0.25930837
18.36968 50.399261 0.10220204
18.33852 50.383881 -0.0520752
20.261253 51.022449 15.823904
20.231373 51.013336 15.587931
20.21344 51.013248 15.362762
20.19363 51.01157 15.138646
20.171961 51.008308 14.915609
20.155508 51.008934 14.69818
20.13019 51.002567 14.477299
20.117292 51.005672 14.266267
20.095554 51.001804 14.051828
20.057737 50.985321 13.830054
20.046886 50.989639 13.62611
20.019983 50.981365 13.414876
19.991388 50.971638 13.204755
19.975655 50.971809 13.003514
19.965647 50.976341 12.806902
19.946808 50.973885 12.607275
19.926418 50.970108 12.408525
19.044914 50.66293 6.0516324
18.992098 50.630375 5.890162
18.929327 50.630192 5.1018362
18.901178 50.61742 4.9448862
18.902996 50.629028 4.7879815
18.880497 50.620823 4.6315427
18.399685 50.438854 1.390439
18.369814 50.424385 1.2381521
18.34642 50.415306 1.0839579
18.329451 50.411591 0.9276129
18.318851 50.413212 0.768875
18.307121 50.413929 0.60995162
18.286837 50.407528 0.45338899
18.272858 50.406429 0.29421854
18.25036 50.398235 0.13760343
18.226767 50.389145 -0.018976627
20.11039 51.008503 15.577691
20.092312 51.008385 15.35298
20.058374 50.99585 15.119991
20.050566 51.00338 14.906742
20.026926 50.998508 14.685266
20.001461 50.992073 14.464921
19.974186 50.984085 14.24573
19.95225 50.980103 14.031994
19.921427 50.969063 13.815107
19.90321 50.967712 13.607683
19.890554 50.970581 13.405229
19.876312 50.972103 13.20357
19.845974 50.960922 12.994973
19.828541 50.959721 12.79513
19.824167 50.968651 12.603577
19.743397 50.941742 12.004539
18.936832 50.67038 6.0675216
18.845358 50.606319 5.9038873
18.805996 50.625404 5.1196532
18.770174 50.606354 4.9632392
18.756538 50.605408 4.8071828
18.749588 50.609928 4.6511154
18.286245 50.442577 1.4184754
18.241508 50.415672 1.2708051
18.225765 50.412991 1.1150078
18.208935 50.409424 0.95916718
18.191021 50.404968 0.80329573
18.164587 50.393398 0.64984858
18.151928 50.393402 0.49151072
18.13814 50.39249 0.33301121
18.13059 50.396862 0.17166814
18.099819 50.381737 0.018359307
19.988297 50.9991 15.557342
19.956074 50.988102 15.323677
19.949812 50.997093 15.110047
19.927792 50.993706 14.888008
19.889854 50.977779 14.65805
19.871199 50.9767 14.442839
19.850794 50.974125 14.228628
19.828655 50.970055 14.015441
19.797647 50.958916 13.799103
19.807932 50.979954 13.608713
19.759172 50.954651 13.386298
19.737482 50.950409 13.181321
19.714176 50.944778 12.977322
19.711081 50.954918 12.785723
19.699236 50.958084 12.59094
19.671267 50.948452 12.3896
19.641729 50.937462 12.189322
18.816391 50.664845 6.0772891
18.717283 50.59436 5.9136434
18.67009 50.607388 5.1324115
18.649769 50.601032 4.9766378
18.628408 50.5938 4.8212161
18.629181 50.604744 4.6655645
18.174597 50.44532 1.44174
18.107508 50.399616 1.3007807
18.106834 50.409626 1.141295
18.082647 50.399921 0.98823291
18.057413 50.389347 0.83530807
18.053391 50.396648 0.67521554
18.033411 50.390549 0.51982445
18.012348 50.38356 0.36443874
17.990202 50.375679 0.20907098
17.974306 50.373112 0.050958306
19.894022 51.001968 15.769122
19.870514 50.997894 15.539476
19.831184 50.981339 15.301521
19.817722 50.984756 15.083763
19.802479 50.986641 14.866933
19.771404 50.976021 14.642026
19.745523 50.969296 14.422846
19.717846 50.961018 14.204823
19.702612 50.962345 13.996544
19.67144 50.951038 13.780753
19.674335 50.966351 13.586804
19.639803 50.952137 13.373102
19.617971 50.947781 13.168602
19.601768 50.947735 12.968964
19.584011 50.946354 12.770166
19.557432 50.937893 12.568508
19.551195 50.9454 12.378815
19.521545 50.934288 12.17902
18.686544 50.652843 6.0841255
18.579844 50.575848 5.9205618
18.563528 50.614296 5.1430826
18.527792 50.595226 4.9876981
18.498749 50.581627 4.8329053
18.499525 50.592613 4.6778674
18.076687 50.459122 1.4586525
17.987305 50.394463 1.3242241
17.971792 50.391998 1.1696175
17.955204 50.388657 1.0149643
17.937542 50.38443 0.86027718
17.92621 50.385582 0.70313168
17.913763 50.385826 0.54580826
17.892832 50.378918 0.39092544
17.863474 50.364887 0.23874845
17.855053 50.368649 0.078448452
19.759811 50.991055 15.742537
19.743017 50.992146 15.518322
19.717426 50.986206 15.290389
19.68993 50.978607 15.063667
19.660543 50.969364 14.838185
19.636299 50.963993 14.618486
19.624348 50.968121 14.408801
19.603642 50.96524 14.195602
19.574112 50.95528 13.979148
19.557077 50.955013 13.772309
19.538399 50.953327 13.566386
19.510912 50.944561 13.357355
19.496162 50.945732 13.157373
19.472631 50.939838 12.954329
19.454754 50.938305 12.75609
19.421703 50.937054 12.365864
18.45718 50.569759 5.9298086
18.448681 50.614601 5.1550183
18.405325 50.589111 5.0000763
18.384867 50.592873 4.691093
17.874893 50.394928 1.3468099
17.859503 50.392517 1.1926253
17.828182 50.376633 1.0429215
17.825512 50.385056 0.88412529
17.814304 50.386276 0.72740102
17.794613 50.380322 0.57301563
17.766493 50.367222 0.42123485
17.759338 50.37199 0.2615777
17.736404 50.363358 0.10715292
19.6285 50.977627 15.71832
19.604624 50.973129 15.489879
19.592676 50.977821 15.272131
19.571995 50.975513 15.050614
19.542507 50.966129 14.825583
19.532173 50.971657 14.615384
19.492012 50.953548 14.388235
19.471146 50.950489 14.175655
19.462742 50.957142 13.972678
19.431396 50.94553 13.757813
19.412594 50.943703 13.552439
19.39933 50.946144 13.352053
19.384504 50.947235 13.152468
19.360912 50.94125 12.949814
18.337702 50.562424 5.9412832
18.329325 50.607399 5.1691203
18.293762 50.588253 5.0146661
18.280256 50.587395 4.8606081
18.258034 50.579277 4.7069263
18.225897 50.573227 4.399971
17.750845 50.382095 1.3757471
17.735615 50.37978 1.2221535
17.72674 50.382893 1.0662504
17.701963 50.372498 0.91483021
17.690922 50.373829 0.75869578
17.664049 50.361687 0.60740787
17.650835 50.361221 0.45109254
17.636511 50.359848 0.29462174
17.613775 50.351315 0.14077458
19.52676 50.983082 15.710578
19.495878 50.973122 15.477608
19.46303 50.96143 15.245978
19.44211 50.958961 15.025075
19.405432 50.943905 14.796057
19.387829 50.943733 14.582034
19.382542 50.953167 14.377887
19.368587 50.955624 14.170065
19.352978 50.956642 13.963116
19.328621 50.950588 13.752851
19.323969 50.960056 13.556056
18.217581 50.55373 5.9499311
18.279459 50.615536 5.7995143
18.165915 50.573368 5.0264745
18.160101 50.578949 4.8729286
18.130238 50.564442 4.7199512
17.639767 50.381157 1.3978252
17.602345 50.359921 1.2511729
17.578785 50.350513 1.1004654
17.591146 50.371838 0.93817937
17.558079 50.354351 0.78974849
17.553431 50.361214 0.63159794
17.525648 50.348286 0.48089436
17.511463 50.347042 0.32501158
17.488884 50.338627 0.17174773
19.400177 50.966984 15.678387
19.369009 50.956829 15.44603
19.356586 50.9613 15.229284
19.342396 50.96423 15.013451
19.333408 50.971134 14.803153
19.315744 50.971031 14.589135
19.317398 50.986115 14.389441
19.296366 50.983074 14.177177
18.105408 50.55088 5.9546447
18.16713 50.612839 5.8046727
18.045818 50.564281 5.0338359
18.032307 50.56348 4.8809142
18.02544 50.568241 4.7279959
17.535313 50.385834 1.4135406
17.497959 50.364628 1.2672304
17.48184 50.361626 1.1146092
17.449913 50.345078 0.96663094
17.461151 50.365623 0.80440855
17.427151 50.347332 0.65655696
17.406809 50.340801 0.50385106
17.407301 50.352253 0.34311911
19.346422 50.980896 16.120352
19.325798 50.979401 15.890833
19.316916 50.987015 15.672267
19.306242 50.993069 15.454562
19.307575 51.008492 15.247254
19.286489 51.006008 15.026514
19.277494 51.012974 14.816066
17.986874 50.530136 6.1083174
17.995815 50.548172 5.9560456
18.042055 50.597404 5.8056512
17.928349 50.554962 5.0378761
17.91482 50.554131 4.8854804
17.89263 50.545998 4.733458
17.884727 50.549881 4.5812631
17.418684 50.37624 1.4301383
17.381433 50.355034 1.2843459
17.380152 50.36478 1.1277227
17.36302 50.360916 0.97540474
17.330145 50.343498 0.82791281
17.318274 50.344219 0.67320865
17.298002 50.337719 0.52092808
17.27668 50.330334 0.36865646
19.307302 50.999939 16.809402
19.305897 51.014027 16.587194
19.295919 51.021191 16.360611
19.28405 51.026695 16.13496
19.270306 51.030552 15.910272
19.247871 51.027351 15.681663
17.88209 50.534428 6.1104045
17.86805 50.533161 5.9569459
17.929516 50.595245 5.8079991
17.800703 50.539379 5.0424266
17.810137 50.557808 4.8903408
17.787989 50.549583 4.738667
17.322975 50.384727 1.440863
17.271051 50.350681 1.299675
17.247742 50.34132 1.1502497
17.252832 50.356541 0.99157929
17.212763 50.332726 0.8469398
17.208334 50.339783 0.69022846
17.188189 50.33326 0.53836876
17.174269 50.332169 0.38383648
17.144751 50.317558 0.23468608
19.284946 51.033596 17.545702
19.27635 51.042431 17.309782
19.265743 51.049503 17.074831
19.259798 51.060089 16.846161
19.245249 51.06369 16.613159
19.228733 51.065556 16.381212
17.799191 50.557339 6.1196375
17.739378 50.517429 5.9631863
17.800793 50.579556 5.8148642
17.738323 50.568489 5.2041922
17.695375 50.542542 5.0522656
17.666706 50.528633 4.9010172
17.659927 50.533253 4.7497506
17.537382 50.491222 3.8487213
17.53879 50.502804 3.6969748
17.227869 50.393036 1.4567492
17.161364 50.346111 1.3201442
17.138226 50.336731 1.1711358
17.114082 50.326492 1.0222546
17.118227 50.340843 0.86380804
17.092001 50.328842 0.71487838
17.079338 50.328663 0.56092232
17.058327 50.321247 0.40948355
19.257551 51.055233 18.309669
19.255369 51.069679 18.070585
19.238123 51.072029 17.82122
19.225243 51.077633 17.57856
19.21685 51.086605 17.342419
19.186621 51.078053 17.091158
17.642485 50.51469 6.1284637
17.643839 50.526188 5.9770713
17.6747 50.562634 5.8273325
17.59264 50.544846 5.0677066
17.564083 50.530907 4.9167891
17.565001 50.542011 4.7656889
17.500874 50.518341 4.3150573
17.482594 50.513058 4.1651759
17.054468 50.342094 1.3460832
17.031507 50.332748 1.1974859
17.022209 50.335316 1.0443417
17.004524 50.330608 0.89341706
16.985802 50.32502 0.74247289
16.96604 50.318554 0.59152132
16.945238 50.311199 0.44057465
19.23517 51.071495 19.111053
19.226944 51.081882 18.85708
19.210091 51.085236 18.598373
19.197372 51.09164 18.346634
19.175987 51.090965 18.09037
19.171835 51.103748 17.852171
17.530989 50.508144 6.1441655
17.524765 50.513245 5.992691
17.563242 50.556259 5.8439474
17.466347 50.525696 5.0864496
17.453114 50.524754 4.9359512
17.446491 50.529446 4.7854662
17.42367 50.520294 4.6355224
17.407463 50.516777 4.4856148
16.961277 50.35041 1.3709669
16.916426 50.321911 1.2293427
16.907297 50.324615 1.076705
16.904402 50.332809 0.92145002
16.87126 50.314564 0.77582926
16.866219 50.320953 0.62020558
16.831085 50.300987 0.47491556
19.201672 51.092171 19.679583
19.18573 51.097054 19.411133
19.179985 51.109756 19.155855
19.159306 51.110416 18.889851
19.149004 51.119068 18.636803
19.1429 51.13084 18.390589
17.418861 50.500969 6.1609874
17.420296 50.512608 6.0104818
17.428335 50.529873 5.8603516
17.347065 50.51252 5.1062975
17.349108 50.524658 4.9561615
17.334963 50.522934 4.8061905
17.312243 50.513844 4.6566668
16.838015 50.333134 1.4056076
16.800724 50.311153 1.2623028
16.784451 50.307594 1.1124942
16.774443 50.309566 0.96024334
16.763369 50.310642 0.80779934
16.743971 50.304428 0.65775019
16.730778 50.303707 0.50504255
19.168777 51.112057 20.270552
19.164206 51.126514 20.005556
19.157265 51.138863 19.741619
19.135452 51.139202 19.466722
19.123739 51.147293 19.205147
17.294943 50.49239 6.0305481
17.295448 50.503254 5.8805909
17.26026 50.525257 5.1300759
17.247211 50.524475 4.9802599
17.210432 50.503281 4.83109
17.210581 50.513821 4.6814299
17.187014 50.503941 4.5326128
17.170044 50.499729 4.3837714
16.761644 50.354557 1.4310997
16.702536 50.313324 1.2945192
16.693735 50.316326 1.1427252
16.669306 50.305599 0.9955166
16.643888 50.29401 0.84845102
16.639223 50.300758 0.69384414
16.626226 50.300194 0.54154819
19.127886 51.134079 20.884014
19.134743 51.158085 20.622791
19.108644 51.155788 20.331203
19.098341 51.165718 20.059698
19.085592 51.173458 19.789381
17.174013 50.479134 6.0543685
17.204981 50.516071 5.9068117
17.140207 50.51236 5.1570196
17.112181 50.498577 5.0078235
17.105898 50.503521 4.8587298
17.091061 50.501083 4.7098846
16.654396 50.350109 1.4682723
16.602894 50.315361 1.3298148
16.587017 50.312042 1.1806538
16.562845 50.301418 1.033837
16.552202 50.302784 0.88222212
16.533264 50.296837 0.73297566
16.506088 50.283611 0.58636284
19.10804 51.163681 21.825502
19.081345 51.16188 21.515099
19.075678 51.176388 21.232161
19.067417 51.188572 20.950388
17.149843 50.55138 6.0838256
17.05979 50.484219 5.9280486
17.033836 50.513088 5.1823125
17.013594 50.505829 5.0333824
16.99238 50.497707 4.8848071
16.977755 50.495274 4.7363787
16.945589 50.487843 4.4401407
16.49538 50.310085 1.3655914
16.465214 50.293919 1.2214135
16.463171 50.302704 1.068035
16.445543 50.297703 0.91920447
16.41967 50.285393 0.7728982
16.400026 50.278645 0.62412632
19.107958 51.210976 22.832182
17.044628 50.552357 6.1042504
16.947329 50.478477 5.9482198
17.000217 50.534283 5.8024125
16.879597 50.480198 5.0562124
16.873705 50.485134 4.9080639
16.859291 50.482658 4.7601399
16.836372 50.472767 4.6127129
16.8351 50.481712 4.4645238
16.390234 50.303577 1.3984661
16.36764 50.293877 1.2523946
16.336811 50.276859 1.1088123
16.312288 50.265457 0.96308565
16.315672 50.278957 0.80737054
16.296326 50.272228 0.65899485
16.825594 50.464928 5.9688797
16.878561 50.520809 5.8236685
16.781605 50.486206 5.0798535
16.76082 50.478001 4.9321828
16.746611 50.47551 4.7846761
16.731438 50.472168 4.6373696
16.722826 50.474552 4.489902
16.305023 50.31601 1.425778
16.246319 50.273895 1.2911984
16.23032 50.269863 1.1434592
16.23501 50.28434 0.98836517
16.216942 50.278526 0.84031296
16.190674 50.265396 0.69485766
16.740374 50.482479 6.0021448
16.740726 50.492626 5.8541479
16.660107 50.471371 5.1136293
16.654636 50.476387 4.9662533
16.640676 50.473965 4.8190722
16.633272 50.477283 4.6718197
16.16176 50.287319 1.3284658
16.138794 50.276897 1.1832083
16.114862 50.265621 1.0380816
16.104374 50.266426 0.88808048
16.085657 50.259872 0.74048859
16.644037 50.48415 6.0402818
16.606991 50.461586 5.8903208
16.572756 50.480423 5.1532044
16.544979 50.465797 5.0062265
16.53879 50.470108 4.8592935
16.524128 50.466969 4.7126307
16.052326 50.273975 1.3804638
16.036953 50.270245 1.2333465
16.013363 50.259144 1.0885917
16.017607 50.273113 0.93401861
15.999197 50.266731 0.78664207
16.015581 50.291756 0.62597108
17.772697 50.906261 16.089178
17.739449 50.892471 15.854457
17.744114 50.909992 15.651303
17.73381 50.914944 15.438811
17.198311 50.709305 11.411953
17.219482 50.73851 11.252189
16.559437 50.499161 6.0820594
16.500149 50.45697 5.9306874
16.44718 50.468693 5.0485315
16.433746 50.466557 4.9019961
16.411861 50.456955 4.7558818
16.404018 50.459736 4.6095142
15.969062 50.287403 1.4259562
15.946754 50.277332 1.2812774
15.923485 50.266411 1.1367227
15.899258 50.254635 0.99230349
15.895591 50.261456 0.84037203
15.855083 50.234993 0.70128006
17.69669 50.923401 16.369539
17.718491 50.955395 16.174953
17.251953 50.778538 12.577115
17.224497 50.766865 12.384813
16.377314 50.43832 5.9739809
16.422455 50.487648 5.8299608
16.33375 50.45747 5.0948362
16.320648 50.455475 4.9487066
16.291624 50.439373 4.8031759
15.835801 50.263725 1.3398217
15.812966 50.252998 1.1957142
15.803551 50.25444 1.0468464
15.800274 50.261482 0.89525348
15.753036 50.228683 0.75899678
17.951992 51.066643 19.258688
17.172398 50.792839 12.811352
17.146811 50.782673 12.618101
17.112377 50.776268 12.245939
17.089527 50.768108 12.059272
16.278416 50.440807 6.0189505
16.301315 50.47052 5.8740597
16.236719 50.460823 5.1413054
16.208982 50.445694 4.995595
16.195267 50.442982 4.8500571
16.188076 50.44606 4.7044487
16.17247 50.441654 4.5592299
16.148464 50.429756 4.4146724
15.733467 50.257805 1.3962501
15.711046 50.247261 1.2525055
15.694856 50.24239 1.1064656
15.692003 50.249668 0.95538116
15.652369 50.223522 0.81689894
17.799946 51.048542 19.27737
17.328838 50.893963 15.111227
17.301086 50.88316 14.892703
17.227539 50.858036 14.25838
17.069986 50.795162 13.042347
17.039345 50.780487 12.844328
16.190924 50.456944 6.068737
16.154333 50.433838 5.9203806
16.101734 50.442768 5.0460224
16.088413 50.44017 4.9007955
16.081612 50.443378 4.7555208
15.658507 50.277763 1.4472238
15.61491 50.247688 1.310434
15.599178 50.242977 1.1646866
15.589621 50.243923 1.0164227
15.571901 50.237453 0.87053424
17.637711 51.038559 19.297359
17.169638 50.825401 15.943836
17.120472 50.808842 15.496443
17.096411 50.800766 15.277081
17.077194 50.796646 15.063801
17.089659 50.819298 14.875629
17.073841 50.817818 14.668864
17.056368 50.8148 14.463064
17.030487 50.804493 14.253677
17.009718 50.798405 14.049956
16.987333 50.790813 13.847271
16.983892 50.799282 13.658672
16.958393 50.788792 13.457891
16.938217 50.782734 13.262398
16.916527 50.775265 13.067871
16.900282 50.772354 12.878357
16.889566 50.77409 12.693639
16.870472 50.768536 12.505762
16.109285 50.479912 6.1200504
16.028433 50.416981 5.9686747
16.088448 50.47929 5.8266587
15.986182 50.432682 5.0972495
15.965901 50.423443 4.9525428
15.959592 50.426685 4.8077712
15.944895 50.422417 4.6633286
15.929266 50.417301 4.5190988
15.520429 50.245358 1.3689675
15.498079 50.234169 1.2258787
15.474786 50.222134 1.0829204
15.471959 50.228832 0.93248206
15.425373 50.195511 0.79744095
17.166052 50.873226 17.373497
17.14526 50.868473 17.133926
17.01721 50.821693 15.960784
16.984329 50.805645 15.729155
16.975756 50.810139 15.519186
16.952286 50.801807 15.300125
16.92701 50.791782 15.082256
16.919912 50.79715 14.880094
16.897839 50.789597 14.669214
16.887487 50.791946 14.468801
16.86207 50.781273 14.260027
16.848513 50.78064 14.061458
16.833399 50.778564 13.863766
16.823561 50.780914 13.671338
16.798542 50.770107 13.471105
16.792574 50.775585 13.284591
16.771395 50.767864 13.090469
16.762564 50.770691 12.905428
16.738445 50.760231 12.713138
15.911666 50.408607 6.010675
15.927332 50.431023 5.8667698
15.872311 50.423882 5.1417232
15.852542 50.414558 4.9973884
15.846725 50.41774 4.8530307
15.832536 50.413403 4.7089772
15.824848 50.414902 4.5647664
15.808799 50.408875 4.4210553
15.41337 50.228706 1.425454
15.40596 50.230637 1.2781043
15.383235 50.218567 1.1354108
15.373837 50.218727 0.98781842
15.342081 50.198406 0.84784698
16.867949 50.812752 16.18503
16.850494 50.80912 15.963083
16.837702 50.809341 15.747396
16.816597 50.802311 15.527624
16.813387 50.810501 15.324013
16.788746 50.800171 15.10637
16.775576 50.799572 14.899637
16.747423 50.785961 14.684299
16.737576 50.787987 14.484312
16.726151 50.788548 14.285155
16.71316 50.787655 14.086852
16.69861 50.785313 13.889422
16.668919 50.769775 13.684124
16.658066 50.770416 13.492972
16.63204 50.757828 13.294152
16.638836 50.773579 13.117186
16.61673 50.764194 12.924296
16.593138 50.753418 12.732411
16.575018 50.747299 12.545457
15.823773 50.42561 6.0507956
15.802691 50.414612 5.9048209
15.779911 50.433552 5.1822243
15.753219 50.417408 5.0380869
15.740467 50.413795 4.8941412
15.726788 50.409336 4.7503915
15.355943 50.255226 1.4623015
15.306006 50.217606 1.3288169
15.298173 50.218586 1.1816502
15.282198 50.212124 1.0367786
15.26525 50.204788 0.89188451
16.739754 50.814827 16.422163
16.718262 50.807121 16.194141
16.714207 50.814285 15.983069
16.695461 50.808681 15.762476
16.668364 50.795742 15.537926
16.659029 50.797997 15.329737
16.628277 50.781639 15.107613
16.62211 50.7864 14.906314
16.614346 50.789677 14.705798
16.598326 50.785709 14.501375
16.594065 50.791824 14.307204
16.568123 50.779041 14.100058
16.547268 50.770561 13.898574
16.531593 50.766476 13.702542
16.507586 50.755047 13.503104
16.502495 50.759983 13.317495
16.489145 50.757645 13.128365
16.47435 50.753956 12.940055
16.440464 50.74258 12.565982
15.744245 50.447269 6.0888329
15.671626 50.389431 5.9395871
15.647119 50.411732 5.0761738
15.642246 50.41473 4.9323888
15.629025 50.410187 4.7888618
15.219788 50.216743 1.3723208
15.198161 50.204544 1.2301749
15.189861 50.204617 1.0832013
15.166331 50.190697 0.9411611
15.170238 50.202057 0.78868228
16.590073 50.799385 16.42523
16.575382 50.796936 16.202997
16.558834 50.792751 15.981842
16.546906 50.792446 15.766977
16.520218 50.779228 15.542878
16.504705 50.775574 15.330157
16.494009 50.77599 15.12343
16.481647 50.774853 14.917612
16.474247 50.777927 14.717533
16.465261 50.77953 14.518257
16.434681 50.762222 14.30585
16.435879 50.772503 14.117631
16.415447 50.76384 13.91648
16.406935 50.76548 13.725216
16.376598 50.747967 13.521687
16.365068 50.746792 13.332195
16.358919 50.750244 13.147687
16.344517 50.746395 12.959735
16.328682 50.741207 12.772622
15.660386 50.461632 6.1265168
15.58084 50.396984 5.9766841
15.611616 50.431797 5.8345847
15.551241 50.412449 5.1142974
15.539352 50.408718 4.9708924
15.519134 50.397427 4.8278971
15.149343 50.230183 1.4114616
15.113848 50.204792 1.2740943
15.106 50.20488 1.1273526
15.09004 50.19751 0.98295778
15.058932 50.176178 0.84380412
16.402603 50.774395 15.993859
16.378281 50.76263 15.769065
16.365009 50.760372 15.555812
16.362991 50.767818 15.353678
16.339758 50.75666 15.137333
16.334431 50.761024 14.936911
16.314323 50.75238 14.727609
16.312382 50.759525 14.533669
16.295628 50.75362 14.331049
16.270576 50.740349 14.124832
16.263987 50.74316 13.933352
16.242445 50.732777 13.733724
16.232847 50.732784 13.543891
16.215002 50.725468 13.350549
16.209278 50.728725 13.166574
16.195326 50.724674 12.979131
16.19367 50.731373 12.800618
16.146122 50.713547 12.249342
15.473434 50.389622 6.0204687
15.474997 50.39764 5.8771553
15.446673 50.404968 5.1600823
15.427871 50.394489 5.0170946
15.422953 50.396614 4.8740816
15.409716 50.391174 4.7313738
15.395562 50.384895 4.5888753
15.086871 50.249073 1.4558617
15.037577 50.210461 1.3230821
15.015996 50.197403 1.1813583
15.007704 50.196629 1.0347282
14.991319 50.1884 0.89051402
16.295732 50.781273 16.459595
16.260288 50.768181 16.012335
16.242956 50.761803 15.793062
16.236691 50.765011 15.585217
16.222261 50.760967 15.373149
16.193073 50.743877 15.15211
16.1882 50.748016 14.952126
16.175165 50.744904 14.748067
16.173691 50.751865 14.554503
16.15745 50.745758 14.352217
16.14625 50.743999 14.155544
16.140186 50.746689 13.964277
16.125931 50.742081 13.769279
16.110149 50.736042 13.575189
16.092855 50.728588 13.382028
16.074059 50.71973 13.189818
16.060587 50.715496 13.002728
16.066212 50.728092 12.828676
16.043102 50.715195 12.639046
15.402998 50.415268 6.0631247
15.360624 50.382988 5.9170952
15.356799 50.410275 5.2021236
15.331081 50.393013 5.0593376
15.311847 50.381638 4.916914
15.313868 50.389626 4.7740841
15.300193 50.383305 4.631804
14.932252 50.188499 1.3778629
14.93975 50.201817 1.226921
14.917749 50.187881 1.085434
14.894823 50.173103 0.94409132
16.151926 50.770248 16.468309
16.145102 50.772667 16.252584
16.123772 50.76223 16.027147
16.126104 50.772507 15.823925
16.113956 50.769955 15.611042
16.093601 50.760075 15.394065
16.077936 50.754223 15.183282
16.060545 50.746761 14.973549
16.06109 50.755043 14.779491
16.053537 50.7561 14.581285
16.044416 50.755692 14.383897
16.020466 50.742088 14.178074
16.001522 50.732822 13.977982
15.994369 50.733921 13.787891
15.992465 50.739609 13.602953
15.975667 50.732018 13.409979
15.957367 50.723022 13.217953
15.944373 50.718666 13.031062
15.24167 50.361877 5.9532032
15.309652 50.429523 5.8141527
15.222024 50.378365 5.0984373
15.210617 50.37368 4.9562449
15.213057 50.381641 4.8137693
15.192445 50.368534 4.6721249
14.878308 50.213062 1.4132135
14.836347 50.180176 1.2789744
14.829096 50.179436 1.1329736
14.820852 50.177795 0.9867757
14.776261 50.142464 0.85363525
16.002253 50.756504 16.263571
15.987717 50.751472 16.04385
15.990455 50.761616 15.841005
15.972353 50.753246 15.623273
15.965309 50.75457 15.416911
15.956593 50.754333 15.211422
15.926725 50.735264 14.991941
15.927662 50.743416 14.798266
15.920525 50.744339 14.600422
15.905235 50.737946 14.398658
15.888333 50.730042 14.197884
15.889759 50.738358 14.01186
15.86975 50.727543 13.812902
15.848165 50.715244 13.615004
15.845189 50.719452 13.43122
15.834068 50.716339 13.2438
15.828288 50.71793 13.061376
15.137049 50.352364 5.9921222
15.168445 50.386406 5.8516521
15.119827 50.368858 5.1393986
15.116214 50.370926 4.9973936
15.111687 50.372154 4.8554044
15.106246 50.372543 4.7134423
14.809197 50.22398 1.4553074
14.753431 50.17786 1.3257774
14.746651 50.177166 1.1800103
14.738878 50.175571 1.0340425
14.701836 50.146812 0.89839596
15.900057 50.761345 16.515669
15.875298 50.746925 16.28414
15.861188 50.741848 16.064674
15.851593 50.740685 15.851578
15.846622 50.743542 15.644654
15.833553 50.739128 15.433444
15.831645 50.744553 15.233364
15.802231 50.725426 15.014102
15.810031 50.739349 14.825643
15.796764 50.73444 14.62318
15.775307 50.722153 14.416929
15.771967 50.725945 14.225846
15.760518 50.722439 14.030866
15.754189 50.723438 13.841283
15.733035 50.711124 13.643559
15.723731 50.709335 13.455641
15.719715 50.712215 13.272793
15.700797 50.701702 13.082178
15.693972 50.701954 12.900802
15.069041 50.375687 6.032578
15.049162 50.362614 5.8892026
15.046589 50.385826 5.179318
15.021234 50.367672 5.0376267
15.009707 50.362198 4.8960834
14.998657 50.362263 4.612865
14.661603 50.16975 1.3741115
14.655259 50.169167 1.2286662
14.6621 50.180866 1.0779721
14.639607 50.165306 0.93717498
15.7782 50.750763 16.534145
15.740134 50.731194 16.083637
15.743567 50.741287 15.881409
15.72628 50.732838 15.664176
15.719977 50.7341 15.458381
15.692722 50.716579 15.238227
15.695917 50.72617 15.044411
15.691099 50.728539 14.846282
15.67167 50.717773 14.639243
15.663657 50.717144 14.442861
15.654092 50.715057 14.247308
15.656199 50.723366 14.061842
15.64362 50.718452 13.867862
15.636182 50.71809 13.679238
15.633979 50.722366 13.495759
15.011653 50.405445 6.0720549
14.955321 50.358662 5.9262676
14.92201 50.35733 5.0762877
14.918186 50.358685 4.9348898
14.913453 50.359207 4.7935138
14.907812 50.358891 4.6521697
14.607673 50.194664 1.4091569
14.573246 50.16769 1.2732825
14.580475 50.17952 1.1228647
14.551315 50.157463 0.98484683
14.528323 50.141155 0.8444804
15.659028 50.751614 16.553917
15.653889 50.753807 16.339157
15.640689 50.748714 16.119917
15.644588 50.758846 15.9177
15.634174 50.756088 15.705666
15.641143 50.768837 15.510113
15.614529 50.751411 15.289668
15.605386 50.749573 15.085604
15.607537 50.757805 14.892329
14.921695 50.410065 6.1054978
14.843714 50.34293 5.9583774
14.897132 50.396698 5.8197484
14.827125 50.355167 5.1108017
14.808943 50.342976 4.9699674
14.811904 50.350296 4.8287745
14.536629 50.206379 1.4450208
14.488379 50.166149 1.3139449
14.474756 50.158222 1.1712533
14.467249 50.156013 1.0259634
14.444665 50.139744 0.88579279
15.617665 50.790825 17.963017
15.60037 50.782097 17.718927
15.599073 50.787605 17.493641
15.595862 50.791317 17.26926
15.596869 50.798737 17.05151
15.589903 50.79892 16.82896
15.58725 50.802902 16.612949
15.589025 50.810795 16.403288
15.582826 50.811447 16.18898
14.723319 50.321636 5.9850531
14.776996 50.375412 5.8470602
14.723465 50.347095 5.1404734
14.72767 50.355209 4.9995308
14.723631 50.355698 4.8586574
14.464379 50.217381 1.4761472
14.409426 50.170429 1.347437
14.389117 50.155853 1.2073542
14.389081 50.16024 1.0597472
14.366898 50.143925 0.91969627
15.581329 50.844746 19.488762
15.554846 50.827583 19.212111
15.566408 50.844501 18.980915
15.540949 50.828049 18.713291
15.554192 50.84631 18.490103
15.559629 50.857479 18.261507
15.545256 50.850731 18.015772
15.528717 50.841938 17.771299
15.534138 50.852856 17.551497
15.525588 50.851109 17.32091
15.508965 50.841991 17.085695
14.634479 50.329189 6.0053596
14.659063 50.355755 5.8660378
14.63651 50.353863 5.1618094
14.619038 50.341454 5.02143
14.608003 50.335011 4.8811998
14.610724 50.341331 4.7405643
14.324752 50.167057 1.3752744
14.311908 50.158989 1.2329539
14.298121 50.150047 1.0905995
14.29043 50.146832 0.94559503
15.504913 50.884975 20.836348
15.486111 50.874245 20.54615
15.481314 50.876053 20.277315
15.485292 50.885693 20.02276
15.481332 50.888073 19.762728
15.463626 50.877941 19.491049
15.454906 50.875839 19.233498
15.461206 50.887245 18.995972
15.447987 50.880905 18.740711
15.438338 50.87772 18.492878
14.521549 50.317871 6.0167594
14.546388 50.34425 5.8778892
14.522854 50.342239 5.0355916
14.519456 50.342388 4.8953991
14.495349 50.326561 4.615871
14.237412 50.162647 1.3958054
14.224937 50.154396 1.2537235
14.218575 50.15189 1.1090686
14.211238 50.148483 0.96422148
15.431792 50.936436 22.311882
15.422174 50.933506 22.007639
15.420337 50.937534 21.718716
15.421173 50.943897 21.437916
15.408544 50.937943 21.144699
15.398622 50.934357 20.85969
15.402578 50.943295 20.596081
15.398588 50.944927 20.326908
14.425209 50.320408 6.1708918
14.42928 50.327026 6.0310526
14.432457 50.332809 5.8911533
14.410822 50.329563 5.0514288
14.400441 50.322693 4.9118686
14.396479 50.321812 4.7722178
14.142071 50.152088 1.4201465
14.122926 50.137039 1.2808343
14.116978 50.134396 1.1365923
14.117089 50.137463 0.98954064
15.371576 51.018414 22.703905
15.36597 51.018333 22.397673
14.3392 50.335697 6.0507088
14.306182 50.307236 5.908896
14.308321 50.323605 5.0724788
14.305568 50.323421 4.9330592
14.301926 50.322407 4.7936625
14.290102 50.313732 4.6546674
14.077163 50.169685 1.4403571
14.04423 50.141182 1.30589
14.031595 50.131794 1.1643281
14.032083 50.134766 1.0175279
14.262374 50.356102 6.0813589
14.207862 50.307076 5.9381714
14.211901 50.323315 5.103333
14.202185 50.316269 4.9643459
13.950419 50.133949 1.3455935
13.93819 50.12458 1.2043426
13.946105 50.134224 1.0552917
13.917947 50.109829 0.91908795
14.169888 50.362324 6.11375
14.101216 50.299549 5.9697022
14.140803 50.338585 5.8328133
14.114414 50.322754 5.1369042
14.105032 50.31572 4.9981565
14.09477 50.307854 4.8596029
13.862528 50.134235 1.3855628
13.850686 50.124916 1.2445375
13.851957 50.127998 1.0983334
13.845227 50.123528 0.95442796
13.992738 50.286777 6.1360931
13.997098 50.292385 5.9977932
14.029653 50.324596 5.8609576
14.003018 50.308426 5.0287032
13.99308 50.300533 4.8904777
13.783737 50.140335 1.4198172
13.765219 50.124344 1.2814102
13.766858 50.12746 1.1354629
13.760503 50.123009 0.99179673
13.878569 50.273899 6.160531
13.883244 50.279411 6.0226755
13.916072 50.311573 5.8863368
13.906002 50.308575 5.0563912
13.717579 50.158577 1.4467056
13.671307 50.115784 1.318105
13.673363 50.118874 1.1724987
13.667433 50.114384 1.0291579
13.667521 50.115616 0.88292098
13.775284 50.273048 6.0496593
13.793942 50.291378 5.912919
13.79341 50.294567 5.0859795
13.591609 50.119587 1.3515391
13.580077 50.109261 1.2111675
13.581613 50.111362 1.0655371
13.582158 50.11253 0.91955286
13.567791 50.09951 0.77879363
13.677085 50.272587 6.0823236
13.674399 50.270203 5.9446125
13.697934 50.293663 5.1205239
13.689164 50.28548 4.9831977
13.521862 50.130672 1.3877383
13.482735 50.093575 1.2574768
13.484768 50.095688 1.1122726
13.492792 50.103512 0.96402919
13.485877 50.097103 0.82080513
13.457184 50.069946 0.6859659
13.955322 50.642769 16.043169
13.938073 50.625973 15.824811
13.937236 50.624882 15.623842
13.940882 50.628086 15.429013
13.949122 50.635689 15.240125
13.557001 50.248955 6.1179557
13.561902 50.253464 5.9812074
13.616528 50.305466 5.8469253
13.602101 50.290825 5.1596556
13.593722 50.28265 5.0225668
13.591709 50.280556 4.8854218
13.430141 50.12191 1.4357904
13.405497 50.098202 1.3007692
13.393979 50.087025 1.1608958
13.402467 50.09494 1.0130131
13.402979 50.095242 0.86736012
13.395563 50.087975 0.72420156
13.38719 50.079796 0.58088779
13.891925 50.693741 16.324312
13.470765 50.25613 6.0182457
13.496782 50.280605 5.8827705
13.496014 50.276764 4.9241729
13.312562 50.089516 1.3482088
13.308455 50.085121 1.2060831
13.310376 50.086487 1.0611198
13.31827 50.093559 0.91307855
13.31127 50.086391 0.77015108
13.310235 50.084923 0.6241712
13.294404 50.069305 0.48383257
13.277652 50.052811 0.34352639
13.249143 50.024094 -0.090315349
13.404002 50.278606 6.0599747
13.372676 50.247829 5.9212723
13.390035 50.260345 5.1029906
13.386545 50.255611 4.8301001
13.229608 50.08754 1.39632
13.232898 50.089958 1.2518991
13.235215 50.091446 1.1071107
13.222649 50.078671 0.96737653
13.229976 50.084946 0.81927001
13.222446 50.076992 0.67641056
13.213963 50.068119 0.53340107
13.218287 50.071503 0.38417584
13.194125 50.047615 0.24698101
13.210136 50.06218 0.090775862
13.184088 50.03648 -0.0464665
13.328205 50.293694 6.1042376
13.268533 50.235229 5.9637213
13.309855 50.268929 5.147306
13.301738 50.260105 5.0111151
13.299968 50.257389 4.8748498
13.297342 50.253853 4.7386169
13.293859 50.249489 4.6024261
13.167694 50.104584 1.4400074
13.15045 50.086975 1.3031359
13.146268 50.081894 1.1612058
13.141144 50.075905 1.019085
13.148948 50.082306 0.87125564
13.12806 50.061192 0.73432004
13.133898 50.065697 0.58583528
13.145592 50.075809 0.43385944
13.128762 50.058575 0.29365066
13.131544 50.060131 0.14394626
13.126462 50.054142 -0.0029286961
13.522576 50.703304 18.868176
13.514306 50.692688 18.618673
13.503785 50.67992 18.370441
13.524588 50.697781 18.160933
13.498582 50.669964 17.902607
13.498571 50.667568 17.676424
