# .PCD v0.7 - Point Cloud Data file format
VERSION 0.7
FIELDS x y z
SIZE 4 4 4
TYPE F F F
COUNT 1 1 1
WIDTH 1611
HEIGHT 1
VIEWPOINT 0 0 0 1 0 0 0
POINTS 1611
DATA ascii
4.5303388 59.849876 38.148205
4.1903706 59.817066 38.027279
3.8734086 59.711185 35.968872
3.9197631 59.777878 35.405453
3.8890226 59.664574 34.71302
3.9101615 59.673222 34.120171
3.9317737 59.683426 33.535034
3.9506333 59.687641 32.952023
3.963428 59.67815 32.365837
3.9942052 59.672546 31.221666
3.9988303 59.645332 30.642632
3.5371587 59.665829 35.872829
3.5543451 59.66399 35.259033
3.5863662 59.656246 34.050152
3.5980771 59.64291 33.449413
3.6134677 59.638775 32.862129
3.6326797 59.644142 32.287937
3.6360276 59.612419 31.694683
3.6598496 59.629539 31.14077
3.6577609 59.58588 30.552637
3.699455 59.608036 29.465181
3.7132618 59.603073 28.919281
3.7528553 59.514526 26.231073
3.175808 59.694855 38.369503
3.1834726 59.667912 37.704292
3.1970696 59.655964 37.06007
3.2380023 59.623909 35.179043
3.2488117 59.607475 34.563141
3.2694144 59.615154 33.972317
3.2840772 59.609005 33.378181
3.3120823 59.635403 32.813702
3.3245723 59.624943 32.2295
3.3474181 59.639786 31.668913
3.3624406 59.597198 30.517458
3.3776267 59.594929 29.963287
3.380306 59.563148 29.396217
3.4630516 59.504063 25.677563
2.8835895 59.646389 37.639469
2.9284616 59.667259 36.396656
2.9306927 59.585846 35.106117
2.9599056 59.61475 34.5252
2.9707825 59.599297 33.918175
2.9946363 59.616024 33.341393
2.9967895 59.580273 32.733925
3.0057108 59.561527 32.145523
3.0183766 59.552368 31.570292
3.0414083 59.568855 31.018311
3.0554814 59.563961 30.457851
3.0769017 59.577305 29.914803
3.0927203 59.539593 28.804619
2.5692248 59.637371 38.225346
2.5972443 59.661415 37.604057
2.5954309 59.611668 36.931412
2.635591 59.667057 36.350471
2.6458166 59.648457 35.71875
2.6530712 59.623047 35.089878
2.6512113 59.575584 34.452599
2.674242 59.59042 33.86895
2.70401 59.622398 33.303936
2.715574 59.609741 32.71339
2.7086418 59.551842 32.098476
2.7402151 59.589584 31.555782
2.7512593 59.537689 30.402725
2.7658634 59.53479 29.850426
2.7715316 59.510292 29.290226
2.8051264 59.517223 28.220947
2.2950745 59.6926 38.216343
10.11741 59.928745 27.468363
10.117983 59.921417 27.072416
10.115284 59.91058 26.678247
10.125367 59.91399 26.304041
10.127055 59.908218 25.925327
10.131092 59.905144 25.554171
10.143056 59.910919 25.196243
10.124764 59.883381 24.810837
10.136454 59.889034 24.461657
10.150981 59.897907 24.119368
10.151696 59.891617 23.76716
10.144034 59.876179 23.410988
10.150539 59.876446 23.072708
10.148767 59.867668 22.7304
10.155801 59.868664 22.40008
10.156618 59.856285 21.738068
10.153301 59.839645 21.086535
10.064313 59.991783 30.011087
10.065655 59.984428 29.578098
10.068364 59.978733 29.153597
10.06235 59.963493 28.724535
10.073289 59.967178 28.323112
10.065314 59.950031 27.904341
10.06949 59.946465 27.506399
10.07564 59.945198 27.116362
10.083894 59.946373 26.734076
10.08904 59.94421 26.353342
10.091096 59.93874 25.974209
10.095496 59.935959 25.602634
10.096915 59.929981 25.232616
10.100856 59.926888 24.869972
10.101922 59.920712 24.508839
10.116791 59.929859 24.166126
10.112261 59.917686 23.807936
10.099286 59.89629 23.445917
10.111711 59.902985 23.112749
10.115924 59.900707 22.7754
10.111844 59.889366 22.43413
10.11664 59.887882 22.104744
10.107393 59.87101 21.766413
10.112992 59.870552 21.444777
10.116202 59.867535 21.124331
10.014979 60.058487 32.811394
10.027678 59.99892 29.196039
10.04239 60.006676 28.792467
10.038286 59.993694 28.371277
10.040997 59.988396 27.964739
10.029855 59.967876 27.547491
10.046793 59.978565 27.169485
10.034156 59.956631 26.762249
10.050159 59.966496 26.393406
10.057839 59.967255 26.019901
10.062519 59.96479 25.647905
10.058765 59.953114 25.271626
10.068428 59.956348 24.914392
10.069764 59.950481 24.552828
10.062686 59.935417 24.187195
10.075045 59.941891 23.845509
10.06792 59.92696 23.488598
10.069294 59.921482 23.144184
10.079381 59.92569 22.811871
9.9693184 60.100685 34.341915
9.9885054 60.111713 33.86261
9.9799118 60.091972 33.349667
9.9809103 60.083103 32.860371
9.9919071 60.085533 32.394253
9.9843111 60.067448 31.909342
10.007312 60.021389 28.416374
10.010314 60.016376 28.009434
9.9942322 59.990356 27.585516
10.000883 59.989628 27.194798
10.009632 59.991333 26.811827
10.02061 59.995602 26.436451
10.017811 59.984745 26.050571
10.030032 59.983025 25.313408
9.8816862 60.11097 35.382175
9.8826694 60.100956 34.855164
9.9065256 60.116673 34.373913
9.9633799 60.169361 33.951736
9.97435 60.171043 33.466518
9.9762554 60.162804 32.976303
9.9642096 60.139217 32.474369
9.976613 60.143028 32.016487
9.9474449 60.019325 27.627161
9.9439716 60.007103 27.223724
9.9583435 60.014763 26.846674
9.9589996 60.007343 26.458923
9.810463 60.12981 34.922787
9.8121328 60.120049 34.40506
9.8165255 60.059505 31.481646
9.8503132 60.086887 31.069315
9.7293253 60.140549 34.968868
9.7455139 60.146408 34.472668
9.7550182 60.077126 31.086761
9.7709703 60.08427 30.655573
9.6377878 60.120136 34.961658
9.6679096 60.141365 34.487362
9.6793289 60.072479 31.101454
9.6955242 60.07967 30.670275
9.6941204 59.997051 27.28664
9.5726318 60.119396 34.990906
9.5892458 60.125412 34.494781
9.6261024 60.084488 31.143324
9.6376953 60.086479 30.705156
9.622797 59.988342 27.301268
9.5383348 60.137791 35.084393
9.5326214 60.118946 34.551506
9.5526152 60.060356 31.171041
9.5510244 59.967529 27.328899
9.4843464 60.122181 35.172794
9.4975548 60.124947 34.668552
9.4932842 60.041973 31.242733
9.5350275 60.078091 30.844887
9.4902039 59.950668 27.391846
9.402977 60.083874 35.223553
9.4486151 60.123253 34.770138
9.4995537 60.16872 34.332382
9.4393044 60.036808 31.327068
9.4815588 60.073757 30.928919
9.4907866 60.074062 30.491539
9.4043684 59.912613 27.428799
9.4643345 59.888641 23.408188
9.352706 60.098194 35.288471
9.3713608 60.10741 34.791103
9.4040174 60.132484 34.324543
9.3962011 60.049156 30.936317
9.4055424 60.049622 30.499069
9.3251963 59.895126 27.443377
9.4101009 59.980587 27.146711
9.392189 59.879246 23.429028
9.2381582 60.079411 35.212097
9.2657213 60.098049 34.729805
9.3212929 60.14827 34.299709
9.2943888 60.039585 30.885326
9.238348 59.898094 27.4144
9.1464691 60.102406 35.159435
9.1694469 60.115036 34.670101
9.1798754 60.040791 31.259691
9.2068796 60.048306 30.391668
9.1882324 59.953537 27.416248
9.0580769 60.112312 35.101044
9.0900421 60.134418 34.626514
9.030405 59.989208 31.581516
9.0871077 59.938896 27.351019
8.9976225 60.114117 35.099396
9.0021687 60.105324 34.581314
9.0151749 60.02943 31.181725
9.0327139 60.037048 30.750738
9.0106859 59.92271 27.330687
8.945507 60.09063 35.121975
8.9545288 60.087517 34.611088
8.9623766 60.010056 31.20373
9.0043697 60.045593 30.806505
8.9936199 60.022251 30.3433
8.9676828 59.919033 27.36447
8.9169264 60.067917 34.650974
8.9390783 60.011688 31.262732
8.9713602 60.03698 30.851612
8.9705095 60.025402 30.401535
8.9242926 59.904114 27.394848
8.879406 60.081226 34.682449
8.8921614 60.016403 31.27879
8.9096918 60.025463 30.847231
8.9136362 60.019505 30.403921
8.8666763 59.899128 27.397211
8.7941256 60.071323 34.635399
8.8051844 60.003269 31.233932
8.8273888 60.017391 30.809458
8.7985792 59.905495 27.380333
8.7231388 60.098537 35.130749
8.7547588 60.121315 34.656033
8.7381334 60.019405 31.211493
8.7259884 59.912369 27.352331
8.6486607 60.102043 35.109997
8.6506176 59.911266 27.333063
8.5305481 59.874279 27.263741
8.5517359 59.888042 26.893967
8.5752668 59.822323 23.245344
8.4610453 59.761475 22.855654
8.4701567 59.763161 22.525986
8.4995909 59.787487 22.218468
8.4981203 59.777607 21.885794
7.6670637 59.651501 23.747181
7.5732698 59.649441 23.710789
7.5830598 59.627083 22.688416
7.4605532 59.659779 24.728354
7.4786272 59.632275 23.329838
7.4762902 59.618065 22.983953
7.4985032 59.608994 21.997829
7.4931993 59.581043 21.340132
7.3881974 59.663414 24.717569
7.3973627 59.649017 24.009884
7.4060092 59.646614 23.666706
7.4119821 59.64135 23.324881
7.4152975 59.633236 22.984453
7.4196591 59.614876 22.313261
7.4208031 59.604729 21.982428
7.4251232 59.598274 21.658165
7.4269934 59.589191 21.335203
7.3286977 59.637516 24.011557
7.3373175 59.635185 23.668449
7.3488054 59.636211 23.332222
7.3528104 59.617367 22.652802
7.3565073 59.610046 22.320595
7.3633323 59.606361 21.994991
7.3619871 59.593643 21.665493
7.3633065 59.573071 21.020903
7.2786307 59.617413 23.340904
7.2975259 59.604469 22.340101
7.2873702 59.581966 21.998713
7.3049922 59.579838 21.361795
7.3044701 59.568493 21.040087
7.2256212 59.620373 23.364578
7.2409534 59.614994 22.695765
7.2391324 59.601856 22.358015
7.2290301 59.579571 22.016541
7.2333808 59.573605 21.692266
7.2467508 59.57785 21.379475
7.2405119 59.560261 21.05267
7.1368217 59.615925 23.701544
7.1408381 59.597168 23.013964
7.1640401 59.611786 22.696667
7.1623373 59.598568 22.358992
7.1739182 59.589325 21.708897
7.1702938 59.574337 21.380682
7.1814585 59.576027 21.069004
7.0178418 59.616676 24.370592
7.0539393 59.607883 23.007326
7.0381737 59.578152 22.652386
7.0646281 59.596039 22.341887
7.043498 59.560574 21.990234
7.0708365 59.579685 21.687088
7.0730739 59.570728 21.364275
7.0786338 59.56562 21.047813
6.8929081 59.643429 25.792717
6.9053459 59.643528 25.431391
6.9095421 59.634468 25.065586
6.9215608 59.634438 24.713028
6.9427052 59.631588 24.017727
6.9409513 59.616478 23.663719
6.9474378 59.610836 23.322418
6.9568267 59.608616 22.987974
6.9580507 59.59734 22.649433
6.9566507 59.583252 22.31237
6.9752712 59.591846 21.997786
6.9688001 59.572334 21.663502
6.9826365 59.575798 21.351181
6.6916475 59.837265 33.979473
6.7048354 59.813454 32.989178
6.7235169 59.797352 32.043156
6.7241788 59.779816 31.569826
6.7820425 59.726357 28.545181
6.8013964 59.732407 28.154106
6.8073444 59.723392 27.751749
6.815033 59.716591 27.357491
6.8142791 59.700401 26.958704
6.8205781 59.692463 26.574162
6.8237071 59.681129 26.191298
6.8289571 59.672409 25.816202
6.8470721 59.678482 25.460638
6.846334 59.663353 25.088667
6.8587132 59.663277 24.735905
6.8683028 59.660213 24.384506
6.5961161 59.881897 35.571579
6.6237326 59.892708 35.075966
6.6246166 59.872974 34.545563
6.6430769 59.873951 34.054031
6.6389499 59.849216 33.535667
6.6529765 59.845802 33.055622
6.6580796 59.832451 32.570526
6.6681585 59.825169 32.101719
6.6693611 59.808006 31.628012
6.6853476 59.808147 31.184164
6.7417817 59.737335 27.787327
6.7498231 59.73074 27.39287
6.7612615 59.712929 26.615305
6.7756629 59.699337 25.862829
6.5379648 59.872616 35.629303
6.5527368 59.868824 35.111294
6.5627613 59.859932 34.595482
6.6084852 59.892639 34.147438
6.5958805 59.85836 33.614079
6.6058135 59.85046 33.126453
6.6252251 59.853813 32.662266
6.6312013 59.842022 32.185863
6.6235089 59.814857 31.697701
6.6351647 59.810246 31.246574
6.6476574 59.806889 30.804232
6.6659656 59.810474 30.377331
6.5403337 59.896198 35.763458
6.5468421 59.883698 35.22982
6.5573168 59.876156 34.713287
6.5855246 59.889416 34.235439
6.5958652 59.882423 33.737663
6.6108627 59.881126 33.256401
6.5984449 59.848652 32.741646
6.6139736 59.848618 32.278877
6.6160011 59.833393 31.804068
6.6232958 59.824516 31.345327
6.6073847 59.789356 30.861233
6.630619 59.799305 30.440866
6.5107236 59.883144 35.831902
6.5349469 59.891964 35.327526
6.5323534 59.870266 34.788345
6.5607128 59.884521 34.310089
6.5848103 59.894184 33.833572
6.5909252 59.883507 33.337357
6.601809 59.87862 32.857613
6.5990772 59.858437 32.365852
6.6013355 59.844276 31.890461
6.6041102 59.831005 31.424219
6.6123443 59.824257 30.973867
6.6458235 59.742264 27.581123
6.5149841 59.926117 35.951237
6.4956708 59.885387 35.371933
6.5198388 59.895031 34.876614
6.5305567 59.889545 34.368599
6.5653725 59.829369 31.466614
6.5640893 59.812256 31.002275
6.447103 59.927204 35.953629
6.4410892 59.901665 35.396561
6.4610114 59.90633 34.893711
6.4853668 59.916412 34.407459
6.502893 59.835835 31.475939
6.3081985 59.87513 35.830956
6.3676896 59.924561 35.385918
6.3833146 59.923733 34.875721
6.279645 59.93288 35.327755
6.1895409 59.914543 35.235088
6.1557822 59.933804 35.230286
6.1157351 59.924622 35.236317
6.1167884 59.906872 34.704746
6.150363 59.822372 31.293558
6.083972 59.924442 35.271973
6.0805402 59.902096 34.732822
6.1184478 59.826176 31.32719
6.0329061 59.914951 35.270451
6.0515637 59.918392 34.767971
6.0706272 59.8232 31.332535
6.0876775 59.71159 27.473431
6.0015416 59.928886 35.283279
6.0240636 59.821785 31.323174
5.9623013 59.926086 35.271832
5.9963131 59.835526 31.332407
5.892385 59.894894 35.242443
5.8968081 59.883076 34.718002
5.9236636 59.804081 31.304932
5.8379955 59.896198 35.263866
5.8604326 59.905098 34.768639
5.8703203 59.807014 31.325367
5.7832689 59.89777 34.75573
5.7983098 59.803848 31.320244
5.5859914 59.795734 35.609406
5.6918426 59.899731 35.246529
5.7254248 59.807472 31.309078
5.5165358 59.795979 35.573986
5.6266212 59.904724 35.218601
5.6398835 59.787788 31.254581
5.4484119 59.79285 35.553753
5.3754702 59.792667 35.573151
5.3113513 59.788887 35.618004
5.4041905 59.877548 35.233078
5.2775693 59.788689 35.669548
5.3705544 59.877892 35.284386
5.402143 59.783142 31.339504
5.2560134 59.779675 35.69178
5.366467 59.889606 35.336002
5.3730321 59.773129 31.353073
5.3479505 59.883293 35.355793
5.3565769 59.775951 31.378223
5.259007 59.844505 35.31789
5.2989817 59.774071 31.391575
5.2002177 59.861904 34.827808
5.2008004 59.759007 31.369291
5.0489135 59.68148 31.246689
5.0885105 59.712463 30.845491
5.1296148 59.745342 30.45219
5.1088066 59.707909 29.979326
4.9527273 59.639919 31.158792
5.0157704 59.697678 30.792395
5.0079718 59.674866 30.331614
5.020576 59.675529 29.906727
4.9615297 59.568668 28.545107
4.9899755 59.563141 27.358484
5.0233722 59.530022 25.103647
5.0698757 59.560135 24.42877
5.0865107 59.567902 24.090036
4.9470239 59.651779 30.289352
4.9951129 59.605911 27.007315
5.0279722 59.619789 26.269777
5.0373211 59.618938 25.90004
4.9721456 59.522961 25.082565
4.9667344 59.505928 24.712633
4.9854641 59.516277 24.373264
4.9851933 59.505322 24.017971
4.9931002 59.503716 23.675495
4.9928198 59.493008 23.328835
5.0310349 59.466518 21.048117
4.9063025 59.548725 26.954916
4.9367223 59.571846 26.601454
4.9381166 59.56229 26.218462
4.9258041 59.537411 25.825132
4.9740953 59.581104 25.505449
4.8914189 59.477135 25.04471
4.896358 59.472198 24.686848
4.8984551 59.464191 24.330494
4.9195795 59.477745 23.998425
4.9271755 59.476177 23.65616
4.948709 59.490406 23.331861
5.0011907 59.539543 23.041309
4.9627404 59.439274 21.030516
4.843905 59.538994 26.963783
4.8535132 59.538673 26.585629
4.8757887 59.552814 26.227339
4.8793693 59.545975 25.852112
4.8692636 59.523834 25.466591
4.8399177 59.480152 25.065346
4.8719258 59.50581 24.736479
4.8525906 59.473717 24.3566
4.8683877 59.481342 24.018639
4.8815808 59.486153 23.681843
4.8866544 59.481934 23.340714
4.9169064 59.506145 23.028315
4.9448624 59.527859 22.716619
4.9311237 59.502815 22.36842
4.9486303 59.512985 22.053509
4.9480505 59.493656 21.401115
4.9181685 59.450962 21.054417
4.768177 59.529545 26.965603
4.7831101 59.535095 26.593699
4.7897925 59.531471 26.217089
4.7934146 59.524536 25.842072
4.7993131 59.520317 25.474665
4.7861934 59.494785 25.091108
4.7968798 59.496258 24.738724
4.7830873 59.470264 24.364666
4.7990217 59.477909 24.026711
4.8123522 59.482738 23.68992
4.8230925 59.48476 23.354336
4.8312573 59.483997 23.019999
4.8760271 59.524498 22.724726
4.856801 59.493153 22.371195
4.8687439 59.496948 22.051117
4.8612208 59.478985 21.716623
4.8797483 59.490368 21.409222
4.8615136 59.460606 21.072556
4.701293 59.530136 26.953327
4.6849484 59.500183 26.54443
4.7176104 59.525826 26.198843
4.6947584 59.488853 25.793774
4.7270074 59.514294 25.456701
4.7191834 59.49461 25.079193
4.7244544 59.489857 24.72105
4.7160296 59.469791 24.3529
4.7319393 59.477299 24.015013
4.7507396 59.488178 23.683907
4.7504334 59.47765 23.33724
4.7418561 59.457939 22.986645
4.7752781 59.485596 22.680937
4.7670908 59.466557 22.338573
4.7675624 59.457371 22.008371
4.7769022 59.458252 21.689922
4.7953129 59.469414 21.382816
4.7654595 59.426506 21.036415
4.6062808 59.530602 28.068005
4.6159906 59.494354 26.491632
4.6220751 59.489849 26.115782
4.6303897 59.488018 25.747564
4.6410618 59.488991 25.38682
4.6381421 59.474758 25.015715
4.6537948 59.481632 24.669636
4.6613183 59.479462 24.319038
4.6606226 59.468151 23.96418
4.6681137 59.466202 23.622131
4.6784811 59.467609 23.286974
4.6807113 59.459972 22.947613
4.6915131 59.462097 22.620462
4.6829467 59.442551 22.278564
4.6887107 59.439232 21.954052
4.7034154 59.446064 21.641134
4.7100859 59.443962 21.324131
4.7201543 59.445774 21.013332
4.5392017 59.50169 26.818928
4.5585208 59.511761 26.454046
4.5486574 59.488953 26.059996
4.5619621 59.492519 25.698076
4.5883508 59.511021 25.355391
4.579917 59.490303 24.978422
4.5738077 59.472366 24.609159
4.602736 59.494125 24.281874
4.6073251 59.488533 23.932766
4.598175 59.467587 23.573933
4.6027694 59.462269 23.233463
4.6102934 59.460369 22.899851
4.626462 59.468319 22.578291
4.6514859 59.486328 22.268383
4.6289206 59.45092 21.917433
4.6263752 59.438148 21.589113
4.6385183 59.441986 21.277489
4.6483669 59.443344 20.966909
4.4435883 59.520073 27.952072
4.4414964 59.504929 27.544928
4.4462523 59.497753 27.152311
4.4529281 59.492935 26.767653
4.4877281 59.520164 26.421568
4.4778161 59.496872 26.027678
4.4804945 59.488018 25.653864
4.4907875 59.487938 25.293604
4.5035691 59.490818 24.940649
4.491981 59.466293 24.565813
4.5044985 59.469162 24.221592
4.5307307 59.487644 23.895639
4.5325012 59.47863 23.548222
4.5315504 59.466682 23.202314
4.5390296 59.464375 22.868851
4.5439534 59.459301 22.53669
4.5463376 59.451492 22.205873
4.5461965 59.440956 21.876442
4.549242 59.434124 21.553581
4.5727677 59.45042 21.252325
4.5653305 59.432014 20.926828
4.3581481 59.519733 28.327085
4.3695431 59.519444 27.931166
4.3824639 59.508209 27.144262
4.3892045 59.503185 26.759607
4.4084225 59.512489 26.39506
4.4089665 59.500774 26.013554
4.4010963 59.479702 25.627787
4.4166646 59.485348 25.273682
4.4294333 59.487965 24.92087
4.4232326 59.469269 24.551989
4.4412031 59.478054 24.213572
4.4510956 59.47784 23.870634
4.4583201 59.474747 23.529026
4.4684253 59.475033 23.1943
4.4536953 59.447433 22.839071
4.4697413 59.454674 22.517944
4.4777474 59.452965 22.192575
4.4832931 59.448597 21.868443
4.486393 59.441593 21.545586
4.4813342 59.425522 21.218973
4.5141015 59.452095 20.928827
4.3117576 59.526814 28.322731
4.3129101 59.514984 27.9139
4.3106127 59.499435 27.506968
4.3305912 59.509373 27.133415
4.337183 59.504284 26.748758
4.3406119 59.495781 26.365755
4.3303895 59.471981 25.972298
4.3433466 59.474617 25.610928
4.3587427 59.480164 25.256886
4.3659778 59.47662 24.898268
4.3865514 59.4883 24.558529
4.3773332 59.466446 24.19125
4.3870244 59.466103 23.848454
4.4050527 59.475296 23.518154
4.3984227 59.456795 23.166891
4.3890224 59.43531 22.817331
4.4104819 59.448742 22.501709
4.4295993 59.459633 22.186991
4.4350524 59.455242 21.862783
4.4266629 59.435394 21.529568
4.4271755 59.425682 21.208101
4.2797866 59.484158 26.71615
4.2880359 59.481449 26.339497
4.3037338 59.487331 25.976564
4.2953482 59.466114 25.59095
4.310442 59.471619 25.236965
4.3173709 59.468033 24.878414
4.3160434 59.455265 24.515551
4.3226848 59.451637 24.165808
4.3429933 59.463566 23.834452
4.3497605 59.460339 23.492979
4.3538771 59.454254 23.15288
4.3609324 59.451599 22.81963
4.3486156 59.427258 22.471607
4.3673992 59.438042 22.157099
4.3668408 59.427174 21.827896
4.3751798 59.426426 21.510401
4.3754187 59.416676 21.189009
4.2068362 59.497433 27.869547
4.2090564 59.48748 27.469168
4.2294011 59.486145 26.70499
4.2218204 59.465618 26.309908
4.2162113 59.447506 25.922886
4.2391944 59.461903 25.573784
4.2594385 59.473331 25.225796
4.2554779 59.457546 24.855516
4.2647381 59.456844 24.504381
4.2821136 59.465431 24.166077
4.2749791 59.446499 23.806324
4.2925191 59.455521 23.476219
4.2909169 59.443092 23.130688
4.3033423 59.446587 22.803013
4.2964549 59.428459 22.46043
4.2981834 59.420151 22.130062
4.2973905 59.409122 21.801086
4.3226166 59.427448 21.499212
4.3169842 59.411198 21.172764
4.1298852 59.498707 28.251284
4.1404734 59.497921 27.85568
4.1477699 59.49358 27.461718
4.1672411 59.503223 27.088272
4.1681237 59.491959 26.69754
4.1709957 59.483124 26.314743
4.1759872 59.476856 25.939732
4.183228 59.473289 25.572344
4.1928449 59.472565 25.21242
4.2049623 59.474812 24.859798
4.2034869 59.461842 24.496943
4.2154269 59.464161 24.152918
4.2027864 59.438881 23.787598
4.2312813 59.460133 23.468782
4.2352262 59.453823 23.128757
4.2365365 59.444672 22.79015
4.2408385 59.439011 22.458359
4.2313199 59.417915 22.117357
4.2418461 59.419495 21.798874
4.2671094 59.437737 21.49692
4.2615118 59.421398 21.170401
4.0585389 59.494225 28.232256
4.0893893 59.516239 27.862427
4.0865922 59.500206 27.455647
4.0855169 59.486328 27.057102
4.1018581 59.492382 26.685266
4.0942931 59.471508 26.290268
4.1202664 59.488796 25.939739
4.1381869 59.497108 25.584282
4.1319566 59.478241 25.206366
4.1333804 59.468197 24.842028
4.153501 59.479427 24.50247
4.143795 59.457108 24.135437
4.1585045 59.462494 23.798492
4.1595998 59.452648 23.451593
4.1635208 59.446125 23.111719
4.1703839 59.443043 22.778688
4.1803041 59.443523 22.452326
4.1821108 59.434986 22.121891
4.1870694 59.430115 21.798054
4.2009945 59.435432 21.485762
4.2011428 59.425369 21.164379
3.997566 59.490044 28.220104
4.0080528 59.488884 27.824703
4.0254717 59.495773 27.443624
4.0088701 59.464241 27.026335
4.0302148 59.475937 26.660973
4.0381751 59.472618 26.284594
4.0483317 59.471954 25.915859
4.0555124 59.468079 25.548613
4.0650702 59.467045 25.188831
4.0717587 59.462917 24.830494
4.0647821 59.443501 24.462074
4.0874782 59.457741 24.129761
4.0912056 59.450695 23.781528
4.1087303 59.459347 23.451488
4.1015649 59.440285 23.100546
4.1139412 59.443378 22.773014
4.1238313 59.443787 22.44665
4.1143217 59.422478 22.105663
4.1191854 59.417469 21.781975
4.1330185 59.422653 21.46983
4.1388116 59.4189 21.153654
3.9760232 59.507389 27.845476
3.9576442 59.473869 27.41975
3.9665265 59.471466 27.034021
3.9722321 59.465633 26.649906
3.9956911 59.480076 26.291996
3.9952462 59.467609 25.910988
3.9916794 59.451778 25.531748
4.0116992 59.462772 25.183954
4.0074997 59.446541 24.813902
4.0165339 59.445408 24.462978
4.039135 59.459717 24.130587
4.0537167 59.465099 23.793562
4.0381393 59.436607 23.429886
4.0529194 59.442471 23.101147
4.0540414 59.433067 22.762691
4.052546 59.420841 22.425699
4.0484495 59.405819 22.09021
4.0815067 59.432682 21.792675
4.0781875 59.418755 21.46492
4.0781169 59.408592 21.14369
3.9023855 59.482655 28.218908
3.9297304 59.488712 27.442276
3.9179757 59.463192 27.031191
3.9287097 59.463326 26.653275
3.9572847 59.483799 26.301422
3.9514813 59.465538 25.914209
3.9530916 59.455826 25.540892
3.9623535 59.454906 25.181103
3.9687471 59.450893 24.822758
3.9668772 59.437702 24.460121
3.9729965 59.433659 24.110588
3.9873307 59.439007 23.773773
3.9990695 59.441551 23.438154
4.0137768 59.447552 23.109264
4.0092368 59.432011 22.765238
4.0188589 59.432526 22.438866
4.0090666 59.411327 22.097879
4.0136638 59.406422 21.774187
4.0215306 59.405293 21.456905
4.0327744 59.408054 21.145849
3.8532243 59.467014 27.81896
3.8804853 59.485722 27.450544
3.8841491 59.477867 27.058199
3.8897545 59.472378 26.673807
3.8922007 59.463482 26.291077
3.8967757 59.457153 25.91613
3.9195275 59.471508 25.56679
3.9341962 59.476864 25.212643
3.9353104 59.467064 24.848089
3.9335003 59.454113 24.485165
3.9560261 59.468723 24.152481
3.9431124 59.443539 23.786961
3.9438107 59.433819 23.440058
3.9584446 59.439907 23.111166
3.9314914 59.399345 22.745449
3.9577594 59.418743 22.435415
3.9591556 59.410297 22.105049
3.9921176 59.437397 21.807283
3.9829645 59.417316 21.474174
3.9884884 59.413815 21.157841
3.8020399 59.482925 28.245197
3.8224258 59.493759 27.862333
3.8191943 59.47802 27.455481
3.8228524 59.470257 27.063135
3.8284521 59.464859 26.67874
3.8361251 59.461971 26.302145
3.8407316 59.455772 25.927126
3.8582091 59.464252 25.571724
3.8515022 59.445583 25.193872
3.8739817 59.45998 24.853022
3.8667526 59.441013 24.48431
3.8674448 59.431122 24.128845
3.8817687 59.43671 23.791887
3.8879793 59.433281 23.450552
3.8804388 59.414513 23.099602
3.9092216 59.436707 22.788332
3.918865 59.437481 22.461737
3.9090874 59.416557 22.120522
3.9193852 59.418289 21.801804
3.9273028 59.41745 21.484222
3.9213657 59.401173 21.157707
3.7394826 59.474327 28.238413
3.7564688 59.469387 27.448826
3.765202 59.467445 27.06282
3.7551684 59.444447 26.659813
3.7783873 59.459202 26.301828
3.7829506 59.453026 25.926807
3.7791581 59.437569 25.547421
3.7882934 59.436852 25.187626
3.7945604 59.433041 24.829277
3.8033907 59.432251 24.478205
3.7931087 59.410069 24.111385
3.8127737 59.421741 23.780283
3.8354304 59.43689 23.455797
3.8500893 59.443142 23.12676
3.8399088 59.421589 22.777159
3.8382139 59.409695 22.440012
3.8339176 59.395 22.104366
3.8497646 59.40303 21.791073
3.8632958 59.408554 21.478767
3.8630347 59.398705 21.157379
3.6848373 59.470905 27.816919
3.696614 59.47221 27.429417
3.6897151 59.452549 27.024673
3.7054026 59.458614 26.65295
3.712847 59.455509 26.276489
3.7277706 59.461006 25.913734
3.7291758 59.451385 25.540344
3.7222068 59.432465 25.162714
3.7551994 59.458763 24.833763
3.7423689 59.433525 24.459352
3.7537475 59.435711 24.115454
3.7679324 59.441177 23.778488
3.7629647 59.425205 23.426022
3.7663195 59.418728 23.086212
3.7726288 59.415695 22.753244
3.7763879 59.409904 22.421595
3.7663097 59.388691 22.080761
3.7933657 59.409279 21.778002
3.7953751 59.401852 21.455444
3.8121941 59.411133 21.149355
3.5750718 59.521748 30.732939
3.6081913 59.467793 27.783634
3.6198425 59.468708 27.396332
3.6231394 59.460331 27.004333
3.6387796 59.466099 26.632673
3.6461771 59.462692 26.256285
3.6452372 59.45002 25.875422
3.6411777 59.43399 25.49633
3.6500533 59.432724 25.136816
3.6668246 59.440506 24.790445
3.6700559 59.433144 24.433737
3.670454 59.422729 24.078569
3.6844931 59.427818 23.741886
3.6848993 59.417679 23.395281
3.6992512 59.423359 23.066669
3.6943462 59.40749 22.722948
3.6923797 59.395054 22.386183
3.7273748 59.424267 22.087797
3.7147682 59.400101 21.748377
3.716675 59.392349 21.426048
3.7276478 59.394875 21.115135
3.4963057 59.561218 32.095932
3.5055947 59.542439 31.172718
3.4921281 59.512779 30.697144
3.5131688 59.52269 30.278402
3.5599699 59.471077 26.995993
3.586061 59.488392 26.636719
3.5726514 59.461147 26.235699
3.5769668 59.45414 25.861036
3.5782359 59.443851 25.488008
3.5978541 59.454449 25.140326
3.5986094 59.443878 24.776279
3.5910287 59.424049 24.4081
3.6077261 59.431759 24.070259
3.6163313 59.43047 23.727945
3.6388309 59.444958 23.40365
3.6255713 59.419292 23.047394
3.6541653 59.440868 22.736298
3.6411438 59.41573 22.388569
3.6423445 59.406719 22.058437
3.6523917 59.407764 21.740088
3.6596217 59.395718 21.101809
3.4089668 59.603764 34.554996
3.4278688 59.577847 33.059521
3.4267132 59.561264 32.567924
3.439836 59.561272 32.10685
3.4583318 59.567661 31.661663
3.4681902 59.564434 31.211308
3.4500966 59.529587 30.728622
3.485801 59.556286 30.330063
3.5190704 59.489925 27.025684
3.5348845 59.495689 26.653818
3.5215158 59.468582 26.252724
3.5416863 59.479591 25.896152
3.5377963 59.463547 25.516855
3.5361483 59.450203 25.145296
3.5530095 59.457909 24.798849
3.5455005 59.438248 24.430519
3.5622687 59.446121 24.092529
3.5544891 59.426445 23.733173
3.5879915 59.453419 23.420061
3.5636604 59.415375 23.05275
3.564292 59.405575 22.714659
3.596019 59.430874 22.410072
3.5972822 59.422012 22.079782
3.5903425 59.404053 21.745703
3.5979774 59.40258 21.428558
3.3606992 59.647655 35.20396
3.34233 59.610573 34.644135
3.3682911 59.624554 34.167465
3.3672602 59.607937 33.65641
3.3845384 59.612534 33.183624
3.374438 59.586132 32.677208
3.3878055 59.586788 32.215652
3.3829427 59.566906 31.735073
3.4023581 59.574944 31.298384
3.4035883 59.562496 30.842808
3.4201996 59.56778 30.416534
3.4087305 59.541351 29.9583
3.422786 59.544155 29.542442
3.4878638 59.507999 25.991245
3.4894629 59.498451 25.617464
3.4889648 59.475643 24.880831
3.4869759 59.462498 24.517937
3.4820819 59.446228 24.156723
3.3148086 59.642677 35.277225
3.305572 59.616611 34.73175
3.3273244 59.626266 34.247368
3.3356435 59.620846 33.750381
3.330292 59.600101 33.24123
3.3481259 59.606068 32.777256
3.3478308 59.591621 32.293976
3.3432109 59.572506 31.812983
3.3533435 59.570423 31.362053
3.359535 59.564087 30.913054
3.366653 59.559021 30.472849
3.369956 59.549835 30.034578
3.3743927 59.542145 29.604975
3.3900392 59.547367 29.197117
3.4122679 59.560226 28.803936
3.4302506 59.499218 26.039007
3.4425364 59.50211 25.677048
3.445879 59.473843 24.582359
3.2492385 59.640812 35.307442
3.2581499 59.635426 34.791267
3.2623501 59.624947 34.277348
3.2845988 59.635365 33.801956
3.2888517 59.6255 33.306847
3.3025415 59.626659 32.835342
3.3120499 59.623302 32.365795
3.3032463 59.599339 31.877304
3.3043356 59.586891 31.412081
3.3205194 59.591846 30.9765
3.3184192 59.576229 30.522245
3.3318708 59.578503 30.097128
3.3416886 59.576843 29.673746
3.3429291 59.565659 29.245548
3.3455009 59.556179 28.825882
3.2139192 59.712849 35.389503
3.2380719 59.692482 33.860374
3.2338185 59.672215 33.350437
10.079823 60.201458 38.495152
10.099394 60.2075 37.847378
10.127701 60.22802 37.219505
10.117674 60.18668 36.547985
10.129313 60.180786 35.913784
10.163143 60.211113 35.315685
10.153873 60.171944 34.669819
10.158176 60.155033 34.048904
10.167517 60.146549 33.441414
10.177608 60.139538 32.841694
10.184058 60.126904 32.244373
10.186889 60.108677 31.649527
10.280861 59.924366 22.941229
10.291559 59.922058 22.439758
10.299543 59.915543 21.939808
10.31927 59.852703 19.477886
10.36485 59.727867 14.323627
10.375237 59.709682 13.418326
10.376621 59.677513 12.517083
10.368729 59.647934 12.066094
9.9599104 60.24437 39.141121
9.9947567 60.248928 37.831406
10.025925 60.248753 36.549477
10.049252 60.21262 34.654575
10.077842 60.141312 31.629889
9.8594007 60.300819 39.138412
9.8311405 60.201576 37.740688
9.7474117 60.225101 36.43652
9.5831833 60.272087 39.011868
9.5835428 60.219296 37.658031
9.6244183 60.209381 35.747833
9.4199171 60.197781 38.230648
9.4719105 60.205017 36.315109
9.3088579 60.260777 38.896065
9.160903 60.202087 38.152229
8.8741665 60.203945 38.697311
8.7209597 60.175518 38.624252
8.1774492 60.177143 38.415798
7.8889813 60.146294 38.273125
6.8238673 59.990494 39.143333
6.5554605 60.02953 39.080681
6.4141321 60.028629 39.027428
6.0973454 59.996235 38.909161
6.0943494 59.927395 37.557343
5.9317794 59.97049 38.831944
5.9524593 59.977692 38.188606
5.7727036 59.94606 38.765152
5.8114777 59.988037 38.15292
5.5902982 59.912971 39.352779
5.6141243 59.926071 38.708447
5.4422197 59.918125 39.309635
5.3081851 59.925472 38.607456
5.1093678 59.877625 39.17094
5.1539402 59.931667 38.565434
4.9710121 59.908661 39.155899
4.7858906 59.842056 39.050903
4.8296552 59.895439 38.446777
4.6498432 59.880722 39.039265
4.4924378 59.868366 38.985695
4.4796872 59.808247 38.284088
4.338994 59.868637 38.947151
4.1409984 59.770493 38.818699
4.1866207 59.82972 38.223396
4.0236335 59.834225 38.832127
4.0484776 59.851078 38.199841
3.8491673 59.793358 38.753574
3.877085 59.816795 38.128323
3.6629503 59.76685 39.336967
3.6906617 59.789543 38.70385
3.7149684 59.805527 38.073006
3.5313718 59.77787 38.647083
3.335448 59.725506 39.215694
3.3692384 59.76162 38.596363
3.1769097 59.724323 39.177109
3.2104952 59.760242 38.558262
3.0339234 59.753971 39.159119
3.0542395 59.761372 38.515633
3.081068 59.783337 37.893139
2.8574102 59.710838 39.080601
2.8905067 59.746181 38.462849
2.6945307 59.699989 39.03751
2.7111797 59.699448 38.389248
2.5367169 59.694977 39.000729
2.3792322 59.692867 38.960022
2.386034 59.67041 38.294067
2.2191074 59.694244 38.915894
2.0554104 59.685825 38.868359
2.0778923 59.698509 38.234505
1.8898855 59.667294 38.816669
1.7193213 59.63385 38.75177
1.5419757 59.632393 39.365795
1.5547612 59.622604 38.706066
1.3647968 59.6045 39.296764
1.3956987 59.637119 38.675499
1.2056293 59.61105 39.258636
9.9946709 59.791206 21.921164
9.9834223 59.771091 21.5814
9.9814224 59.760998 21.253107
9.9888687 59.761131 20.935863
9.9480429 59.849613 24.761328
9.9497252 59.834469 24.042456
9.9491386 59.825512 23.688074
9.957243 59.825996 23.345976
9.9626999 59.823727 23.005167
9.9539032 59.806232 22.655241
9.9540443 59.798431 22.31728
9.9633331 59.800537 21.990877
9.9642563 59.793747 21.660624
9.9626732 59.784344 21.331709
9.9645634 59.778748 21.009016
9.9188833 59.853672 24.847445
9.9187775 59.845413 24.483932
9.9214411 59.840229 24.127537
9.9212847 59.832115 23.772631
9.9240694 59.827248 23.424639
9.9241352 59.819557 23.078077
9.933115 59.821514 22.743456
9.9336987 59.814548 22.404886
9.9375486 59.811165 22.072805
9.9447746 59.811478 21.747026
9.9376831 59.796524 21.412554
9.9280338 59.778912 21.079599
9.8890648 59.886871 26.029043
9.8926802 59.882572 25.654583
9.8988304 59.881104 25.28746
9.9020357 59.876564 24.921827
9.9023132 59.86898 24.557728
9.9053555 59.86446 24.20075
9.9284067 59.881508 23.867117
9.8972445 59.840462 23.485886
9.8976088 59.833344 23.138872
9.9010744 59.829636 22.798567
9.9077559 59.829453 22.464788
9.9060221 59.820328 22.127159
9.9194012 59.827473 21.806028
9.9185238 59.819416 21.476028
9.9211092 59.815144 21.152256
9.9212694 59.808346 20.829731
9.8421412 59.982327 29.277784
9.8406172 59.97123 28.852066
9.8512592 59.973408 28.447268
9.8478842 59.96059 28.031616
9.8144112 59.906555 27.187939
9.8166761 59.900223 26.796667
9.8157034 59.890518 26.40711
9.8499908 59.918884 26.060602
9.8705196 59.932533 25.70327
9.8715191 59.925266 25.329826
9.8863096 59.932934 24.975061
9.8757544 59.913456 24.599094
9.8848381 59.91518 24.24715
9.8911619 59.914032 23.896538
9.8430796 59.854576 23.49876
9.8609543 59.866016 23.167561
9.870512 59.868614 22.832132
9.8716688 59.862278 22.492739
9.8819532 59.86581 22.164928
9.9069891 59.877876 21.522636
9.8980398 59.861027 21.188444
9.9045181 59.860767 20.870178
9.7331047 60.159939 37.04528
9.7702255 60.186874 36.545982
9.7594023 60.110878 33.884262
9.7733431 60.113911 33.404594
9.7684011 60.096615 32.906021
9.7932634 60.111912 32.458145
9.733119 59.929878 27.559164
9.7442217 59.932194 27.172407
9.75214 59.931194 26.787178
9.762351 59.932793 26.409491
9.7969599 59.960812 26.062754
9.816247 59.911186 23.17337
9.615799 60.08968 34.768505
9.6571503 60.121315 34.31414
9.6511126 60.050716 31.852203
9.6758499 59.964375 27.54245
9.6817493 59.960342 27.149529
9.6898079 59.958782 26.764305
9.7001562 59.959827 26.38662
9.5379553 60.082321 34.729
9.6027966 60.139359 34.310551
9.6008415 59.956284 27.513319
9.6174002 59.963573 27.132793
9.6145878 59.95005 26.735592
9.63029 59.95668 26.364069
9.571085 60.133816 34.351128
9.5218773 59.906528 27.494373
9.570467 59.948833 27.150768
9.5892887 59.959076 26.777594
9.577796 59.936722 26.37594
9.6190958 59.906071 23.477894
9.52036 60.081005 34.369766
9.5381575 59.929615 27.194592
9.5515385 59.9347 26.815186
9.5672865 59.942448 26.44318
9.5965252 59.964828 26.090202
9.569355 59.87505 23.503332
9.4724426 60.058651 34.390965
9.4784622 59.902599 27.202402
9.5079975 59.925495 26.841181
9.5018826 59.910133 26.445169
9.558465 59.962322 26.121832
9.4969721 59.838593 23.501019
9.4216967 60.06889 34.391724
9.4223213 59.906048 27.196054
9.435545 59.911339 26.816719
9.4511385 59.919289 26.444784
9.491231 59.95369 26.103672
9.4002934 59.79808 23.456945
9.357893 60.086796 34.355698
9.367878 59.926678 27.174488
9.3865242 59.937412 26.801176
9.391221 59.933239 26.417244
9.3227987 59.790119 23.413956
9.2962418 60.117447 34.335125
9.2963123 59.937698 27.141911
9.3095036 59.942085 26.762703
9.3196011 59.943264 26.384941
9.2854424 59.833263 23.415226
9.2244978 60.118786 34.314201
9.219161 59.928352 27.117069
9.243165 59.944153 26.750113
9.2423668 59.933319 26.360518
9.2078972 59.821018 23.392574
9.1786404 60.117138 34.335361
9.1800795 59.935936 27.142176
9.193346 59.940247 26.76297
9.1980534 59.935455 26.379255
9.1584215 59.818417 23.404749
9.1243429 60.098961 34.371685
9.1286736 59.925079 27.176268
9.1421003 59.929775 26.796928
9.1415024 59.919495 26.407112
9.125782 59.82988 23.453466
9.0370417 60.064812 34.371922
9.0594215 59.910217 27.197863
9.056778 59.897591 26.800428
9.0835886 59.916805 26.440645
9.0412951 59.798534 23.458841
8.9406672 60.055134 34.334763
9.0152349 60.024612 30.157495
8.9799757 59.910286 27.184347
8.9720583 59.891495 26.781021
8.982584 59.892727 26.403555
8.9517517 59.783283 23.436031
8.8659372 60.085964 34.308643
8.8805466 59.902103 27.128984
8.8942471 59.905975 26.750217
8.904851 59.906643 26.372894
8.8689032 59.786629 23.401266
8.775548 59.990509 30.881041
8.8158979 59.923061 27.113909
8.829545 59.915009 26.345909
8.799758 59.797478 23.380928
8.716713 60.102123 34.276768
8.7399893 59.913292 27.106577
8.748477 59.910763 26.721928
8.7303534 59.792534 23.380421
8.6416159 60.076618 34.29055
8.6721067 59.897671 27.127388
8.675313 59.889538 26.736706
8.6861782 59.889839 26.359673
8.6695013 59.78553 23.406534
8.5876837 60.062752 34.33799
8.5977468 59.976082 30.966171
8.63311 59.904182 27.18376
8.6420393 59.902458 26.798767
8.6423435 59.891563 26.409378
8.6105108 59.772678 23.437654
8.533329 60.063637 34.377056
8.5767574 59.987133 30.146727
8.567626 59.892681 27.201317
8.5658951 59.879429 26.804237
8.5717373 59.874512 26.420959
8.5280962 59.813751 23.146379
6.7063074 59.55727 22.933878
6.7229137 59.553982 22.270987
6.7215176 59.542122 21.936319
6.7228346 59.523129 21.281261
6.6013036 59.620369 25.76421
6.6052308 59.612461 25.392981
6.6116867 59.60743 25.029112
6.6263981 59.611431 24.678112
6.6270466 59.600437 24.317162
6.636126 59.598652 23.968885
6.6367416 59.587906 23.616497
6.646029 59.586605 23.276434
6.6526589 59.582573 22.93766
6.6508393 59.569603 22.594975
6.6696868 59.578911 22.274483
6.6626301 59.560566 21.934582
6.6588178 59.545822 21.601297
6.6702313 59.547489 21.28433
6.4580822 59.823616 33.931896
6.4699888 59.803352 32.950085
6.5268335 59.701065 28.092905
6.5286846 59.689503 27.687162
6.5377665 59.685963 27.29561
6.5489478 59.684868 26.911793
6.5515232 59.674648 26.523497
6.5508547 59.661102 26.136936
6.5634437 59.662033 25.769836
6.5730481 59.659904 25.404152
6.5741196 59.648727 25.034184
6.5777717 59.640488 24.671543
6.589766 59.64138 24.321667
6.5933137 59.633316 23.967571
6.5997405 59.62849 23.620434
6.6034245 59.62085 23.274693
6.604382 59.610413 22.930391
6.6200514 59.615898 22.603281
6.6215439 59.606289 22.266922
6.6145525 59.587704 21.926886
6.622612 59.585373 21.603491
6.6163473 59.567814 21.27141
6.4109931 59.933102 36.591293
6.3727293 59.836414 34.898251
6.380444 59.827351 34.387772
6.425962 59.859962 33.94381
6.4532661 59.872906 33.479874
6.4427295 59.844772 32.968529
6.4663062 59.854191 32.515427
6.446671 59.81673 32.008919
6.4223561 59.774483 31.505199
6.4432282 59.78175 31.071955
6.5022745 59.730499 27.701712
6.4953933 59.709583 27.291327
6.5119166 59.714176 26.913462
6.5090647 59.697998 26.518934
6.5138106 59.690208 26.138197
6.5318928 59.696983 25.776762
6.3382668 59.868683 34.942516
6.3462625 59.859898 34.431652
6.3453364 59.760178 31.485289
6.3959851 59.799889 31.092789
6.4031568 59.792461 30.647587
6.4215956 59.797527 30.224255
6.25739 59.880405 34.969078
6.270504 59.877098 34.465263
6.2724085 59.779697 31.5175
6.3184862 59.81432 31.118046
6.1837225 59.860062 34.992405
6.2250657 59.887833 34.531849
6.244482 59.810257 31.602293
6.2662129 59.818455 31.168444
6.2841558 59.822754 30.736231
6.1790872 59.879856 35.069473
6.1879263 59.872643 34.557899
6.2313995 59.824966 31.661722
6.2482767 59.828419 31.220646
6.1713848 59.875801 35.10817
6.1658769 59.854012 34.574642
6.1970196 59.799065 31.663948
6.241075 59.819225 30.803667
6.1099091 59.829594 35.086472
6.1413846 59.8489 34.610882
6.1322231 59.754734 31.643896
6.1980877 59.812885 31.270834
6.2055926 59.807999 30.824398
6.219306 59.810032 30.393209
6.0614281 59.845772 35.110905
6.0743117 59.844856 34.606277
6.1158752 59.792583 31.246328
6.1282578 59.793011 30.806864
6.1367922 59.789471 30.369221
5.9423509 59.835773 35.031879
5.9691124 59.849232 34.549435
6.0104556 59.791496 31.192183
6.0227952 59.791199 30.753109
6.0276647 59.694386 27.360926
5.8007922 59.821468 35.422405
5.8270311 59.833225 34.931511
5.886219 59.881325 34.500084
5.817512 59.712357 31.455088
5.9225574 59.812027 31.137474
5.736208 59.833363 35.364029
5.7852364 59.869865 34.909637
5.8021522 59.871433 34.413303
5.7696018 59.740421 31.426085
5.7747273 59.61993 27.546892
5.7002778 59.839512 35.357861
5.7350841 59.86084 34.881615
5.7796516 59.893112 34.428551
5.7063766 59.720173 31.385288
5.800879 59.80854 31.054201
5.807374 59.801254 30.609072
5.7284093 59.621418 27.533367
5.640101 59.810333 35.349648
5.6746192 59.831917 34.87352
5.7189074 59.864429 34.420582
5.6686368 59.720047 31.412086
5.7531381 59.797943 31.067312
5.7594943 59.791019 30.622112
5.6902118 59.625134 27.5583
5.6107593 59.8297 35.413406
5.6270299 59.831593 34.907841
5.6480231 59.838921 34.418747
5.6170969 59.717354 31.438213
5.6966858 59.790134 31.086599
5.7081223 59.788986 30.648027
5.6500993 59.63699 27.595648
5.510808 59.797295 35.377644
5.5408716 59.814224 34.894222
5.5852876 59.847099 34.441322
5.545876 59.715759 31.446358
5.6155853 59.777763 31.081251
5.6320915 59.782066 30.649509
5.5481639 59.601551 27.566385
5.4526782 59.816006 35.37648
5.4688268 59.817612 34.871212
5.4943767 59.829784 34.389622
5.4680147 59.712151 31.417419
5.5525031 59.790218 31.072765
5.5388198 59.761597 30.600836
5.4795289 59.60722 27.551725
5.3497396 59.787193 35.260628
5.3697615 59.792885 34.763325
5.450819 59.8657 34.368683
5.4085636 59.729427 31.375769
5.4379516 59.747356 30.956829
5.4436297 59.739658 30.512535
5.4070053 59.60873 27.498909
5.4886913 59.5709 23.475571
5.2936387 59.828968 35.229218
5.2996097 59.818752 34.710167
5.3366532 59.750156 31.323986
5.3608189 59.761997 30.898462
5.3330436 59.623524 27.449064
5.117208 59.761745 35.565765
5.1868029 59.820732 35.140659
5.2248883 59.845264 34.672832
5.1504569 59.665913 31.597725
5.2522497 59.634777 27.407808
5.0475984 59.768116 35.527668
5.1353607 59.846985 35.131878
5.1455722 59.840626 34.620556
5.0742798 59.663464 31.554289
5.1802254 59.764053 31.237539
5.1940527 59.748913 30.348867
5.0009184 59.762638 35.509026
5.0699487 59.821259 35.084068
5.0702949 59.804512 34.558575
5.1337132 59.747688 30.76738
5.0505414 59.854557 35.649815
5.0039015 59.648323 30.646599
5.0779219 59.715092 30.2978
4.9476862 59.542831 27.261116
5.0389776 59.629723 26.970732
5.0420132 59.620872 26.582813
5.0747862 59.55397 23.31608
4.9328518 59.596462 26.928104
4.935699 59.587284 26.540672
4.9515882 59.592434 26.172945
4.9590292 59.588562 25.800653
4.9668636 59.517624 23.278454
4.7978172 59.526134 26.847912
4.8109832 59.528133 26.473505
4.821075 59.526947 26.100554
4.8608646 59.558155 25.764637
4.8617764 59.479294 23.240044
4.920042 59.53141 22.950935
4.9391642 59.509716 21.628159
4.8269696 59.378483 21.20755
4.7442956 59.49366 25.697666
4.7938604 59.458111 22.884935
4.8091974 59.464111 22.559799
4.8278632 59.473812 22.240932
4.8266177 59.462116 21.907656
4.8286633 59.45409 21.580872
4.7022524 59.419899 22.850456
4.7287912 59.438274 22.536301
4.6949277 59.391529 22.170954
4.7106323 59.398422 21.854012
4.7239566 59.402836 21.538069
4.6218753 59.383205 22.156261
4.6330628 59.375362 21.508535
4.63201 59.364426 21.184065
4.5424399 59.390171 22.477352
4.5470757 59.374592 21.817051
4.5533614 59.361237 21.172199
4.4617963 59.399948 22.807617
4.4700098 59.377052 21.812756
4.4715428 59.368347 21.487253
4.3846183 59.386059 22.78524
4.3993483 59.391392 22.461281
4.3922658 59.362827 21.791046
4.3936148 59.354012 21.465769
4.3983717 59.348988 21.146803
4.3255477 59.384518 23.10465
4.33395 59.372967 22.434465
4.3342519 59.36314 22.101421
4.3378086 59.356945 21.77491
4.3388658 59.348156 21.449705
4.3374386 59.336792 21.125847
4.2595248 59.369686 22.755186
4.2832537 59.365414 21.776987
4.2725039 59.344021 21.441631
4.2827315 59.345409 21.127771
4.1940956 59.389565 23.109068
4.18542 59.349522 22.090263
4.2015777 59.347153 21.449076
4.2060199 59.342186 21.130255
4.0990491 59.394772 24.136616
4.1121964 59.387562 23.447651
4.1147027 59.379726 23.105251
4.1202483 59.375309 22.769638
4.1116614 59.355682 22.424829
4.1119428 59.345795 22.092079
4.1446123 59.371109 21.791454
4.1516666 59.368759 21.471216
4.1680803 59.37664 21.162106
4.0354753 59.389591 24.144299
4.0429244 59.376514 23.449841
4.0624652 59.387333 23.12376
4.056603 59.370686 22.777309
4.0652857 59.369942 22.448299
4.059854 59.354 22.110128
4.0634346 59.347946 21.783764
4.0703769 59.345634 21.463751
4.0749002 59.340801 21.144928
3.9974489 59.359566 22.787159
3.9944973 59.346588 22.447601
3.9946852 59.337128 22.114767
4.009778 59.343918 21.798716
4.0034256 59.31823 21.144804
3.9456761 59.338623 22.139826
3.9491255 59.333138 21.813374
3.9559374 59.33139 21.493279
3.9544437 59.320747 21.169395
3.8608255 59.349476 22.81493
3.858021 59.336823 22.475359
3.8619287 59.322159 21.816214
3.8571601 59.307701 21.486158
3.8675015 59.309708 21.172537
3.75757 59.328152 22.127419
3.7497447 59.309628 21.791088
3.7509911 59.301067 21.466473
3.7556376 59.296303 21.14818
3.6364863 59.338974 23.084826
3.6397543 59.320503 22.411148
3.6732099 59.335384 21.779173
3.663023 59.313698 21.444466
3.6795917 59.321224 21.136288
3.5269806 59.403683 25.914478
3.5308952 59.383076 25.171928
3.5420482 59.383087 24.81761
3.5447245 59.362068 24.101862
3.558567 59.365452 23.763079
3.5528407 59.347584 23.409025
3.5669775 59.351551 23.078358
3.5671494 59.340401 22.738142
3.5876188 59.351521 22.420513
3.5826035 59.334961 22.083017
3.580759 59.321983 21.752213
3.611387 59.344494 21.453167
3.6222451 59.34557 21.139788
3.4785123 59.340427 23.754089
3.4839089 59.334969 23.411242
3.5093036 59.351479 23.091494
3.5037482 59.334312 22.74585
3.5126812 59.333088 22.417669
3.5017765 59.310352 22.075109
3.5230048 59.322762 21.765034
3.5244243 59.31369 21.440657
3.5351055 59.314816 21.127579
3.4419987 59.325207 22.776527
3.4337907 59.305614 22.432419
3.4517186 59.314644 22.116034
3.4614701 59.314861 21.795479
3.4454601 59.287132 21.455835
3.4678445 59.301319 21.152882
3.351167 59.364082 24.89365
3.3542092 59.356083 24.534761
3.3599277 59.351154 24.183081
3.3628459 59.343296 23.832855
3.3742456 59.344841 23.49515
3.4000142 59.362198 23.175013
3.3777685 59.327244 22.812794
3.3812551 59.320511 22.479103
3.3936887 59.32365 22.157219
3.380491 59.298962 21.81587
3.3937602 59.30323 21.501616
3.4046807 59.305038 21.188396
3.2486737 59.43148 27.953287
3.2554183 59.426155 27.557163
3.2588305 59.417339 27.162746
3.2642343 59.410892 26.776249
3.2717626 59.406948 26.397512
3.2707884 59.393833 26.014353
3.2991314 59.413055 25.668644
3.2920392 59.393536 25.288677
3.3037598 59.394806 24.933804
3.3071218 59.387054 24.574558
3.3075945 59.376286 24.216862
3.305196 59.362511 23.860758
3.3224578 59.37038 23.528357
3.3314936 59.369373 23.19161
3.3265204 59.35318 22.845413
3.330271 59.346645 22.511427
3.3314357 59.337406 22.178808
3.3416178 59.338116 21.857891
3.3377218 59.323586 21.527975
3.3488574 59.32555 21.214535
3.108423 59.623985 35.841526
3.1198368 59.585369 34.266781
3.1231983 59.572651 33.76112
3.1172259 59.54985 33.250664
3.130208 59.548431 32.778076
3.1389432 59.542564 32.307484
3.1290011 59.516228 31.818129
3.1534867 59.528362 31.38632
3.1595111 59.520252 30.935638
3.1516623 59.497025 30.473473
3.195152 59.436783 27.164812
3.2112732 59.441887 26.790552
3.2136509 59.43203 26.405529
3.2397099 59.44838 26.052305
3.2467206 59.443939 25.682331
3.2289195 59.412403 25.290413
3.2407448 59.413563 24.935471
3.2552564 59.417812 24.58762
3.2503517 59.400906 24.224052
3.2592783 59.399307 23.878984
3.2654886 59.394863 23.535265
3.2746577 59.393787 23.198376
3.2812097 59.389969 22.862774
3.2794335 59.377167 22.523203
3.298039 59.386761 22.206026
3.2853131 59.362244 21.86408
3.2931941 59.360344 21.544161
3.298661 59.355919 21.225426
3.1005163 59.657921 34.327236
3.1127639 59.638416 33.331303
3.1164238 59.610538 32.358509
3.121279 59.600384 31.889425
3.121933 59.585831 31.422472
3.1086082 59.55603 30.944101
3.1255612 59.560081 30.515495
3.1437836 59.565758 30.095272
3.1483448 59.556515 29.663441
