# .PCD v0.7 - Point Cloud Data file format
VERSION 0.7
FIELDS x y z
SIZE 4 4 4
TYPE F F F
COUNT 1 1 1
WIDTH 1596
HEIGHT 1
VIEWPOINT 0 0 0 1 0 0 0
POINTS 1596
DATA ascii
21.570427 51.048519 39.731186
19.065485 50.903233 39.74229
16.968168 50.67963 39.83075
15.569731 50.593616 39.728161
14.307638 50.556221 39.772213
13.398081 50.395344 39.869137
14.743965 50.710003 4.8010545
14.804749 50.764816 4.4213276
14.336539 50.753777 5.5393567
14.344655 50.744038 5.156209
14.338156 50.716118 4.7721825
14.360793 50.724518 4.391335
12.18355 50.344482 39.843132
13.908856 50.725597 5.5019827
13.922964 50.723545 5.1217685
13.397066 50.607876 5.8294888
13.498767 50.718319 5.462935
13.494221 50.692543 5.0827198
13.013679 50.627388 5.7939057
13.084002 50.698799 5.4251933
13.073283 50.664886 5.0464144
12.596648 50.595448 5.7568607
12.666199 50.66716 5.3902826
12.215628 50.60677 5.7311463
26.569799 51.599628 4.4644375
26.567072 51.612679 4.2661543
26.562891 51.624779 4.0677481
26.534206 51.710377 2.6717868
26.510084 51.709236 2.4735889
26.631893 51.583832 7.6975002
26.63578 51.601673 7.4973359
26.638203 51.618542 7.2971511
26.639162 51.634426 7.0969605
26.638662 51.649338 6.8967805
26.645016 51.66877 6.6973858
26.641596 51.681732 6.4971852
26.634264 51.591354 8.9378166
26.6224 51.598988 8.7318478
26.63378 51.621845 8.530901
26.635422 51.638283 8.3283997
26.635576 51.653713 8.1259861
26.634245 51.66814 7.9236765
26.63143 51.681561 7.721487
26.627136 51.693977 7.5194325
28.537199 51.62701 26.909962
28.488081 51.625305 26.491053
28.45402 51.632107 26.094154
28.415834 51.635967 25.699333
28.373556 51.636913 25.30665
26.64712 51.590664 10.413064
26.62993 51.595093 10.199798
26.611122 51.598385 9.9871511
26.598886 51.605907 9.7771997
26.601467 51.623089 9.5716753
26.586105 51.628445 9.3625422
26.56918 51.632702 9.1539297
26.60829 51.673809 8.9578533
28.431065 51.638454 27.256533
28.398695 51.646973 26.849369
28.3685 51.656311 26.450899
28.308218 51.647072 26.02832
28.256523 51.64249 25.621286
28.193993 51.630871 25.210258
26.660889 51.569824 12.148094
26.648951 51.578255 11.927548
26.643335 51.590706 11.710456
26.652159 51.612495 11.499317
26.635159 51.617374 11.280407
26.600283 51.610477 11.057062
26.612301 51.634151 10.84965
26.598404 51.640804 10.63511
26.58287 51.646305 10.421153
26.557564 51.645309 10.205571
26.538774 51.64851 9.9929209
26.502029 51.639812 9.7767973
26.480009 51.640713 9.5656128
26.440008 51.629669 9.3513327
26.414799 51.6283 9.1416864
28.311857 51.664547 27.215996
28.260015 51.661179 26.789289
28.190777 51.646774 26.351873
28.142771 51.644653 25.943407
28.083965 51.63549 25.530828
28.020823 51.623192 25.120796
27.959991 51.611797 24.719707
27.9216 51.613605 24.34622
27.852623 51.596306 23.949989
27.743061 51.577713 23.201904
26.637728 51.618259 12.610058
26.637304 51.634369 12.391031
26.627186 51.644073 12.169451
26.647388 51.673489 11.960086
26.62586 51.675575 11.736609
26.534681 51.663757 11.066061
26.490011 51.650208 10.841202
26.459806 51.646049 10.622375
26.427916 51.640671 10.40447
26.394352 51.634087 10.18751
26.383581 51.642452 9.9779339
26.346745 51.633518 9.7626591
26.308271 51.623394 9.5483847
26.284546 51.622944 9.3388987
26.251055 51.615932 9.1283064
28.112619 51.644249 27.098379
28.040884 51.628475 26.652891
27.996475 51.628696 26.243292
27.928362 51.614014 25.816389
27.888281 51.615864 25.424589
27.863817 51.626789 25.054155
27.776184 51.598682 24.628517
27.710617 51.583549 24.23103
27.687731 51.594143 23.879539
27.634424 51.585659 23.505228
27.570539 51.570229 23.127155
27.536852 51.573009 22.781538
26.633614 51.646114 13.538184
26.624556 51.656975 13.309939
26.371185 51.652916 11.047643
26.334518 51.644417 10.826182
26.304234 51.640018 10.608192
26.280382 51.639774 10.39344
26.238642 51.627586 10.175007
26.2115 51.624966 9.9619913
26.182745 51.621178 9.7497883
26.152384 51.616238 9.5384159
26.112257 51.604702 9.326004
26.103264 51.613815 9.1218367
27.930309 51.637123 27.004051
27.864435 51.624428 26.566233
27.8067 51.616135 26.144384
27.76387 51.616421 25.744717
27.703875 51.605724 25.334345
27.63957 51.591881 24.926535
27.603945 51.595169 24.553036
27.564516 51.595699 24.181547
27.527987 51.597607 23.818323
27.447489 51.571938 23.420275
27.389896 51.559971 23.049343
27.355742 51.562126 22.704752
26.19239 51.631748 11.026847
26.163713 51.628277 10.808951
26.125267 51.618217 10.589562
26.117533 51.628452 10.380531
26.083879 51.621376 10.165244
26.072966 51.629345 9.9573584
26.019793 51.609062 9.7396421
25.997559 51.609314 9.5311699
25.973763 51.60844 9.3233767
25.956587 51.611923 9.118084
27.742002 51.628872 26.898661
27.6628 51.607525 26.448586
27.597952 51.594383 26.021355
27.554354 51.59375 25.622984
27.487129 51.57811 25.207445
27.454742 51.583435 24.833044
27.372477 51.557526 24.416235
27.352047 51.569374 24.0651
27.308117 51.56628 23.69702
27.253748 51.556297 23.32493
27.188847 51.53933 22.949089
27.167645 51.549191 22.617727
27.115885 51.539631 22.264244
27.060598 51.527481 21.912951
26.995153 51.530399 21.262838
25.971815 51.584526 10.989104
26.023556 51.634327 10.797575
25.977009 51.61861 10.57645
25.953016 51.617825 10.363542
25.935507 51.621281 10.153643
25.875832 51.596439 9.9336357
25.887617 51.619343 9.7336788
25.832809 51.597542 9.5178909
25.79266 51.585461 9.3072481
25.808058 51.61063 9.1102829
27.560423 51.620239 26.787273
27.461452 51.586277 26.318296
27.421318 51.587914 25.918779
27.364138 51.57856 25.508383
27.328581 51.582073 25.12639
27.256458 51.5625 24.714426
27.212866 51.560127 24.336922
27.165409 51.554924 23.96158
27.140749 51.563503 23.613262
27.065731 51.540276 23.223732
27.006914 51.526718 22.855131
26.978268 51.531658 22.518881
26.953144 51.538467 22.190289
26.9111 51.534313 21.85162
26.872629 51.532063 21.520699
25.849972 51.601376 10.976718
25.853226 51.618809 10.770775
25.822678 51.613548 10.555468
25.782396 51.601658 10.338775
25.76473 51.604832 10.129891
25.753593 51.612324 9.9237823
25.708447 51.596859 9.7099075
25.6698 51.585659 9.4991837
25.645845 51.58427 9.2932625
25.636658 51.592777 9.09165
27.363073 51.596718 26.657028
27.288624 51.577412 26.216015
27.234991 51.570415 25.804333
27.164164 51.552254 25.382044
27.153622 51.571014 25.027256
27.100401 51.56284 24.635569
27.029999 51.543484 24.233589
27.008253 51.554047 23.884472
26.963083 51.54958 23.518433
26.907516 51.538185 23.148399
26.875122 51.540936 22.804951
26.873194 51.562519 22.493303
25.645813 51.544979 11.144811
25.698475 51.595512 10.9554
25.685465 51.601944 10.74533
25.654751 51.59639 10.531035
25.630465 51.595062 10.319989
25.612658 51.598011 10.111954
25.569002 51.583431 9.8981133
25.564249 51.595036 9.6957312
25.533642 51.589092 9.487751
25.493345 51.576492 9.2787352
25.500317 51.59586 9.081583
27.164755 51.574921 26.538883
27.11491 51.570442 26.125753
27.060711 51.562748 25.715036
27.015038 51.559864 25.319868
26.997591 51.574135 24.959328
26.937447 51.561314 24.562023
26.892832 51.557747 24.186253
26.877359 51.57206 23.844007
26.851866 51.57972 23.49711
26.809566 51.576427 23.139675
25.418875 51.489731 11.103767
25.535288 51.583244 10.936517
25.506092 51.578602 10.7224
25.49938 51.589058 10.516398
25.458895 51.576595 10.30156
25.449043 51.584766 10.096769
25.421494 51.580875 9.8881483
25.392372 51.575829 9.6803465
25.369797 51.575138 9.475359
25.321337 51.556759 9.2653847
25.320066 51.570415 9.0674543
27.015984 51.577747 26.478954
26.965767 51.57283 26.066519
26.923946 51.572647 25.669712
26.89082 51.577435 25.2882
26.853773 51.57933 24.908697
26.851839 51.602859 24.569708
26.794214 51.590988 24.181309
25.288134 51.496674 11.098805
25.388298 51.579487 10.927048
25.359039 51.574673 10.713678
25.34421 51.579548 10.506034
25.303675 51.566875 10.292027
25.245382 51.542011 10.074677
26.898029 51.586006 26.448788
26.879129 51.600708 26.070097
26.843632 51.60458 25.679953
26.804102 51.605461 25.291891
24.819349 51.4118 18.57935
24.773521 51.399879 18.289286
24.732134 51.390671 18.006161
24.695314 51.384274 17.729786
24.698498 51.403107 18.810465
24.647902 51.3881 18.514307
22.869104 51.344009 2.8247099
22.854927 51.346817 2.6464286
22.855421 51.360531 2.4656925
22.846645 51.367393 2.2859461
22.864489 51.383705 3.5456264
22.847376 51.384232 3.3679929
22.853014 51.401646 3.1878381
22.849361 51.412197 3.0082684
22.8524 51.42775 2.8274481
22.83819 51.430504 2.6485565
22.822712 51.432323 2.4696705
22.798021 51.427284 2.2921183
22.935205 51.322742 6.4031854
22.839666 51.409199 4.263659
22.835617 51.419292 4.0853019
22.838326 51.434414 3.9063053
22.678003 51.433563 2.3061357
24.60284 51.334087 24.564991
22.957457 51.304775 8.2141457
22.957108 51.317734 8.0326109
22.947458 51.323895 7.8498154
22.952536 51.340755 7.6698976
22.948318 51.350819 7.4887481
22.942818 51.359924 7.3077555
22.952097 51.37981 7.1289902
22.944046 51.387012 6.9481807
22.945425 51.33012 9.1413755
22.943705 51.342159 8.9567299
22.932703 51.347408 8.7704964
22.936291 51.363228 8.5880928
22.938574 51.378078 8.4057598
22.93158 51.386131 8.2219696
22.947241 51.410694 8.0428209
22.945642 51.422642 7.8607016
22.399101 51.402485 2.505933
22.93903 51.358673 10.091499
22.944141 51.375774 9.9051552
22.932133 51.380394 9.7144985
22.918728 51.383938 9.524334
22.911846 51.392174 9.3367319
22.887762 51.387817 9.145545
22.910975 51.384003 10.865522
22.906065 51.393898 10.672644
22.891909 51.397011 10.477615
22.631939 51.386158 9.3005733
22.615664 51.386948 9.1127968
20.923815 51.103245 16.957073
21.023434 51.093334 19.764065
20.994385 51.088127 19.480911
20.975677 51.090405 19.211046
21.07201 51.178596 19.046667
21.049051 51.177353 18.778212
21.049177 51.118568 21.203796
21.002409 51.101322 20.882063
20.97765 51.100159 20.587206
20.943771 51.091911 20.287767
20.945238 51.109814 20.02647
20.925129 51.111359 19.748121
20.896 51.1059 19.465242
20.88368 51.112808 19.201509
20.908081 51.147121 18.97369
20.897779 51.155174 18.717659
20.839056 51.126518 18.423227
20.830578 51.135517 18.175524
20.793274 51.12254 17.906857
20.731558 51.105671 17.390558
21.000801 51.117435 22.085226
20.939842 51.125984 21.174749
20.892935 51.108395 20.853413
20.88056 51.116329 20.571371
20.865559 51.122051 20.290613
20.841591 51.120796 20.005108
20.827745 51.1269 19.733103
20.811407 51.130901 19.462355
20.792591 51.132809 19.192902
20.777826 51.137554 18.930567
20.74106 51.125454 18.652306
20.728052 51.131092 18.398312
20.692934 51.119781 18.128748
20.662016 51.111423 17.866299
20.979723 51.124733 23.032473
20.829233 51.12307 21.140749
20.844383 51.151909 20.882631
20.807066 51.141144 20.575556
20.78573 51.142105 20.288727
20.761711 51.140785 20.003359
20.747803 51.146839 19.731491
20.705706 51.131374 19.437159
20.686684 51.133083 19.168127
20.65871 51.127789 18.894636
20.628231 51.120354 18.622658
20.60841 51.120785 18.36352
20.541885 51.100552 17.832653
20.916096 51.150497 23.054054
20.862354 51.148743 22.39926
20.832394 51.163471 21.790373
20.797703 51.155624 21.472055
20.753744 51.140491 21.149221
20.737741 51.146057 20.859797
20.712759 51.144596 20.56554
20.678701 51.136013 20.266699
20.635471 51.120213 19.96352
20.614861 51.121231 19.686274
20.598108 51.124931 19.416363
20.585344 51.131428 19.153616
20.55723 51.126053 18.880474
20.513559 51.108601 18.597399
20.493515 51.108891 18.33876
20.464558 51.102169 18.07584
20.446499 51.10355 17.825405
20.823328 51.148045 23.045494
20.806885 51.155277 22.72752
20.781349 51.155388 22.404442
20.758707 51.157337 22.089603
20.739111 51.161255 21.782858
20.692055 51.144234 21.45196
20.660265 51.138351 21.142212
20.619287 51.125233 20.827925
20.600285 51.128387 20.540422
20.57859 51.129242 20.254343
20.560555 51.13261 19.975803
20.508102 51.109627 19.668581
20.491156 51.113297 19.399092
20.478195 51.11977 19.136768
20.443424 51.109417 18.858244
20.406086 51.096851 18.581375
20.379311 51.092098 18.317509
20.350153 51.0853 18.055084
20.338509 51.09169 17.810665
19.219717 51.167717 2.5947049
19.204227 51.165535 2.433671
19.187639 51.162453 2.2726731
20.759193 51.160988 23.06315
20.730831 51.159565 22.731812
20.699213 51.15535 22.402243
20.664366 51.148357 22.074495
20.644554 51.152328 21.768082
20.578951 51.121498 21.418234
20.571497 51.134136 21.134438
20.555195 51.139835 20.845558
20.517456 51.129044 20.5394
20.483074 51.120483 20.241224
20.452194 51.114292 19.950865
20.431314 51.115421 19.674173
20.407887 51.114365 19.398882
20.375494 51.106224 19.119158
20.340519 51.095852 18.841049
20.322512 51.098198 18.581789
20.282541 51.083511 18.306812
20.279547 51.096916 18.067091
20.214125 51.07753 17.546829
20.634573 51.153038 22.714123
20.60873 51.153336 22.3915
20.585779 51.155468 22.077126
20.541574 51.141251 21.744881
20.50634 51.133442 21.427536
20.48035 51.132294 21.124741
20.451477 51.128654 20.823553
20.40727 51.113083 20.511572
20.385172 51.113979 20.226179
20.354099 51.10778 19.936161
20.339371 51.113754 19.665834
20.315784 51.112732 19.390821
20.235201 51.08437 18.821928
20.216965 51.086678 18.563095
20.202951 51.09201 18.311192
20.16041 51.075218 18.038076
20.135206 51.071507 17.783283
19.429874 51.048264 9.4586201
20.535915 51.149231 22.696768
20.474716 51.142506 22.047297
20.454542 51.1465 21.741482
20.407019 51.129478 21.41147
20.380859 51.128288 21.109005
20.358013 51.129311 20.814445
20.319937 51.118458 20.508947
20.304016 51.124165 20.229916
20.25399 51.103596 19.921759
20.23909 51.109539 19.651781
20.202583 51.098705 19.365213
20.176249 51.09539 19.092127
20.140961 51.084949 18.814707
20.11611 51.082268 18.550421
20.108465 51.09259 18.304544
20.065842 51.075771 18.031702
20.427299 51.137829 22.665556
20.401026 51.137951 22.343704
20.377642 51.139915 22.030111
20.345182 51.134666 21.711626
20.297445 51.117481 21.382063
20.271046 51.116146 21.080061
20.235598 51.107616 20.773373
20.222101 51.115505 20.493397
20.174721 51.097252 20.183895
20.149574 51.095673 19.900782
20.115463 51.086956 19.613148
20.097795 51.090572 19.345058
20.07769 51.092075 19.07827
20.048723 51.086517 18.807007
20.023767 51.083801 18.542999
19.996435 51.079014 18.280399
19.960184 51.067097 18.013643
19.928116 51.05817 17.754036
20.329903 51.134636 22.646036
20.247211 51.13129 21.693083
20.199314 51.114021 21.363836
20.160467 51.103279 21.049431
20.155624 51.11816 20.774714
20.110994 51.10236 20.463709
20.075888 51.093521 20.167002
20.044273 51.087051 19.878134
20.028948 51.092812 19.608988
20.004807 51.091541 19.335152
19.978163 51.088089 19.062757
19.949034 51.082462 18.791842
19.923916 51.079678 18.528185
19.896425 51.074821 18.265938
19.8344 51.058937 17.74581
20.204813 51.125645 22.295031
20.180922 51.127468 21.982161
20.147982 51.122059 21.664398
20.111975 51.113964 21.348425
20.091303 51.117237 21.053396
20.055523 51.108646 20.747242
20.023033 51.102253 20.449112
20.000219 51.102974 20.165014
19.981052 51.10622 19.888479
19.940386 51.092648 19.595226
19.890614 51.071747 19.297834
19.870024 51.073067 19.031893
19.840599 51.067307 18.761473
19.828123 51.074421 18.509811
19.806919 51.074554 18.253599
19.763817 51.057446 17.981878
19.737972 51.053497 17.728518
20.14485 51.123245 22.58848
20.111784 51.118603 22.261045
20.069534 51.106586 21.928869
20.048189 51.110142 21.624716
20.011791 51.101864 21.309216
19.978481 51.0956 21.001923
19.936083 51.082031 20.690079
19.915495 51.084873 20.405106
19.886024 51.080589 20.115396
19.853848 51.073929 19.827293
19.812674 51.060024 19.534809
19.806883 51.073162 19.279907
19.773264 51.064537 19.002474
19.749954 51.063629 18.738304
19.724266 51.060631 18.475512
19.702717 51.060604 18.219807
19.665829 51.048405 17.954199
20.035139 51.115131 22.537682
19.99571 51.105606 22.20414
19.959009 51.097778 21.879129
19.925184 51.091774 21.562504
19.906532 51.09705 21.266983
19.878984 51.095188 20.966537
19.848595 51.090816 20.667711
19.809193 51.079185 20.364313
19.779381 51.074619 20.075087
19.753143 51.072521 19.79357
19.730616 51.073009 19.519594
19.692892 51.061451 19.235111
19.665304 51.057465 18.964136
19.641672 51.056293 18.700466
19.615669 51.053032 18.438177
19.58082 51.042622 18.171629
19.556623 51.040276 17.917881
19.530182 51.035942 17.665476
19.891388 51.09285 22.451838
19.863316 51.091717 22.132408
19.844126 51.097038 21.82782
19.822037 51.099804 21.524725
19.766743 51.076687 21.190994
19.750933 51.083618 20.904085
19.707867 51.069206 20.593332
19.680387 51.066509 20.303217
19.6502 51.061409 20.014677
19.623589 51.058788 19.733849
19.594385 51.053871 19.454536
19.568951 51.051605 19.182739
19.54104 51.04715 18.912397
19.517088 51.045521 18.649363
19.510117 51.056919 18.404947
19.737635 51.091133 22.062647
19.706079 51.086555 21.745581
19.677488 51.083916 21.436775
19.658062 51.088032 21.142511
19.605383 51.066078 20.817879
19.586388 51.069889 20.533199
19.570925 51.07616 20.256153
19.540485 51.070511 19.968094
19.507364 51.062473 19.681656
19.496754 51.071716 19.420969
19.477476 51.073952 19.155474
19.627176 51.08073 22.298885
19.604136 51.08271 21.987509
19.584078 51.086662 21.684286
19.555132 51.083401 21.376076
19.494532 51.073784 20.771111
19.48752 51.086647 20.499487
17.508745 50.895573 8.4600592
17.574438 50.959911 9.6339912
17.331869 50.846169 17.052422
17.332134 50.860306 16.838448
17.304838 50.851185 16.603621
17.334303 50.850895 20.923317
17.337362 50.869122 20.663944
17.302954 50.855949 20.366648
17.28343 50.8549 20.090359
17.273237 50.861393 19.828176
17.260677 50.865688 19.567181
17.251781 50.872829 19.313616
17.240627 50.87788 19.061174
17.32011 50.902515 22.469791
17.220293 50.89608 20.96538
17.224224 50.914021 20.705929
17.196678 50.905357 20.414963
17.172277 50.899082 20.132055
17.139418 50.899235 19.596079
17.143278 50.9161 19.354988
16.975887 50.899204 19.326908
16.865732 50.890778 19.852621
16.849077 50.888836 19.586071
16.83 50.884632 19.320873
16.814491 50.883289 19.06324
16.796669 50.879791 18.806894
16.788658 50.884514 18.563957
16.763945 50.877075 20.40819
16.744898 50.884911 19.878063
16.722946 50.877918 19.605339
16.716244 50.883801 19.352894
16.684109 50.878994 18.839104
16.611053 50.872723 19.640627
16.593149 50.868534 19.375732
16.479954 50.859901 19.664934
16.474415 50.865837 19.412867
16.460711 50.864563 19.155659
16.450644 50.866276 18.905888
16.438354 50.865917 18.657282
15.707632 50.802994 6.623302
15.69732 50.799744 6.4762535
15.537011 50.781391 3.4230816
15.528161 50.779419 3.2774184
15.525656 50.783295 3.1303947
15.522181 50.786289 2.9831967
15.525002 50.795101 2.8343158
15.534086 50.809704 2.6835053
15.520407 50.803349 2.5372891
15.527472 50.816139 2.3857822
15.781904 50.768246 10.950486
15.642864 50.816162 6.6596994
15.618091 50.799568 6.5112667
15.534108 50.805882 4.4756694
15.532145 50.810024 4.330133
15.529236 50.813309 4.1845031
15.532722 50.822479 4.0379825
15.527917 50.824039 3.892112
15.522163 50.824734 3.7461812
15.522779 50.831299 3.5991333
15.515121 50.830261 3.4530294
15.521111 50.841801 3.3044162
15.52611 50.852451 3.155442
15.522837 50.855495 3.0075336
15.525856 50.864361 2.8579597
15.52062 50.865627 2.7096484
15.521647 50.872692 2.5595231
15.521668 50.878849 2.409097
15.484597 50.850731 2.2676072
16.111401 50.840088 18.962282
15.771513 50.803204 11.995706
15.625416 50.843998 7.5756383
15.606789 50.832905 7.4246159
15.609215 50.840942 7.2775102
15.603333 50.841412 7.1293936
15.59649 50.840992 6.9814911
15.59605 50.846394 6.8346801
15.587296 50.844208 6.6871524
15.599693 50.861309 6.5419502
15.519753 50.868919 4.497685
15.510697 50.866379 4.3521557
15.522731 50.88324 4.2045979
15.519121 50.885723 4.0581861
15.514563 50.887341 3.911701
15.509053 50.888088 3.7651539
15.99202 50.833214 18.962864
15.759475 50.840519 13.090892
15.758185 50.84597 12.91482
15.748766 50.844082 12.735291
15.851262 50.81916 18.695074
15.123308 50.802361 2.2373509
15.106632 50.856228 2.2376328
14.665994 50.735229 2.2230735
14.66191 50.808754 2.246676
13.652884 50.66964 12.026723
13.621634 50.631653 11.211546
13.624081 50.632469 11.056471
13.522905 50.627586 11.083083
13.517828 50.620735 10.925393
13.511633 50.612823 10.768277
13.518004 50.617058 10.617947
13.509632 50.607067 10.461859
13.50704 50.602673 10.30932
13.421307 50.627396 11.416025
13.4151 50.616699 11.099624
13.410309 50.609745 10.942252
13.418011 50.61491 10.791844
13.424685 50.619095 10.641693
13.416646 50.609035 10.485754
13.407509 50.597927 10.330431
13.324512 50.617748 10.9682
13.312152 50.603085 10.808262
13.319074 50.607189 10.658457
13.304482 50.590393 10.499788
13.219081 50.611217 11.299727
13.216036 50.605194 11.142274
13.21187 50.598103 10.985375
13.220142 50.603161 10.8355
13.213799 50.593983 10.679589
13.206353 50.583755 10.524278
13.225158 50.599133 10.381493
13.213943 50.579445 9.9283991
13.108053 50.599621 11.320166
13.118787 50.606655 11.169852
13.115016 50.599503 11.013108
13.110131 50.591286 10.856931
13.10414 50.582008 10.701335
13.110651 50.584991 10.552495
13.116149 50.586998 10.403934
13.106957 50.574657 10.249838
13.012068 50.602703 11.342917
13.016441 50.603069 11.189369
13.0063 50.589191 11.029522
13.002852 50.578068 10.721566
13.003607 50.563629 10.120447
12.902182 50.592407 11.504508
12.901197 50.587074 11.347407
12.912461 50.593861 11.197712
12.902577 50.579807 11.03818
12.904999 50.577923 10.885918
12.899611 50.568367 10.730883
12.906668 50.571102 10.582652
12.905925 50.566181 10.431675
12.904138 50.560253 10.281156
12.803721 50.592628 11.672133
12.804085 50.588264 11.514759
12.809971 50.589405 11.361431
12.808112 50.582905 11.205028
12.811833 50.581959 11.052536
12.809354 50.570343 10.745567
12.809879 50.566326 10.594398
12.704803 50.570045 11.214959
12.715393 50.575653 11.066177
12.71156 50.566975 10.911044
12.713351 50.563911 10.759699
12.714092 50.559834 10.60878
12.617783 50.585106 11.703501
12.618584 50.580677 11.546533
12.623467 50.575207 11.23763
12.612583 50.549137 10.772959
12.521689 50.57555 11.717827
12.5279 50.565666 11.252693
12.432373 50.577 11.887983
12.346141 50.556454 11.422284
12.345154 50.549805 11.267007
12.252265 50.560543 11.73562
12.25361 50.555954 11.579547
12.15696 50.557735 11.894747
12.069071 50.558746 12.058937
11.647888 50.502251 5.5421586
26.391949 51.693863 3.1036632
15.305572 50.635632 39.968269
14.182313 50.538761 39.963142
14.070053 50.506889 39.885994
11.833653 50.391872 39.897224
10.916396 50.31934 39.941597
26.336451 51.689098 3.0029995
26.349466 51.711609 2.7981122
26.506929 51.57629 8.0953674
26.507154 51.590481 7.8900771
26.505867 51.603664 7.6848974
26.511391 51.621269 7.4809871
26.507093 51.632446 7.2759895
26.509623 51.648067 7.0721197
26.502323 51.657242 6.8673677
26.493525 51.665413 6.6628056
26.483231 51.672585 6.4584489
28.313494 51.590908 27.166468
28.219984 51.586441 26.324245
28.212225 51.6068 25.952223
28.13496 51.585194 25.517473
28.105976 51.592037 25.136578
26.49645 51.560345 9.996686
26.485956 51.568027 9.7833319
26.47385 51.5746 9.5704517
26.45191 51.574726 9.356142
26.42835 51.57373 9.1425114
26.411432 51.576984 8.9313278
26.483805 51.638374 8.7389832
26.488642 51.655777 8.53269
26.491955 51.672157 8.326458
26.477179 51.676685 8.1174927
28.127251 51.600033 27.079309
28.08215 51.598766 26.657976
28.045519 51.602108 26.252146
27.98509 51.590706 25.828999
27.926729 51.580063 25.414913
27.799202 51.574215 24.256807
26.507601 51.568623 11.756842
26.50234 51.580238 11.536836
26.511557 51.601139 11.322694
26.502934 51.610447 11.103524
26.443901 51.587002 10.86978
26.45623 51.609722 10.659495
26.426228 51.604908 10.437531
26.39451 51.598877 10.216492
26.369265 51.59697 9.998579
26.350548 51.599232 9.783555
26.313791 51.589649 9.5651588
26.27537 51.57888 9.3477659
26.25997 51.58308 9.1369076
26.234753 51.580791 8.9248257
27.897919 51.588169 26.952801
27.845587 51.58218 26.526182
27.801624 51.580753 26.115211
27.746834 51.572323 25.700058
27.687662 51.560772 25.287413
27.657095 51.566132 24.909176
27.571016 51.560493 24.14617
26.497051 51.608524 12.909836
26.500648 51.62627 12.686835
26.494522 51.637653 12.461123
26.494623 51.652981 12.239009
26.280916 51.603752 10.860621
26.252516 51.599857 10.638921
26.222397 51.594742 10.41813
26.182425 51.583084 10.196
26.157061 51.580891 9.979352
26.121866 51.572163 9.761405
26.101381 51.573002 9.5484676
26.062889 51.561928 9.3323421
26.039177 51.56049 9.1209221
26.022097 51.563347 8.9119568
26.027719 51.651043 7.691278
27.688837 51.583447 26.846876
27.642225 51.580612 26.428041
27.591177 51.574612 26.0116
27.561684 51.581264 25.623625
27.488983 51.56115 25.199015
27.41835 51.541809 24.783621
26.053818 51.575916 10.83187
26.033346 51.577026 10.614035
26.01932 51.582291 10.399296
25.971123 51.564987 10.176068
25.961929 51.573273 9.9650564
25.918505 51.55891 9.7461033
25.897917 51.559525 9.5343533
25.875734 51.559013 9.3232679
25.851963 51.557381 9.1128674
25.843025 51.565506 8.906683
27.475882 51.566719 26.724287
27.434776 51.567047 26.313381
27.350752 51.540684 25.865322
27.32667 51.55048 25.48543
27.266077 51.537479 25.075211
27.20117 51.521366 24.66758
27.125095 51.520908 23.922684
26.285141 51.62941 14.059175
26.258423 51.627968 13.816435
25.823643 51.540245 10.797664
25.875731 51.589172 10.603319
25.821047 51.567509 10.377557
25.797077 51.566048 10.162324
25.763332 51.558025 9.9456854
25.752367 51.565022 9.7363243
25.707199 51.549236 9.5193739
25.684883 51.548542 9.3093977
25.64463 51.535831 9.0964136
25.660105 51.560173 8.8967972
27.271875 51.553093 26.603672
27.197954 51.533184 26.160822
27.16423 51.537434 25.766901
27.081139 51.51086 25.329525
27.084536 51.537106 24.985353
26.999289 51.508251 24.559614
26.975517 51.516949 24.199976
26.817421 51.508957 22.755487
26.744101 51.506393 22.069244
26.709253 51.505753 21.734806
26.712717 51.528851 21.436689
26.671593 51.523682 21.105522
26.090534 51.618546 14.014464
26.063456 51.616795 13.772862
25.657207 51.546661 10.77931
25.644367 51.552689 10.56628
25.621817 51.552185 10.351471
25.60573 51.555901 10.1397
25.571804 51.547649 9.9241676
25.528099 51.532772 9.7075052
25.50717 51.533009 9.4980583
25.492821 51.537575 9.2912111
25.444267 51.519173 9.0774956
25.49221 51.565357 8.8861256
26.998564 51.523582 26.047703
26.951153 51.519245 25.641821
26.899487 51.51181 25.238289
26.843599 51.501297 24.83717
26.829346 51.516205 24.483126
26.778601 51.508041 24.09915
26.717274 51.492855 23.711252
26.718689 51.516449 23.387548
26.703543 51.529392 23.052837
26.671604 51.531498 22.707575
26.656647 51.54393 22.382029
26.611181 51.536877 22.03438
25.860531 51.600262 13.725262
25.458509 51.531223 10.75042
25.453489 51.542416 10.541016
25.414579 51.530876 10.322593
25.390169 51.528934 10.109821
25.36414 51.525826 9.8978376
25.344622 51.527 9.6887617
25.307272 51.516121 9.4763041
25.284595 51.515015 9.2687235
25.260366 51.512791 9.0618315
25.291727 51.547977 8.8679724
26.812408 51.525318 25.947971
26.757889 51.516293 25.536562
26.750614 51.536221 25.179684
26.707302 51.533302 24.792105
26.673059 51.535629 24.419479
26.667913 51.55579 24.080374
26.639566 51.561077 23.72393
26.620977 51.57214 23.381653
26.578897 51.568081 23.02268
25.269823 51.521721 10.723986
25.256531 51.527279 10.513237
25.24164 51.531685 10.30307
25.217083 51.529507 10.091231
25.15856 51.504337 9.8714285
26.699202 51.552219 26.28661
26.686611 51.569519 25.913363
26.625479 51.556068 25.495773
26.60499 51.567596 25.126343
26.587229 51.580456 24.765112
22.732012 51.3279 2.8089423
22.734495 51.342487 2.6259604
22.735649 51.356129 2.4426329
22.73547 51.368824 2.2589743
22.719208 51.370644 3.7113757
22.728214 51.389721 3.5291882
22.711849 51.390083 3.3488548
22.710239 51.401363 3.166954
22.707327 51.411701 2.9848394
22.70311 51.421101 2.802525
22.681623 51.417706 2.6222322
22.682785 51.431137 2.4385438
22.634861 51.408104 2.2621851
24.410816 51.313583 24.842323
22.824306 51.306866 7.5223775
22.820024 51.316032 7.3390107
22.830523 51.33593 7.1579413
22.815609 51.337318 6.9737592
22.823534 51.355328 6.792624
22.830179 51.372402 6.6113462
22.67947 51.419834 4.2529578
22.585289 51.423084 3.1719971
22.494688 51.416817 2.2719133
24.111498 51.307053 23.640009
22.805939 51.322102 8.8304758
22.810946 51.338085 8.6455956
22.822607 51.358879 8.4624453
22.816999 51.367104 8.2760296
22.81805 51.380142 8.0913734
22.817787 51.392197 7.9068213
22.816212 51.403278 7.7223878
22.400965 51.384911 3.3677676
22.415556 51.407806 3.185715
22.369108 51.397087 2.829128
22.292337 51.351578 2.6583977
22.278 51.352837 2.4794993
22.262396 51.353161 2.3006151
23.90678 51.291523 23.532764
23.840193 51.28754 22.839684
23.804922 51.283684 22.499157
22.769264 51.349613 9.7918835
22.736193 51.350487 9.4052029
22.713572 51.346405 9.2117424
22.705397 51.352776 9.0228386
22.759386 51.404434 8.8490562
22.336002 51.391014 4.2737732
22.325026 51.394627 4.0951686
22.296808 51.38533 3.9176254
22.283346 51.38707 3.739337
22.268637 51.387875 3.5611401
22.252682 51.387745 3.3830478
22.227518 51.380695 3.2059205
22.224998 51.390671 3.0262995
22.205305 51.387737 2.8485167
22.192308 51.389851 2.6697867
22.178051 51.391029 2.4910562
22.162533 51.391266 2.3123393
22.035112 51.306938 2.1527731
23.856075 51.316078 24.571239
23.794859 51.296093 24.175575
23.766924 51.298275 23.821918
23.716597 51.284855 23.450584
23.694078 51.290001 23.113745
23.655499 51.283844 22.765839
23.61344 51.274956 22.41993
23.567928 51.263351 22.076069
23.518892 51.267971 21.443502
23.457672 51.263042 20.817499
22.561539 51.339207 9.3968153
22.538916 51.334877 9.2042799
22.522799 51.335247 9.0143785
23.653292 51.29987 24.478994
23.616385 51.295937 24.110954
23.557076 51.276287 23.725235
23.531345 51.279221 23.381092
23.495876 51.275127 23.03227
23.469608 51.277008 22.698158
23.408098 51.254299 22.334225
23.394342 51.264133 22.022696
23.3517 51.253738 21.687887
23.318781 51.249741 21.367306
22.425558 51.341549 9.5910149
22.412281 51.343922 9.4006548
22.35788 51.327988 9.0156736
23.484011 51.30706 24.428312
23.434629 51.294167 24.047655
23.38133 51.278164 23.669317
23.349123 51.276291 23.319424
23.319695 51.275982 22.977884
23.267878 51.259853 22.619015
23.231554 51.254082 22.28137
23.191887 51.245659 21.945646
23.187634 51.261517 21.648977
23.148098 51.252571 21.322941
23.105377 51.241093 20.998829
23.092375 51.250053 20.706556
23.0634 51.247604 20.40379
23.031549 51.242878 20.102659
22.198198 51.325985 9.0201979
23.282879 51.288132 24.332577
23.226868 51.270241 23.946337
23.179237 51.257725 23.575726
23.165201 51.268112 23.246494
23.116564 51.254158 22.886501
23.089548 51.254868 22.554285
23.046545 51.244118 22.211172
23.044918 51.261906 21.913891
23.001841 51.250469 21.580656
23.081181 51.260975 24.215237
23.067356 51.272049 23.876791
23.050171 51.280453 23.539894
23.023432 51.281872 23.198074
22.993294 51.280579 22.858036
21.061623 51.163036 19.05673
21.019634 51.147476 18.768908
20.98159 51.134613 18.488522
20.947622 51.124569 18.215399
20.917854 51.117451 17.949354
20.892418 51.11338 17.690205
20.864672 51.107368 17.432436
20.841431 51.104553 17.181337
20.832279 51.095413 18.905199
20.842085 51.118568 18.664536
20.803564 51.105183 18.385202
20.775761 51.099632 18.118683
20.725521 51.076927 17.837202
20.715303 51.067436 19.390413
20.703249 51.074577 19.125282
20.68228 51.074791 18.855572
20.658859 51.072929 18.587227
20.633009 51.069012 18.320278
20.61138 51.068066 18.060318
20.980179 51.176697 22.515112
20.910355 51.162376 21.85457
20.882925 51.160305 21.539927
20.72846 51.06287 21.100424
20.706671 51.064278 20.80307
20.688349 51.068012 20.51342
20.667316 51.06945 20.225189
20.662672 51.082966 19.956575
20.636393 51.079956 19.671089
20.62677 51.089268 19.404881
20.569426 51.062298 19.098917
20.541727 51.057457 18.823996
20.524609 51.060398 18.561983
20.771982 51.06583 22.993259
20.83367 51.13142 22.760431
20.815063 51.136982 22.441654
20.78731 51.135391 22.117897
20.713655 51.099121 21.75061
20.679342 51.091911 21.430828
20.629553 51.072762 21.100208
20.607685 51.074253 20.803055
20.589281 51.078075 20.513611
20.555553 51.070076 20.213327
20.518982 51.059647 19.914778
20.530693 51.085442 19.665915
20.475964 51.060741 19.358559
20.457087 51.062923 19.08843
20.69314 51.085808 22.999899
20.676985 51.093639 22.680529
20.645706 51.089832 22.34947
20.623301 51.092323 22.0333
20.597847 51.092205 21.718733
20.563223 51.084881 21.399414
20.531696 51.079556 21.088261
20.503408 51.076363 20.785114
20.465981 51.065971 20.477419
20.444523 51.067348 20.189943
20.414047 51.061634 19.897865
20.393595 51.063244 19.619408
20.35775 51.052914 19.330505
20.332123 51.050083 19.055023
20.297485 51.040146 18.775232
20.587175 51.093338 22.977345
20.570786 51.101059 22.658302
20.533291 51.092602 22.320965
20.504576 51.090382 21.998653
20.460554 51.076298 21.66514
20.425529 51.068638 21.346487
20.3936 51.062984 21.036001
20.3587 51.054771 20.727262
20.333357 51.05349 20.432713
20.305244 51.049824 20.139723
20.28705 51.053417 19.860458
20.247177 51.040253 19.564577
20.236559 51.049107 19.300135
20.083696 51.02927 17.706026
20.470907 51.098106 22.949728
20.4424 51.096676 22.617731
20.392654 51.078876 22.2677
20.369621 51.080856 21.952578
20.349636 51.084816 21.645536
20.29612 51.063068 21.307989
20.300905 51.085182 21.036064
20.247395 51.062767 20.708639
20.196945 51.042324 20.389614
20.187387 51.052708 20.115637
20.169004 51.056122 19.836784
20.135344 51.0476 19.547306
20.105383 51.041634 19.265434
20.092123 51.048206 19.002712
20.063564 51.04282 18.729616
20.032522 51.035271 18.458035
20.005558 51.030621 18.193644
19.982796 51.02898 17.936266
19.951136 51.020256 17.674725
19.937082 51.024914 17.430965
20.351244 51.095074 22.917822
20.322519 51.093437 22.586271
20.266609 51.070873 22.230068
20.261396 51.086319 21.935089
20.223063 51.076344 21.608948
20.193783 51.072899 21.297548
20.155373 51.062183 20.981508
20.120115 51.053543 20.673626
20.10685 51.061386 20.392363
20.059639 51.042999 20.081697
20.034698 51.041355 19.797325
20.000778 51.032555 19.508459
19.976942 51.031219 19.233137
19.963434 51.037586 18.970976
19.915281 51.017033 18.681072
19.909901 51.029198 18.43313
19.869694 51.014259 18.157944
19.164349 51.022652 9.3085251
19.156757 51.027851 9.1373672
19.155567 51.038204 8.9686403
20.223974 51.079617 22.869099
20.182981 51.068737 22.524782
20.13261 51.05035 22.175894
20.144995 51.079277 21.901209
20.094254 51.059887 21.562572
20.046291 51.042236 21.232538
20.013542 51.035843 20.923643
20.002579 51.045795 20.641607
19.957897 51.029652 20.329781
19.935282 51.030113 20.044491
19.922625 51.03796 19.77281
19.882141 51.024143 19.478357
19.85803 51.022652 19.203524
19.837826 51.023922 18.935997
19.802305 51.013119 18.658232
19.783701 51.015144 18.399286
19.756268 51.010109 18.13596
19.145578 51.051105 10.021338
20.101059 51.064476 22.815359
20.053673 51.048813 22.464954
20.050577 51.066456 22.169601
20.002617 51.049599 21.829618
19.981586 51.052925 21.52417
19.927179 51.030399 21.188196
19.9063 51.03318 20.892534
19.894995 51.043018 20.61091
19.837585 51.017151 20.287081
19.820829 51.022217 20.008486
19.795221 51.020199 19.725153
19.754335 51.006115 19.43133
19.748917 51.019154 19.174929
19.722002 51.015335 18.90197
19.679722 50.999344 18.618916
19.667229 51.006207 18.366264
19.639481 51.000996 18.103447
19.980118 51.05571 22.758259
19.95598 51.057693 22.435141
19.928713 51.056931 22.11368
19.892336 51.048851 21.787382
19.852795 51.037983 21.462971
19.810114 51.024349 21.140495
19.801092 51.036232 20.858059
19.770956 51.03159 20.558018
19.737991 51.02446 20.259642
19.702223 51.014854 19.962976
19.66367 51.002792 19.668062
19.653975 51.012787 19.404945
19.610115 50.99604 19.11331
19.59553 51.001743 18.852852
19.56575 50.995396 18.582022
19.539988 50.991924 18.318436
19.51837 50.991451 18.061916
19.487938 50.983864 17.80113
19.85651 51.057816 22.708895
19.832058 51.059345 22.38629
19.780664 51.039856 22.038916
19.749828 51.035755 21.719948
19.72196 51.033592 21.409214
19.691126 51.028812 21.100155
19.651228 51.016708 20.786474
19.626808 51.016239 20.493515
19.605848 51.018154 20.208302
19.588488 51.022583 19.930666
19.543478 51.005272 19.630095
19.514582 51.000183 19.349461
19.49581 51.002712 19.082245
19.455462 50.988163 18.798767
19.444628 50.996395 18.546009
19.412182 50.987503 18.277203
19.390305 50.986641 18.021254
19.366163 50.983784 17.766619
19.352905 50.989254 17.524334
19.337555 50.992886 17.283134
19.326761 50.999916 17.04841
19.7145 51.048622 22.652063
19.677952 51.040565 22.316744
19.638124 51.029602 21.983351
19.613003 51.029613 21.67157
19.578873 51.022331 21.354942
19.572042 51.035847 21.072184
19.513737 51.009174 20.739857
19.482937 51.003487 20.441219
19.474077 51.014565 20.169094
19.450289 51.01376 19.885859
19.417624 51.00576 19.598036
19.375986 50.990459 19.305872
19.363327 50.997543 19.045208
19.348339 51.002571 18.785725
19.331039 51.005566 18.527454
19.311445 51.006531 18.270432
19.315512 51.025894 18.037281
19.285 51.017845 17.776989
19.585804 51.040749 22.614676
19.549099 51.032372 22.279852
19.497259 51.011906 21.933731
19.489798 51.025429 21.642235
19.443521 51.008533 21.313087
19.430386 51.017036 21.024511
19.390181 51.004181 20.711864
19.371534 51.007805 20.426245
19.350245 51.009083 20.142031
19.320112 51.003174 19.853119
19.318562 51.019367 19.596205
19.302147 51.023682 19.328249
19.283314 51.02586 19.061575
19.28754 51.045944 18.819683
19.264072 51.044022 18.555397
19.45785 51.02375 22.580595
19.438599 51.028854 22.266319
19.398573 51.017498 21.933725
19.373199 51.017155 21.622772
19.344858 51.014168 21.313454
19.331707 51.022705 21.025076
19.309792 51.024113 20.731667
19.297386 51.032669 20.452328
19.288582 51.043781 20.180473
19.271105 51.04784 19.903639
19.251102 51.049656 19.628147
19.247427 51.064064 19.372072
19.358627 51.026287 22.581392
19.339369 51.031471 22.267305
19.317106 51.033978 21.954758
19.309717 51.047749 21.663471
19.287622 51.049747 21.360434
19.274738 51.058636 21.071793
19.259176 51.06514 20.784468
19.286821 51.050457 22.620428
17.498756 50.942123 9.064332
17.744925 50.869331 16.27808
17.325787 50.927128 18.914511
17.299797 50.919205 18.649143
17.2591 50.898693 18.3734
17.234495 50.891491 18.117033
17.19515 50.871662 17.850508
17.172224 50.865459 17.602865
17.065039 50.813229 16.846119
17.059063 50.820633 16.626034
17.031937 50.809956 16.390776
17.022221 50.813892 16.172709
17.135263 50.795567 20.926533
17.128622 50.804466 20.652649
17.113644 50.806152 20.373463
17.090225 50.800522 20.089212
17.105518 50.827221 19.851006
17.077127 50.816978 19.569395
17.058107 50.8144 19.301844
17.060755 50.82991 19.060289
17.091604 50.869091 18.850029
17.096348 50.886078 18.615906
17.062275 50.870045 18.346895
17.044287 50.867432 18.09717
17.00548 50.84697 17.831303
16.983013 50.840183 17.584372
16.970945 50.84206 17.350103
16.937935 50.825951 17.100151
16.928118 50.829426 16.873817
16.897253 50.814796 16.632149
16.870712 50.803688 16.397318
17.032516 50.844772 20.994888
16.998068 50.829403 20.687853
17.012897 50.855415 20.441223
16.984676 50.844849 20.1502
16.9655 50.841705 19.873583
16.943785 50.836201 19.5984
16.949341 50.853634 19.355885
16.934792 50.853832 19.095684
16.911877 50.846729 18.830656
16.886572 50.837395 18.567074
16.883335 50.84668 18.328825
16.865747 50.843571 18.07975
16.85215 50.8437 17.837769
16.824017 50.831242 17.585449
16.812414 50.832752 17.351646
16.779947 50.816242 17.102104
16.764256 50.813942 16.870712
16.746593 50.809807 16.640463
17.005367 50.876369 22.556219
16.975403 50.865273 22.227192
16.947805 50.855896 21.906862
16.945162 50.867374 21.622225
16.911619 50.852459 21.305174
16.909187 50.86367 21.029921
16.869823 50.843323 20.71627
16.850559 50.839802 20.430676
16.82864 50.833813 20.146563
16.821653 50.840328 19.883142
16.800499 50.834583 19.608238
16.782763 50.831554 19.341059
16.780519 50.841579 19.093807
16.722008 50.803307 18.792492
16.745333 50.834877 18.578131
16.712118 50.817875 18.310328
16.700968 50.819611 18.067816
16.693863 50.824673 17.83227
16.659954 50.806545 17.574675
16.6549 50.813068 17.347179
16.641653 50.812408 17.114998
16.613825 50.799038 16.872824
16.583893 50.783691 16.632078
16.817619 50.851303 22.53672
16.788324 50.839745 22.208221
16.772442 50.839336 21.902164
16.753643 50.836216 21.597624
16.726328 50.8256 21.287909
16.724371 50.836399 21.013294
16.708481 50.835106 20.726597
16.678427 50.821487 20.428251
16.674492 50.830021 20.164024
16.650686 50.821342 19.881689
16.618399 50.805187 19.59457
16.607061 50.806824 19.334282
16.581495 50.796051 19.062813
16.577383 50.803566 18.817436
16.565096 50.80389 18.567019
16.550591 50.802147 18.317801
16.546078 50.80888 18.081671
16.514997 50.792519 17.823093
16.506279 50.795326 17.589247
16.483143 50.785522 17.345015
16.482824 50.795341 17.124725
16.461847 50.787128 16.888538
16.438835 50.777016 16.653631
16.426487 50.776024 16.430889
16.41227 50.773289 16.209196
16.664465 50.856022 22.554934
16.62513 50.834843 22.212704
16.60446 50.829395 21.900093
16.602995 50.840199 21.616396
16.587704 50.83894 21.320362
16.575256 50.839924 21.032492
16.531731 50.813972 20.712879
16.519436 50.814682 20.43471
16.504572 50.813 20.157881
16.49876 50.818947 19.895287
16.467213 50.802509 19.608404
16.468271 50.81406 19.361004
16.443472 50.803101 19.089661
16.44002 50.810459 18.844477
16.422426 50.805416 18.58814
16.408571 50.803467 18.339153
16.404657 50.810009 18.103291
16.380388 50.798729 17.850777
16.372307 50.80138 17.617115
16.343679 50.786026 17.367292
16.343916 50.795666 17.147287
16.311069 50.776356 16.900141
16.301184 50.776936 16.676636
16.26943 50.767284 16.227333
16.480375 50.839565 22.227291
16.47142 50.843334 21.928669
16.459639 50.844463 21.631426
16.43391 50.833347 21.322063
16.405224 50.819462 21.014425
16.401857 50.827297 20.741764
16.367523 50.808128 20.437387
16.376165 50.826042 20.186951
16.342161 50.806789 19.892256
16.334457 50.810204 19.631258
16.330252 50.816509 19.377754
16.294321 50.795059 19.09413
16.297279 50.807316 18.855518
16.292192 50.812435 18.611685
16.266943 50.799828 18.3508
16.251436 50.795582 18.103344
16.233746 50.789295 17.857147
16.226128 50.791683 17.623888
16.216501 50.792198 17.391666
16.198694 50.785431 17.154835
16.172615 50.771286 16.913635
16.16321 50.771645 16.690466
16.33654 50.837696 22.243771
16.31189 50.827114 21.924635
16.300653 50.827972 21.627802
16.297695 50.83585 21.345959
16.258608 50.812126 21.024986
16.250175 50.814888 20.745983
16.227823 50.805355 20.455084
16.214159 50.803223 20.178833
16.197947 50.798714 19.90395
16.190783 50.801952 19.643267
16.181267 50.802994 19.383762
16.163544 50.796715 19.119217
16.149328 50.793365 18.862249
16.138756 50.793072 18.612694
16.131954 50.795956 18.370377
16.110989 50.786289 18.117174
16.105942 50.790474 17.883101
16.080591 50.776695 17.632507
16.083675 50.787804 17.412228
16.047911 50.764614 17.158533
16.047098 50.772083 16.940271
16.031992 50.766857 16.711739
16.014936 50.759804 16.484358
16.208225 50.827572 22.565475
16.181845 50.815075 22.237961
16.168571 50.813793 21.933058
16.163342 50.819355 21.643379
16.133312 50.803085 21.327774
16.128052 50.808277 21.047705
16.120192 50.811039 20.768877
16.092812 50.796551 20.471504
16.085367 50.799362 20.202024
16.069729 50.794842 19.927299
16.051561 50.787952 19.653978
16.048306 50.794018 19.401131
16.031097 50.787689 19.136808
16.017378 50.78429 18.880079
16.007278 50.783951 18.630772
15.989007 50.776287 18.376575
15.992465 50.787659 18.147734
15.969817 50.775894 17.896002
15.951005 50.767387 17.65155
15.942265 50.767662 17.419991
15.937681 50.771515 17.195211
15.912651 50.757172 16.954441
15.904167 50.75737 16.731802
15.363316 50.772083 2.5215006
15.364581 50.778687 2.3702576
15.364836 50.784374 2.2187147
16.075825 50.817646 22.578487
16.055414 50.809818 22.258162
16.042723 50.808559 21.953413
16.027119 50.804577 21.650152
16.014126 50.802708 21.355242
15.992804 50.793362 21.055029
15.968632 50.781342 20.756437
15.958502 50.781498 20.479389
15.951475 50.784245 20.210222
15.947691 50.789715 19.948774
15.935794 50.787899 19.682035
15.921466 50.783802 19.416599
15.887246 50.762009 19.133629
15.891451 50.774014 18.896013
15.875875 50.768425 18.640802
15.858013 50.760689 18.386906
15.861801 50.772003 18.158426
15.839567 50.760162 17.906984
15.827205 50.756954 17.668715
15.812768 50.751797 17.431612
15.808524 50.755585 17.20718
15.777733 50.735695 16.96104
15.788146 50.752319 16.755587
15.75386 50.736301 16.302843
15.593815 50.763386 11.22756
15.447807 50.785137 6.6945348
15.432208 50.775948 6.5448232
15.437702 50.786072 6.3976264
15.427535 50.781837 6.2491174
15.356332 50.782242 4.3367147
15.362322 50.792843 4.1888256
15.352687 50.78904 4.0420599
15.35676 50.79789 3.8938162
15.359865 50.805862 3.7453256
15.35469 50.806194 3.5975566
15.363163 50.819149 3.447649
15.356056 50.817715 3.2996171
15.355276 50.822136 3.1503406
15.353518 50.825668 3.0008748
15.36531 50.841763 2.8484509
15.361566 50.843483 2.6984699
15.36408 50.851021 2.5467725
15.358352 50.850929 2.3964105
15.366072 50.863331 2.2424488
15.336716 50.841339 2.097131
15.914461 50.803268 22.260082
15.886109 50.787586 21.93474
15.887183 50.797661 21.652632
15.880153 50.800446 21.364841
15.859387 50.790951 21.064833
15.835773 50.778778 20.766441
15.826134 50.778809 20.48963
15.819578 50.781425 20.220709
15.816245 50.78677 19.959518
15.799098 50.779747 19.686575
15.790971 50.780594 19.427814
15.786316 50.784401 19.176563
15.76189 50.770538 18.9077
15.746774 50.764816 18.652723
15.729373 50.756947 18.399059
15.72758 50.762848 18.164837
15.711768 50.756176 17.919651
15.699828 50.752842 17.681633
15.691885 50.752972 17.450602
15.681956 50.751236 17.220623
15.651634 50.731205 16.974695
15.662374 50.747734 16.769558
15.545873 50.795986 11.954826
15.426788 50.826252 7.6339536
15.424751 50.829258 7.4834414
15.436363 50.844765 7.3355784
15.439703 50.852688 7.1864028
15.442079 50.859718 7.0372515
15.443491 50.86586 6.8881345
15.429268 50.857639 6.7372832
15.43609 50.868736 6.5892491
15.427271 50.865456 6.4396772
15.321367 50.834995 4.3696079
15.356987 50.87273 4.2189364
15.347655 50.868916 4.0713639
15.739557 50.79414 21.643
15.722057 50.7869 21.341883
15.712682 50.786724 21.055899
15.678478 50.764343 20.74441
15.663597 50.758987 20.461445
15.651696 50.756153 20.18651
15.665565 50.77615 19.94553
15.643104 50.763668 19.666561
15.652511 50.77948 19.427475
15.648262 50.783012 19.176548
15.630134 50.774048 18.914221
15.627209 50.778557 18.671852
15.622155 50.781063 18.430515
15.620923 50.786896 18.196287
15.486993 50.821774 12.872122
15.472231 50.813644 12.687177
14.923888 50.784809 2.083514
14.506651 50.731529 2.0732958
14.482364 50.792511 2.0928731
13.922814 50.611965 16.217937
13.698047 50.698719 12.664247
13.704151 50.702061 12.328616
13.653044 50.645222 11.313418
13.663873 50.65448 11.158751
13.435377 50.634037 20.273811
13.434917 50.630817 20.011751
13.437467 50.627911 19.504517
13.457971 50.642727 19.034359
13.30703 50.629322 19.266424
13.32295 50.62537 17.862192
13.155887 50.611782 18.750519
13.164318 50.61594 18.521973
13.170751 50.618179 18.294302
13.175196 50.618511 18.067533
13.160909 50.600376 17.823132
13.161296 50.596813 17.598469
13.024658 50.601673 17.816055
12.897125 50.607769 18.055113
12.757228 50.591274 18.287531
12.762978 50.590664 18.06189
12.768573 50.583767 17.613422
12.638336 50.581059 18.304485
11.41862 50.512119 5.8140717
11.350041 50.522751 1.4565486
11.31446 50.481987 1.3253298
11.319032 50.481483 1.1792378
11.322943 50.574501 1.4447178
11.300995 50.547359 1.3079804
11.305473 50.546749 1.1612145
11.308995 50.545155 1.0140934
11.311557 50.542572 0.86662984
11.313154 50.538994 0.71883684
11.320538 50.541187 0.56780773
11.320176 50.535591 0.41931137
11.325559 50.535721 0.26743883
11.329924 50.534798 0.11512358
11.062114 50.511066 0.18839264
