# .PCD v0.7 - Point Cloud Data file format
VERSION 0.7
FIELDS x y z
SIZE 4 4 4
TYPE F F F
COUNT 1 1 1
WIDTH 1584
HEIGHT 1
VIEWPOINT 0 0 0 1 0 0 0
POINTS 1584
DATA ascii
11.010531 53.468513 8.6616774
10.979804 53.399796 8.2571545
10.996478 53.402348 7.8658299
10.967149 53.335938 7.4653144
10.952309 53.291367 7.0697618
10.935464 53.243881 6.6753993
10.949809 53.243183 6.287786
10.865607 54.265514 16.204542
10.874718 54.254688 15.774392
10.871091 54.224377 15.339767
10.875615 54.206768 14.912099
10.464923 56.780544 39.352482
9.6877804 56.807739 39.787525
8.0311947 53.555256 9.700161
7.6875653 53.570114 9.68223
7.3335586 53.534618 9.2775478
7.329011 53.503841 8.890233
6.9762855 53.503849 9.2653885
6.971633 53.473106 8.8795195
6.646246 53.531483 9.6440945
6.3230443 53.546104 9.6374445
5.9820766 53.524666 9.6174183
5.6518021 53.508377 9.5952291
5.3194318 53.47924 9.5719004
5.0175319 53.498173 9.5616665
4.6791396 53.435783 9.5335493
4.7166114 53.486534 9.1695871
4.3843217 53.448364 9.5202322
4.3991847 53.455219 9.1488237
4.3991828 53.432674 8.7730722
11.167234 52.663628 1.4839165
11.186167 52.677631 1.3137246
11.183825 52.669376 1.1497848
10.942371 52.821026 2.6229262
10.907457 52.77837 2.4695516
10.905587 52.770493 2.3083773
10.916292 52.775822 2.1435094
10.912434 52.76582 1.9819665
10.914347 52.761868 1.8183789
10.922 52.763924 1.6525031
10.928616 52.764862 1.4862331
11.267054 53.472225 9.0063753
11.259992 53.451824 8.6628761
11.281799 53.4688 8.4981623
11.289127 53.470272 8.3301992
11.288671 53.463432 8.1609402
11.280401 53.448257 7.9906559
11.298186 53.460957 7.8258662
11.000738 52.979534 3.4143119
10.854289 52.794838 2.6361349
10.826325 52.759346 2.4814699
10.831386 52.758614 2.3188491
10.835445 52.756813 2.1559505
10.838503 52.753933 1.9927878
10.833794 52.742874 1.8313364
10.834846 52.737854 1.6677701
10.848363 52.745895 1.4997128
10.854092 52.745731 1.3333222
11.204391 53.474743 9.0132141
11.212564 53.464157 8.5034094
11.219934 53.465641 8.335535
11.224835 53.458122 7.9988365
11.235904 53.463604 7.832716
10.861707 52.875465 2.7893481
11.046272 53.535507 9.5794859
11.040162 53.522469 9.403841
11.046286 53.522625 9.232666
11.044658 53.514469 9.0598431
11.041945 53.505173 8.8874311
11.044868 53.501953 8.717145
11.053464 53.504848 8.5487413
11.054295 53.49942 8.3789167
11.054079 53.492889 8.2093868
10.997345 53.566948 9.7635384
10.999134 53.562214 9.5893173
10.993166 53.549152 9.4134169
10.992749 53.542103 9.2400293
10.997931 53.541107 9.0689106
11.002051 53.538986 8.8980312
10.998405 53.528538 8.7257023
11.007126 53.531406 8.557044
10.668138 52.976357 3.4639843
10.960073 53.60228 9.7657042
10.968607 53.60463 9.5932722
10.962755 53.591492 9.416954
10.95578 53.577179 9.241188
10.961055 53.576096 9.0697289
10.958571 53.566681 8.8967247
10.856468 53.56768 9.9217339
10.90574 53.613987 9.7627935
10.914271 53.616291 9.5902748
10.928387 53.624641 9.4199896
10.521756 52.949688 3.2953851
10.792511 53.568729 9.9268503
10.848382 53.622269 9.7701349
10.870195 53.638996 9.6017818
10.467029 52.969215 3.4598548
10.450896 52.945824 3.301451
10.786032 53.621223 9.7799053
10.787915 53.616573 9.6051712
10.795349 53.617943 9.432848
10.388147 52.949589 3.3107455
10.31968 52.945595 3.3159771
10.610106 53.616356 9.7844067
10.624918 53.626415 9.613924
10.618744 53.613804 9.4373255
10.202925 52.966251 3.4752395
10.193306 52.950542 3.3158128
10.551478 53.615707 9.7862425
10.552914 53.611534 9.6114922
10.559898 53.613388 9.4391546
10.559158 53.606911 9.2650642
10.124048 52.946842 3.3186154
10.113389 52.930233 3.1594334
10.480429 53.608952 9.7911253
10.488471 53.612041 9.6185942
10.488802 53.606804 9.4442072
10.48804 53.60041 9.2701988
10.045917 52.936146 3.3277063
10.042054 52.926876 3.167443
10.416398 53.610596 9.7972078
10.417851 53.606548 9.6225395
10.42485 53.608524 9.4502907
10.417477 53.594967 9.274312
9.9767952 52.931805 3.3347144
9.9661922 52.915337 3.1757782
10.34232 53.600132 9.7881384
10.356958 53.61039 9.6179142
10.350642 53.597958 9.4415598
9.9147701 52.934444 3.3302886
9.9109221 52.92519 3.1701117
10.273795 53.59729 9.7763367
10.281711 53.600315 9.6040573
10.275287 53.587811 9.4278793
10.281047 53.588543 9.256176
10.279085 53.580925 9.0828209
9.8364172 52.922523 3.3234057
9.8392878 52.920486 3.1621552
10.205704 53.593864 9.7681866
10.226789 53.611229 9.6002464
10.220324 53.598713 9.4239874
10.212744 53.585018 9.2482805
9.7963829 52.955383 3.4744494
9.7662306 52.918072 3.3188725
9.7690535 52.916023 3.1577079
11.436853 55.540413 26.959742
10.094638 53.550362 9.9275188
10.129903 53.583096 9.7645063
10.144363 53.593227 9.5946083
10.144523 53.587849 9.4206495
10.143596 53.581314 9.2470732
9.7146683 52.936092 3.4784627
9.7049131 52.92054 3.319644
9.7145395 52.925716 3.1572263
10.077354 53.601337 9.7700453
10.065462 53.582668 9.591464
10.065682 53.577198 9.4176788
10.058174 53.563354 9.2423172
9.6522264 52.937332 3.4796448
9.6357746 52.914459 3.3219948
9.631937 52.905087 3.1621735
10.001226 53.592201 9.7592716
10.002569 53.587776 9.5851231
9.9961939 53.574986 9.4093008
10.01527 53.589882 9.2418518
9.9934187 53.560329 9.0630703
9.9904127 53.551281 8.8905649
9.5837936 52.931149 3.4747465
9.5741596 52.915436 3.316025
9.5703535 52.90596 3.1562097
9.9353333 53.589672 9.7453575
9.9300098 53.577919 9.5691767
9.943449 53.586605 9.3996382
9.9492159 53.586964 9.2281923
9.9406214 53.571732 9.0532484
9.5163774 52.924088 3.4646854
9.5134916 52.915527 3.3048871
9.5096502 52.905937 3.1450794
9.5116167 52.902557 2.9839251
9.824501 53.545055 9.9003096
9.8597851 53.577427 9.7375021
9.8808985 53.594364 9.5699654
9.8811293 53.588589 9.3961906
9.8802748 53.581654 9.2227993
9.8716869 53.566338 9.047946
9.8619967 53.549858 8.8736763
9.4750767 52.945389 3.4582005
9.4450865 52.907703 3.3028624
9.4480381 52.905304 3.1418793
9.4500208 52.901859 2.9807267
9.7970943 53.576416 9.7468624
9.791852 53.564583 9.5708532
9.8053665 53.573196 9.4014912
9.804575 53.566257 9.2282705
9.8093529 53.565403 9.057312
9.7864294 53.534451 8.8794785
9.3953381 52.92318 3.4705799
9.3789997 52.900051 3.313133
9.38204 52.897682 3.1522384
9.3841133 52.894264 2.9911733
9.7270851 53.566818 9.7636204
9.7285538 53.562279 9.5898161
9.7355556 53.563786 9.4184246
9.7282314 53.549717 9.2433252
9.7463903 53.563408 9.0762882
9.3564835 52.946285 3.4856606
9.3131332 52.89418 3.3325934
9.309515 52.884663 3.173039
9.31847 52.888603 3.0108073
9.6701632 53.568913 9.7857914
9.6849298 53.578934 9.6161766
9.6788034 53.566219 9.4404259
9.6848316 53.566765 9.2691622
9.6831589 53.558952 9.09624
9.2455473 52.887714 3.3529222
9.2555408 52.892864 3.1909575
9.2442646 52.87521 3.0326364
9.6168413 53.570938 9.8026495
9.6250048 53.573944 9.6308126
9.6188698 53.561401 9.4550495
9.6315203 53.569332 9.2857618
9.6271038 53.552914 8.9401388
9.1921043 52.896049 3.365766
9.1953135 52.894093 3.2049558
9.204318 52.898331 3.0426486
9.5527191 53.55854 9.8122997
9.5806303 53.583286 9.6470013
9.554615 53.54932 9.4648609
9.5671997 53.557407 9.2956619
9.5588198 53.542702 9.1208305
9.1123724 52.875252 3.380537
9.1223164 52.880737 3.2187519
9.1245222 52.877907 3.0579371
9.4935598 53.551723 9.8258209
9.5148354 53.569447 9.6583853
9.5086298 53.55727 9.4825144
9.5079451 53.551125 9.3091774
9.5061789 53.543823 9.1362324
9.0588226 52.882339 3.3922806
9.061964 52.880726 3.2316375
9.0709009 52.885311 3.0695069
9.4414349 53.55267 9.8423901
9.449501 53.556198 9.670558
9.4631262 53.565792 9.5009947
9.4558229 53.552635 9.3254871
9.4540577 53.545525 9.1524487
9.464529 53.551735 8.9834595
9.006444 52.889923 3.4048052
8.9960346 52.87394 3.2465103
8.9982052 52.871452 3.0857749
9.3839512 53.548836 9.8495302
9.37218 53.530899 9.6711969
9.3857374 53.540554 9.501893
9.3982658 53.549103 9.3326235
9.403121 53.549313 9.1614923
9.4069242 53.548401 8.990593
9.3963394 53.531868 8.8164625
8.9277735 52.867958 3.4149857
8.95119 52.888405 3.2508659
8.939805 52.871483 3.0925589
8.9544916 52.882523 2.9288797
9.3120375 53.534523 9.8379946
9.3133812 53.530914 9.6641645
9.3202572 53.53334 9.4927759
9.3260765 53.534637 9.3215933
9.330842 53.534801 9.15063
9.3412142 53.541073 8.9817228
9.330554 53.524506 8.8076839
8.8734789 52.874229 3.4070837
8.8765316 52.872856 3.2465219
8.8718605 52.863178 3.0870888
8.8729877 52.859718 2.9262726
8.8798914 52.862442 2.7638264
8.8723345 52.849648 2.604198
9.2632074 53.543575 9.822855
9.2776747 53.554241 9.6532516
9.2712517 53.542183 9.4774618
9.2769833 53.543377 9.3061886
9.2617235 53.521755 9.1294422
9.2653131 53.520657 8.9588833
8.8210506 52.879051 3.3892596
8.8307676 52.884819 3.2273822
8.8192329 52.867767 3.0690997
8.8202581 52.864189 2.9081984
8.8203144 52.859558 2.7471466
8.8059282 52.839436 2.5891047
9.2153492 53.552589 9.8074875
9.2165289 53.548756 9.6334915
9.2166214 53.543755 9.4598598
9.2222633 53.544815 9.2885838
9.2334986 53.551971 9.1194181
9.2237301 53.536308 8.9449072
8.7497025 52.861404 3.3746846
8.759346 52.867065 3.2129707
8.7544985 52.857162 3.0535567
8.7621975 52.86071 2.8913338
8.7621698 52.855957 2.7302856
9.1562624 53.553673 9.7978392
9.1640072 53.556957 9.6259851
9.1640711 53.551895 9.4522705
9.1564169 53.53846 9.2769661
9.1609507 53.538303 9.1059961
9.1511164 53.522545 8.9316654
8.6958647 52.866997 3.3642912
8.6987009 52.865322 3.2037277
8.6938152 52.85535 3.0443187
8.694725 52.851589 2.8835073
8.6946659 52.846779 2.7225475
8.6936359 52.840916 2.5614519
9.0782347 53.531868 9.7862864
9.0990858 53.549511 9.6189632
9.0924511 53.537235 9.4432802
9.0780735 53.51656 9.266181
9.0891523 53.523609 9.0973482
9.0792303 53.507832 8.923193
8.692522 52.933029 3.5103095
8.6285419 52.859619 3.3607244
8.6380854 52.865223 3.1990023
8.6263866 52.848003 3.0409257
8.627244 52.844257 2.8802001
8.6406145 52.853928 2.71632
8.6260519 52.833614 2.5583174
9.0348139 53.544373 9.7893553
9.0159607 53.518936 9.6090288
9.0290422 53.528305 9.4398451
9.0278282 53.522121 9.2667656
9.0321827 53.522018 9.0959625
9.0155125 53.499065 8.9200106
8.6191301 52.918983 3.5110474
8.5550909 52.845642 3.36164
8.5713196 52.858589 3.1988442
8.5730515 52.855946 3.0381913
8.5738173 52.852253 2.8773777
8.5803537 52.854744 2.7149122
8.9680424 53.537056 9.7839508
8.9557266 53.518814 9.6058502
8.9488916 53.506573 9.4305086
8.9674845 53.522034 9.2635832
8.9917221 53.54364 9.0984211
8.95506 53.499004 8.916831
8.543478 52.904781 3.5101013
8.5199976 52.875103 3.3539248
8.5023565 52.851707 3.1970096
8.5040436 52.849087 3.0364425
8.5115108 52.852665 2.8742957
8.5112562 52.847935 2.7133341
8.9001017 53.532993 9.775691
8.9075832 53.53627 9.604084
8.9007683 53.523983 9.4285765
8.8994789 53.517742 9.2555847
8.903758 53.517582 9.0848665
8.9003315 53.509048 8.9125957
8.4684048 52.890934 3.5064735
8.4381704 52.853931 3.3516455
8.440814 52.852299 3.191252
8.4424944 52.849621 3.0306857
8.4297218 52.831402 2.8728042
8.4362192 52.833878 2.7105947
8.4417305 52.835285 2.5480778
8.8256369 53.522182 9.7666874
8.8331003 53.52536 9.5952501
8.8328915 53.520191 9.4219646
8.8316021 53.513866 9.2490606
8.8491659 53.528095 9.0821781
8.8191452 53.490517 8.902669
8.4009237 52.884529 3.5032074
8.3639517 52.840191 3.3496435
8.373374 52.845776 3.1881723
8.3683233 52.835785 3.0290322
8.3758049 52.839256 2.8670559
8.3823051 52.84166 2.7047596
8.3743668 52.828537 2.545351
8.7620583 53.524109 9.7659254
8.75634 53.512856 9.5902262
8.7693577 53.52206 9.4212027
8.7680922 53.515705 9.2483006
8.7657509 53.508198 9.0757942
8.7556849 53.492298 8.9019108
8.3450575 52.89259 3.5014219
8.3013496 52.840931 3.3489401
8.310792 52.846493 3.187469
8.299016 52.829212 3.0296686
8.3200064 52.847168 2.864929
8.3063202 52.82782 2.7070808
8.700552 53.524269 9.7679081
8.7146502 53.534637 9.5986032
8.7078781 53.522251 9.4231863
8.6999989 53.508682 9.2483225
8.7175789 53.522892 9.0815268
8.700901 53.499771 8.9056807
8.2638369 52.871315 3.5065639
8.2336826 52.83424 3.3520062
8.2431421 52.839825 3.190623
8.2381344 52.829823 3.0315692
8.2389154 52.826046 2.8711045
8.2521954 52.835697 2.7074714
8.2443027 52.822567 2.5481486
8.2421713 52.815624 2.3871937
8.6283884 53.50959 9.7627668
8.6358004 53.512772 9.5914993
8.6355448 53.507603 9.4183836
8.6408377 53.508503 9.247611
8.6450815 53.508278 9.0770645
8.6283264 53.485172 8.9013901
8.1961365 52.865063 3.5069296
8.1726999 52.835304 3.3512948
8.1821051 52.840927 3.1899102
8.1837912 52.838223 3.0295179
8.1710377 52.819969 2.8718147
8.1909981 52.83691 2.7067556
8.1830549 52.823818 2.5474324
8.5678015 53.509102 9.760581
8.5685396 53.505119 9.5871811
8.5681953 53.499977 9.4141502
8.5734005 53.500908 9.2434616
8.5775576 53.50071 9.072999
8.5607176 53.477634 8.8974123
8.1532202 52.887848 3.5015574
8.1026859 52.828976 3.3503311
8.1052752 52.827374 3.1902833
8.106905 52.82473 3.0300632
8.1008358 52.813782 2.8711088
8.1140003 52.823536 2.7076433
8.1127272 52.81773 2.546895
8.5135593 53.516144 9.7646847
8.5143023 53.512199 9.5911989
8.5007401 53.492661 9.413991
8.4992981 53.486382 9.2414284
8.5100584 53.493427 9.0730114
8.4865513 53.463116 8.8957195
8.0854082 52.881325 3.5044689
8.0348806 52.822475 3.3533239
8.0374689 52.820911 3.1933627
8.0323553 52.811035 3.0345676
8.0464964 52.821896 2.8715098
8.0461903 52.817177 2.7109821
8.0381985 52.804176 2.5519171
8.042675 52.804588 2.3895352
8.4446211 53.511246 9.7646856
8.4519939 53.514473 9.5934181
8.4384842 53.4949 9.4162092
8.4503355 53.503052 9.2475691
8.4478941 53.495613 9.0752325
8.4377356 53.479771 8.9015188
8.0113573 52.867908 3.5088367
7.9811516 52.830891 3.3543663
7.970284 52.814743 3.1968226
7.9921818 52.833908 3.0327628
7.9794111 52.815693 2.8751459
7.9858823 52.818203 2.7131946
7.9913712 52.819645 2.5509362
8.3753672 53.502289 9.5886326
8.3684778 53.489864 9.4136438
8.3803501 53.497955 9.2450886
8.364665 53.475967 9.0690908
8.3478632 53.452789 8.8938484
7.9830713 52.904804 3.5030239
7.8988652 52.809425 3.3574495
7.9150329 52.822353 3.1951597
7.9032598 52.805141 3.0377057
7.910749 52.808685 2.8761618
7.9105358 52.803917 2.7158091
7.9160738 52.805332 2.5537241
7.9206276 52.805672 2.3913445
8.3164148 53.50629 9.7581005
8.310565 53.495026 9.5826597
8.316824 53.497021 9.4118452
8.3352757 53.512356 9.2451572
8.3261967 53.497623 9.0708675
8.3027315 53.467209 8.8935881
7.9162412 52.897106 3.5004222
7.8522549 52.823574 3.3514624
7.848125 52.814651 3.1927576
7.8430481 52.804703 3.0340538
7.8370242 52.793728 2.8753626
7.8502226 52.803463 2.7121551
7.8624253 52.812107 2.5484679
7.8535051 52.797981 2.3893733
8.2629023 53.498596 9.5828514
8.2558365 53.486229 9.4078646
8.2609138 53.487144 9.2373447
8.264946 53.486938 9.0670509
8.2214041 53.434818 8.8845081
7.8442235 52.881264 3.5006733
7.8003926 52.829659 3.3483911
7.7894015 52.813515 3.1908553
7.7909513 52.810894 3.0308075
7.7915392 52.807228 2.8706005
7.7911639 52.802517 2.7102463
7.7965374 52.803986 2.5481558
8.1592894 53.431339 9.0623608
8.0567894 53.289658 7.8629441
8.0590134 53.287872 7.6980424
8.0602455 53.285015 7.5333185
8.0672197 53.288418 7.3697958
8.0732212 53.290764 7.2063022
8.0512676 53.262714 7.0395026
8.0620499 53.270275 6.8772039
8.0583601 53.262108 6.7134724
8.0480452 53.242615 6.3867846
7.7825727 52.881577 3.5087161
7.7319288 52.822826 3.3575711
7.7276173 52.814117 3.198859
7.7290955 52.811649 3.0388079
7.7296124 52.808136 2.8785968
7.7224445 52.796322 2.7197502
7.734467 52.805195 2.5561466
7.7253742 52.791294 2.3971291
7.7220259 52.783573 2.2364039
7.981009 53.259396 7.5420518
7.9811807 53.255634 7.3777742
7.9803662 53.250809 7.2136989
7.9785681 53.244919 7.049839
7.9825392 53.245308 6.8869634
7.9720292 53.229965 6.7228165
7.9943357 53.250294 6.5620065
7.9818769 53.232845 6.3982921
7.9752049 53.221699 6.2354379
7.702076 52.860374 3.5236297
7.6514077 52.801811 3.3726969
7.6605511 52.807858 3.2117426
7.6485181 52.791031 3.0544419
7.6557364 52.794979 2.8930664
7.6619778 52.797863 2.7313695
7.6672382 52.799675 2.5693643
7.6514044 52.778728 2.4120989
7.6547208 52.778423 2.249774
7.9230371 53.252266 7.3883891
7.9155169 53.240192 7.2233763
7.9204893 53.241714 7.0604482
7.9244928 53.242188 6.8975735
7.9342828 53.248955 6.7354388
7.9363537 53.247334 6.5726218
7.9306922 53.237316 6.4093957
7.9240561 53.226254 6.2464471
7.6784487 52.895435 3.5286441
7.6007872 52.807751 3.3818574
7.6099567 52.813869 3.2208219
7.6046829 52.804382 3.0620952
7.5984626 52.793873 2.9033797
7.6114569 52.804085 2.7401845
7.6100287 52.798729 2.5796824
7.6076331 52.792316 2.4190564
7.6042686 52.784851 2.2583196
7.847908 53.236855 7.3889823
7.8606815 53.246696 7.2269516
7.8590083 53.240829 7.0630898
7.8563533 53.233902 6.8994551
7.8594747 53.233261 6.7367353
7.8548675 53.224228 6.5735059
7.8628149 53.22884 6.4115438
7.5986948 52.871349 3.5344858
7.5371528 52.797001 3.2259359
7.545455 52.802017 3.0647287
7.5393238 52.791447 2.9060137
7.5389671 52.787098 2.7458222
7.5577879 52.803421 2.580735
7.56218 52.804165 2.4183519
7.5521917 52.789402 2.2592022
7.7882838 53.23785 7.3787436
7.7876248 53.232864 7.2148457
7.7927275 53.234154 7.0520062
7.7833605 53.219715 6.8877087
7.8067822 53.240929 6.7271724
7.8089843 53.239075 6.5644464
7.8034544 53.228828 6.4013171
7.803719 53.224884 6.238874
7.5401039 52.868385 3.5245578
7.4828262 52.802387 3.3746121
7.4786439 52.793724 3.2160683
7.4869895 52.798573 3.054858
7.4809012 52.787838 2.8961523
7.4940329 52.797825 2.7329535
7.4927387 52.79224 2.5724578
7.4837713 52.778378 2.4135172
7.4872465 52.777916 2.2511101
7.7432775 53.257191 7.5327611
7.7436275 53.253113 7.3684912
7.7497296 53.255302 7.2053475
7.7481155 53.249107 7.0414104
7.7455187 53.241852 6.8777018
7.7419415 53.23354 6.7142353
7.7441478 53.231522 6.5515981
7.752152 53.235806 6.3895421
7.7456598 53.224346 6.226615
7.5159488 52.901596 3.5072343
7.4248986 52.798981 3.3627496
7.4274678 52.797432 3.202961
7.4290786 52.794842 3.0429995
7.4297285 52.791206 2.8828778
7.4361386 52.79377 2.7210963
7.421423 52.773552 2.5638034
7.4393063 52.788452 2.398309
7.4293771 52.773376 2.2392721
7.6937275 53.274075 7.6988268
7.6951504 53.271 7.5341945
7.6955833 53.266857 7.3697529
7.6950293 53.26165 7.2055149
7.7069798 53.27005 7.0431643
7.6977181 53.25539 6.8784485
7.6874638 53.239666 6.7141485
7.7032647 53.252266 6.5525756
7.4627976 52.906166 3.5054696
7.3582969 52.788906 3.3632438
7.3541937 52.780018 3.2047973
7.3693609 52.791904 3.04233
7.3700781 52.788193 2.8822105
7.3631077 52.776184 2.7234566
7.3686209 52.777622 2.5615416
7.3731508 52.777981 2.3993323
7.6367383 53.281284 7.8742714
7.6527071 53.293911 7.7117519
7.6475458 53.283535 7.5457597
7.648109 53.279404 7.3811445
7.6476836 53.274204 7.216732
7.6530166 53.275276 7.0533757
7.6641269 53.282639 6.8908272
7.6404972 53.252243 6.7248387
7.3842859 52.882168 3.5179
7.3001528 52.786789 3.3723745
7.3029065 52.785175 3.212676
7.3047023 52.782516 3.0528042
7.3055382 52.778812 2.8927715
7.3121367 52.781311 2.7310822
7.3177552 52.782734 2.5690849
7.3156815 52.77586 2.4084733
7.6010404 53.306671 8.0581465
7.6248169 53.327759 7.8965859
7.5939255 53.28931 7.7251139
7.6022983 53.293636 7.5613298
7.609695 53.296909 7.3975611
7.616116 53.299122 7.23382
7.621562 53.300282 7.0701194
7.6192822 53.293049 6.9057117
7.3344512 52.8866 3.529876
7.2503805 52.791283 3.3841782
7.2464657 52.782448 3.2256365
7.2550874 52.787125 3.0644355
7.2492666 52.776218 2.9057307
7.2424979 52.76429 2.7470498
7.2616563 52.78027 2.5820525
6.2975411 53.375706 8.8941774
6.1616488 53.347073 8.7245874
5.8798008 53.351852 8.6887894
5.8289776 53.359074 8.6760426
5.7926989 53.379013 8.6736231
5.7151241 53.354401 8.6709471
5.6392374 53.337791 8.6762257
5.5900044 53.352074 8.6877995
5.5168118 53.337448 8.6856441
5.4643469 53.343128 8.6839228
5.4062066 53.340523 8.6857052
5.3470607 53.336639 8.6968422
5.2778635 53.327644 8.7020321
5.2180104 53.328911 8.6955881
5.1816645 53.354561 8.6752806
5.1436048 53.380062 8.65382
5.1013517 53.39286 8.6462631
5.0716305 53.417835 8.6550646
5.032989 53.434879 8.6646776
4.9701266 53.42477 8.6585321
4.6736946 53.123615 6.7694459
4.6830873 53.13026 6.6075444
4.6576891 53.099159 6.442719
4.6922278 53.133087 6.2829967
4.6851935 53.121918 6.1201577
4.6568556 53.087666 5.9566979
4.6682129 53.096451 5.795372
4.6718364 53.096851 5.6337109
4.5442777 53.032047 6.1044521
4.5497465 53.034424 5.9435596
4.5610433 53.043118 5.7828364
4.5510445 53.028732 5.6215358
4.5536537 53.028015 5.4606414
4.5417409 53.01157 5.2998419
4.5627995 53.030823 5.138711
4.5625505 53.027008 4.9777503
4.4854445 53.030018 6.1020579
4.4841499 53.025009 5.9408674
4.4954596 53.033657 5.78023
4.4922557 53.026581 5.6191425
4.4948797 53.025818 5.4582486
4.4965515 53.024025 5.297349
4.4904847 53.013859 5.1365957
4.497036 53.017345 4.9755845
4.4822793 52.99778 4.8153696
4.4257102 53.022316 5.943913
4.4098811 53.001625 5.7824302
4.4134364 53.001942 5.6218147
4.4228253 53.008572 5.4612193
4.4312649 53.014175 5.3004441
4.4251819 53.004051 5.1397758
4.4249325 53.000248 4.9790769
4.4215779 52.989544 4.6577849
4.3743253 53.030949 6.1076918
4.3661757 53.018726 5.9461107
4.3774076 53.027504 5.7854757
4.367341 53.01321 5.6242595
4.3766699 53.019928 5.4634895
4.3646913 53.003574 5.3026862
4.3653307 53.000885 5.1419668
4.3718038 53.004505 4.9810429
4.3637533 52.992413 4.8205967
4.3298922 53.042927 6.1052556
4.3080773 53.016079 5.9429054
4.3124161 53.01757 5.7820559
4.3158021 53.018036 5.6211762
4.3250208 53.024811 5.4603157
4.3197169 53.015865 5.2993774
4.3270307 53.020576 5.1383443
4.3198199 53.009567 4.9776068
4.311657 52.997536 4.8170753
4.272675 53.045013 6.2578893
4.2788167 53.048569 6.0966954
4.2704449 53.0364 5.9348617
4.2611094 53.023193 5.7733359
4.2711635 53.030991 5.6124859
4.2870522 53.045105 5.4514756
4.274847 53.028801 5.2903361
4.2820439 53.033497 5.1291237
4.2747145 53.022476 4.9682183
4.2320747 53.065804 6.2558322
4.2314277 53.061989 6.093998
4.2365985 53.06448 5.9325747
4.2272501 53.051243 5.7707043
4.223722 53.044315 5.6092706
4.2328062 53.051048 5.4480519
4.2341514 53.049397 5.2867136
4.1890092 53.091972 6.5883918
4.1836042 53.082901 6.4255371
4.1772265 53.072784 6.2629519
4.1834302 53.076309 6.1014104
4.1818991 53.071453 5.9395223
4.1726255 53.058212 5.7775612
4.1895204 53.073322 5.616395
4.1851115 53.065353 5.4547682
4.1729593 53.049007 5.2933679
4.1396155 53.105682 6.7615643
4.1352534 53.097694 6.598361
4.1434522 53.10334 6.436533
4.1439209 53.100601 6.2741537
4.1569762 53.111507 6.1126513
4.1284075 53.077305 5.9491363
4.1463223 53.093483 5.7879219
4.1429391 53.086582 5.6259604
4.0942402 53.124977 6.9337645
4.0976558 53.125427 6.7708769
4.093338 53.117493 6.6074104
4.1083479 53.130527 6.4458852
4.1020894 53.120499 6.2826824
4.0948572 53.109417 6.119761
4.1002102 53.111984 5.9577336
4.0655847 53.161392 7.2707171
4.0710058 53.163998 7.1072078
4.061945 53.150887 6.9420929
4.0654078 53.151375 6.7788577
4.0611343 53.143475 6.6150413
4.0626502 53.141861 6.452044
4.0767426 53.153881 6.2900944
4.0695515 53.142834 6.1267343
4.0351844 53.204098 7.779006
4.030231 53.195297 7.6124015
4.0310011 53.192722 7.4472375
4.0307789 53.189075 7.2822642
4.0363131 53.191689 7.1184106
4.0341182 53.185913 6.9537716
4.0309367 53.179077 6.7893624
4.0402985 53.185852 6.6265039
4.0351601 53.176903 6.4624181
4.008625 53.252895 8.1373196
4.0126619 53.253609 7.970973
4.002264 53.238644 7.8022366
4.004281 53.237183 7.6363769
4.012033 53.241955 7.4717903
4.0053248 53.231033 7.3052001
4.0111012 53.233673 7.1408324
4.0091457 53.227928 6.9756694
3.9862669 53.303753 8.5005264
3.9792147 53.292171 8.330162
3.9778097 53.286747 8.1617155
3.9887908 53.294807 7.9963064
3.9853544 53.287197 7.8283167
3.9808974 53.278488 7.6606617
3.9888856 53.283314 7.4955649
3.9501476 53.33065 8.5176382
3.9566028 53.333675 8.350008
3.9687419 53.342888 8.1839542
3.9664788 53.336449 8.0151234
3.9497602 53.314304 7.8440456
3.8652072 53.308681 8.6924524
3.9461429 53.392746 8.5428514
10.833381 53.268112 7.0705485
10.846539 53.272266 6.6865687
10.857658 53.273727 6.3027658
10.858492 53.456367 8.6369238
10.83841 53.416035 8.240756
10.863735 53.436344 7.8561506
10.832895 53.554291 9.435462
10.840883 53.551346 9.0431299
10.805352 53.66729 10.643049
10.80726 53.628307 9.4506626
10.777072 53.778957 11.853611
10.786516 53.777573 11.452619
10.793771 53.773281 11.052285
10.787148 53.750309 10.648862
10.79722 53.970268 13.513264
10.809994 53.973145 13.105618
10.808972 53.957371 12.694031
10.579997 53.548729 9.7983284
10.784905 54.109306 14.794233
10.77623 54.082752 14.370015
10.776571 54.068569 13.952366
10.780296 54.059067 13.538331
10.755069 54.182827 14.814656
10.432203 53.570187 9.8022127
10.744944 54.492016 17.44105
10.174006 53.569702 9.7794046
10.110878 53.596603 9.782691
10.014088 53.576885 9.7666845
9.8977222 53.533054 9.7514257
9.8377342 53.569054 9.7578402
9.7741737 53.596912 9.7551346
9.6515827 53.54565 9.7349749
9.5435514 53.518787 9.7258205
10.532343 55.70977 28.910988
9.5164318 53.603844 9.7395391
9.3988037 53.560772 9.7202606
9.3539791 53.62307 9.7231655
9.2268581 53.572948 9.7082739
9.1678591 53.619434 9.7125931
10.435019 56.739281 38.94912
8.9885206 53.62339 9.6993523
10.174812 56.812256 39.563343
7.0849938 53.559998 9.529808
5.3633709 53.452873 9.7126474
5.2578387 53.463905 9.6991272
5.1243005 53.434292 9.6755333
5.0744615 53.546642 9.6927252
4.9270434 53.489292 9.6682158
4.6800756 53.461071 9.6288824
10.507138 55.393024 26.116804
10.503999 55.24847 25.41267
10.494796 55.09116 24.011541
10.511491 54.96624 22.627508
10.592066 54.750057 19.954391
10.609755 54.452618 17.347237
10.825317 53.302227 6.596673
10.827438 53.396683 8.1603298
10.791417 53.346615 7.5179696
10.795736 53.332752 6.8810039
10.787362 53.513165 9.4597197
10.794562 53.681858 10.754195
11.235968 52.546692 0.40141049
11.241631 52.546967 0.22928582
11.239523 52.539146 0.059508663
11.233295 52.616447 0.54079884
11.246668 52.624542 0.36566529
11.238882 52.610611 0.19804983
11.220927 52.678917 0.68248355
11.333975 53.115643 5.5848799
11.330839 53.106506 5.4204922
11.299208 53.067291 5.2564878
11.214314 52.908375 3.3012116
11.224861 52.913639 3.1354127
11.227553 52.910641 2.9705348
11.229244 52.906578 2.8054924
11.311217 53.170349 5.7648077
11.336617 53.191441 5.6002455
11.333549 53.182419 5.4349775
11.295118 53.136044 5.2701097
11.142094 52.90604 3.3162012
11.159534 52.918636 3.1493185
11.155433 52.908581 2.9857035
11.157175 52.904655 2.8207452
11.157914 52.899666 2.6556346
11.294766 53.224083 5.7857838
11.079113 52.910854 3.3352914
11.076114 52.902008 3.1719329
11.065289 52.884926 3.0098221
11.067155 52.881176 2.8452082
11.074845 52.88353 2.6790128
11.009195 52.907455 3.3453543
11.013115 52.905846 3.1809163
11.016037 52.903175 3.0162978
11.011128 52.892265 2.8528478
11.005233 52.880306 2.6894157
11.011981 52.881618 2.5229957
10.990473 52.853252 2.3626556
10.988409 52.845295 2.1976719
11.235497 53.388748 8.1537304
11.234331 53.381443 7.9826016
11.232109 53.373032 7.8117914
11.242429 53.377995 7.6436844
11.258538 53.38913 7.4766755
11.273649 53.3992 7.3095055
10.937827 52.903038 3.3447692
10.948617 52.908592 3.1792545
10.951564 52.905876 3.0146372
10.939855 52.887733 2.8525276
10.940814 52.882904 2.6877608
10.874977 52.905819 3.3427339
10.878954 52.904114 3.178385
10.86827 52.886963 3.016361
10.883919 52.897518 2.8491592
10.837163 52.842407 2.6942863
10.691328 52.629787 1.0803772
11.089025 53.367424 7.8135839
11.085859 53.357815 7.6432815
11.081646 53.347111 7.4733248
11.09681 53.357075 7.3067679
11.090536 53.3442 7.1372828
11.096868 53.344769 6.9698634
10.639146 52.661831 1.5820768
10.632403 52.648682 1.4185047
10.638126 52.648586 1.2505028
10.636074 52.640312 1.0844126
10.632988 52.630939 0.91813838
10.635564 52.627472 0.74924493
10.643759 52.629856 0.57749242
10.650857 52.631058 0.40526032
11.018359 53.379219 8.1628733
11.024169 53.37904 7.9933691
11.022165 53.370533 7.8227329
11.019113 53.360924 7.6524282
11.028606 53.364723 7.4846778
11.023479 53.352932 7.3149037
11.037747 53.361839 7.1482949
11.030563 53.347885 6.9790173
10.656354 52.791733 2.7209518
10.621916 52.743256 2.4013782
10.620247 52.735374 2.2378607
10.631151 52.740688 2.0707119
10.627466 52.730652 1.9068236
10.616014 52.712448 1.7447897
10.617089 52.707382 1.5788207
10.617139 52.701221 1.4126272
10.622892 52.701019 1.2440325
10.620868 52.692638 1.0773457
10.631227 52.697208 0.90575528
10.961882 53.389149 8.1675701
10.960996 53.381721 7.9966168
10.965834 53.380428 7.82726
10.983212 53.39254 7.6604471
10.965622 53.367325 7.4879293
10.980968 53.377285 7.3212123
10.981696 53.371655 7.152482
10.679685 52.907349 3.3623786
10.649753 52.869576 3.2039096
10.666679 52.881222 3.0374174
10.655299 52.86301 2.8757317
10.615685 52.815063 2.7199025
10.6092 52.802017 2.5574498
10.628939 52.816563 2.3886809
10.634043 52.815678 2.2226279
10.631343 52.806568 2.0580595
10.627638 52.796391 1.893399
10.905362 53.411171 8.5074091
10.90659 53.405926 8.3357754
10.906757 53.399563 8.1644335
10.912634 53.39933 7.9947581
10.924252 53.405243 7.8265052
10.928071 53.402832 7.6570473
10.937652 53.40659 7.4888649
10.932617 53.394749 7.3186603
10.603822 52.894623 3.3600957
10.587559 52.871231 3.1994934
10.590815 52.868431 3.0354896
10.593078 52.864571 2.8713167
10.580717 52.845287 2.7098265
10.580999 52.839321 2.5455272
10.600681 52.853764 2.3763216
10.871233 53.456074 8.856019
10.854444 53.43148 8.6782999
10.863448 53.434566 8.5078363
10.871411 53.43655 8.3374777
10.864826 53.422974 8.1643438
10.870691 53.422745 7.9944081
10.875522 53.421421 7.8246179
10.879318 53.419006 7.6549859
10.54055 52.895805 3.3557887
10.517422 52.865181 3.1963551
10.534294 52.876781 3.0299392
10.522874 52.858513 2.8683505
10.53092 52.860764 2.7026861
10.51754 52.840416 2.5412307
10.530379 52.847687 2.3736129
10.819794 53.472294 9.0346575
10.837646 53.484909 8.8652163
10.814155 53.453197 8.685442
10.836624 53.470795 8.5179605
10.831123 53.458427 8.3441019
10.838045 53.459389 8.1736012
10.843927 53.459248 8.003233
10.841999 53.450768 7.8317332
10.472328 52.890236 3.3587801
10.462837 52.874088 3.1971054
10.452376 52.856918 3.0355954
10.461397 52.86031 2.8702586
10.45579 52.848248 2.7074351
10.462806 52.849483 2.5416267
10.468808 52.849636 2.3755157
10.785082 53.515903 9.4007721
10.785065 53.509373 9.2248116
10.790635 53.508869 9.0511236
10.788424 53.500034 8.8758717
10.785113 53.490047 8.7010403
10.8009 53.500565 8.5315123
10.802182 53.495541 8.3588409
10.795648 53.482162 8.1850071
10.794793 53.474892 8.0130138
10.396022 52.87915 3.3676956
10.379714 52.855885 3.2073441
10.389732 52.860439 3.0423515
10.398746 52.863911 2.8770161
10.393137 52.851929 2.7141867
10.400147 52.853252 2.5483785
10.406144 52.853489 2.3822672
10.324765 52.874947 3.3687379
10.315255 52.85894 3.2073135
10.318413 52.856331 3.0435641
10.327393 52.859856 2.8783138
10.321754 52.847919 2.7155693
10.328731 52.849297 2.5498457
10.327903 52.842415 2.3854094
10.326075 52.834469 2.220855
10.262051 52.876934 3.3591712
10.245615 52.853695 3.1989174
10.241855 52.843872 3.0365024
10.257545 52.854607 2.8700824
10.279018 52.871429 2.7017379
10.61012 53.535393 9.5580845
10.617636 53.537189 9.3837042
10.624071 53.537846 9.2095299
10.629427 53.537357 9.0355759
10.633707 53.535728 8.8618565
10.636912 53.53297 8.688386
10.193284 52.870579 3.3493485
10.18359 52.854519 3.1880279
10.179742 52.844646 3.0256176
10.208953 52.86974 2.8565018
10.540034 53.531021 9.5524197
10.547511 53.532795 9.3781233
10.54723 53.526237 9.2020788
10.552534 53.525715 9.0282946
10.563464 53.531261 8.8565292
10.580059 53.542904 8.6865387
10.11546 52.858238 3.348098
10.112574 52.8494 3.1857831
10.10871 52.83952 3.0234606
10.13109 52.85741 2.8557682
10.464229 53.512791 9.37644
10.483939 53.527805 9.206521
10.475879 53.512939 9.0289946
10.486792 53.518513 8.8574038
10.496656 53.522976 8.6858892
10.052688 52.861267 3.3523386
10.049812 52.852474 3.190021
10.05277 52.849854 3.0264406
10.075146 52.86779 2.8586679
10.415051 53.527935 9.3849106
10.408092 53.51429 9.2069883
10.420059 53.521049 9.0352497
10.410886 53.50507 8.8582115
10.427429 53.516788 8.6885719
9.9970016 52.871174 3.3554401
9.9873056 52.855198 3.1941996
9.9698372 52.830978 3.0343766
10.019424 52.877838 2.8615122
10.337588 53.521523 9.5540428
10.351662 53.53056 9.3819599
10.331335 53.502525 9.2001247
10.343243 53.509266 9.0285549
10.360797 53.522102 8.8588352
10.363915 53.519402 8.6856203
9.9190559 52.859089 3.3547564
9.9025345 52.835896 3.1948593
9.9054747 52.833355 3.0315378
9.9482193 52.873013 2.8600032
10.263753 53.511482 9.5387573
10.264428 53.506058 9.3627615
10.277336 53.513847 9.1910477
10.26247 53.491714 9.01192
10.279927 53.504444 8.8424454
10.296364 53.516079 8.6728783
9.8361311 52.838692 3.3474302
9.8468094 52.844364 3.1831164
9.8428869 52.834518 3.0209684
9.878767 52.866898 2.8507476
10.209985 53.517368 9.3556318
10.209538 53.5107 9.1799326
10.228033 53.524483 9.0102119
10.212042 53.501099 8.8315058
10.221728 53.505417 8.660326
9.7808857 52.846924 3.337584
9.7711077 52.830814 3.176713
9.7807703 52.83535 3.0122147
9.8030224 52.853226 2.8446739
10.138144 53.517624 9.5314188
10.125522 53.497726 9.3513594
10.145069 53.5126 9.1817608
10.143559 53.504757 9.0064564
10.154336 53.510189 8.8351126
10.164068 53.514507 8.6638489
9.7041435 52.833828 3.3415649
9.7148285 52.83942 3.177335
9.7177181 52.836712 3.0140157
9.7332087 52.84737 2.8478284
10.068165 53.510887 9.536767
10.068892 53.505383 9.3608599
10.068514 53.498714 9.1853304
10.073714 53.498093 9.0120611
10.071156 53.489117 8.8372478
10.087607 53.500668 8.6679392
9.6429586 52.835388 3.3487723
9.6400881 52.826546 3.1868944
9.6430435 52.823887 3.0237489
9.6721821 52.84903 2.8550484
10.008596 53.505367 9.3619947
10.001537 53.491524 9.1845131
10.006704 53.490917 9.0113287
10.017489 53.496387 8.8401613
10.027232 53.500748 8.6690731
9.5752478 52.828869 3.3509555
9.5723639 52.820057 3.1891637
9.5685091 52.810204 3.0273643
9.5976362 52.835392 2.8588374
9.941618 53.49839 9.354845
9.9411507 53.491714 9.1794024
9.9529352 53.498299 9.0080795
9.9436131 53.482109 8.8314905
9.9532747 53.486439 8.6605701
9.5100632 52.819668 3.1842701
9.5129519 52.817028 3.0212102
9.535224 52.834976 2.8539343
9.8873587 53.511566 9.5308876
9.8747063 53.491665 9.350914
9.8808832 53.492149 9.1775055
9.8859882 53.491493 9.0043201
9.8699636 53.468044 8.8260441
9.8929939 53.486782 8.6586752
9.4662561 52.842358 3.3421175
9.4565058 52.826248 3.181334
9.45259 52.816345 3.0194526
9.4816456 52.841484 2.8508224
9.8177042 53.503574 9.5391169
9.8180609 53.491367 9.1878529
9.8232622 53.49073 9.0146704
9.8140249 53.474518 8.8381634
9.8371592 53.493286 8.6707249
9.3999481 52.8349 3.3532529
9.3834934 52.811581 3.1937222
9.3864746 52.808937 3.0307512
9.4088392 52.826893 2.8635736
9.7546387 53.494965 9.3777609
9.7543526 53.488361 9.2023153
9.7596388 53.487808 9.0291348
9.7571726 53.478901 8.8544035
9.7670078 53.483299 8.6834955
9.3391428 52.834663 3.367208
9.3363695 52.825893 3.2053256
9.3326244 52.816082 3.0434349
9.3211184 52.798012 2.8828874
9.7011251 53.497982 9.3924322
9.7008505 53.491531 9.2168951
9.6994772 53.483921 9.04175
9.7170582 53.496811 8.8723907
9.6934519 53.465229 8.6926928
9.2857819 52.842522 3.378231
9.2694025 52.819393 3.2185764
9.2724571 52.816952 3.055517
9.2677383 52.806229 2.8936214
9.6492682 53.504662 9.5813332
9.6430368 53.48613 9.2277298
9.6415873 53.478703 9.052577
9.6590939 53.491772 8.8832235
9.6421061 53.467609 8.7052135
9.2390661 52.857746 3.3864074
9.1954126 52.805801 3.2311852
9.2052002 52.810783 3.0670524
9.2004175 52.80024 2.9052336
9.5914173 53.492382 9.417654
9.5976467 53.493549 9.2439919
9.6028032 53.493572 9.0705481
9.5868397 53.470814 8.8919258
9.5630417 53.439629 8.712348
9.1637669 52.843723 3.4002428
9.1297598 52.797199 3.0811915
9.1316929 52.794109 2.918211
9.540493 53.485752 9.2610912
9.5255623 53.464417 9.0819769
9.5429068 53.477951 8.9126635
9.525754 53.454269 8.7346268
9.1177826 52.858845 3.415256
9.0768299 52.805508 3.0970795
9.0786886 52.802643 2.9340293
9.1473408 52.870895 2.7567949
9.4965134 53.495628 9.2970047
9.4749298 53.467262 9.1158562
9.4855976 53.473736 8.9447069
9.4617434 53.442982 8.7649765
9.06709 52.866512 3.4476123
9.0125341 52.798954 3.1317799
9.0143929 52.796238 2.9688702
9.4082155 53.46397 9.1598759
9.4054852 53.455959 8.9851017
9.4083614 53.454018 8.8124733
9.01332 52.876049 3.4899778
8.9605627 52.805607 3.0107615
9.3508186 53.467636 9.1386108
9.3480244 53.459431 8.9638472
9.3307505 53.435619 8.786067
8.9334784 52.851585 3.4727092
8.8923845 52.798084 3.1547101
8.9009514 52.802364 2.9904003
9.3044987 53.484707 9.2904873
9.2960567 53.47023 9.1133671
9.2931814 53.461788 8.9386148
9.2825203 53.444969 8.762579
8.8556309 52.824913 3.4516966
8.8415775 52.799984 3.1293087
8.8364944 52.789585 2.9675751
9.2390451 53.477978 9.2762365
9.2372179 53.470596 9.1010828
9.2342987 53.462051 8.9263372
9.2436857 53.466816 8.7554111
8.7744188 52.789616 3.1187901
8.7693014 52.779133 2.9571505
8.7767649 52.78204 2.7926705
8.8035345 52.80547 2.6233301
8.7954473 52.79179 2.4611747
8.7931366 52.784245 2.2973871
8.7965746 52.782799 2.1317225
9.1803875 53.475204 9.2783689
9.1718388 53.46069 9.1013403
9.1621723 53.444996 8.9248915
9.1915808 53.4715 8.7592382
8.7141056 52.789513 3.1207528
8.7157259 52.786324 2.9577694
8.7231369 52.789291 2.7932022
8.7092428 52.769562 2.6328595
8.7146711 52.770393 2.4679317
8.7258425 52.777321 2.3010283
8.7292433 52.775963 2.1354477
8.7128305 52.748524 1.8093405
9.1207561 53.462349 9.1136255
9.1110125 53.446877 8.9370766
9.1001577 53.430233 8.7611198
8.6744833 52.82299 3.4517376
8.6412821 52.77372 2.9702702
8.6486206 52.776909 2.8058763
8.6414261 52.764599 2.6441813
8.6467762 52.765644 2.4793384
8.6511183 52.765598 2.3142045
8.6611919 52.771637 2.1470268
8.6433086 52.747917 1.9868217
8.6446304 52.744621 1.8210665
9.0546284 53.44878 9.1232462
9.0648623 53.455158 8.9521618
9.0539618 53.438744 8.7760181
8.5794373 52.774677 2.9811599
8.5799379 52.770844 2.8181829
8.5726881 52.758736 2.656563
8.577981 52.759991 2.4918056
8.5822668 52.760155 2.3267565
8.5855427 52.759232 2.1614285
8.5878067 52.757214 1.9958353
8.5823336 52.746952 1.8319223
9.0152855 53.466549 9.1371574
9.005476 53.451435 8.9604139
9.0012522 53.442368 8.7859764
8.5198517 52.771389 2.8260205
8.5193472 52.766609 2.6628947
8.5313673 52.775166 2.4964671
8.5221214 52.761047 2.3345861
8.5253773 52.760239 2.1692572
8.5208912 52.751175 2.0055046
8.5221291 52.748188 1.8397429
8.9249868 53.429363 8.9572973
8.9207506 53.420269 8.7831163
8.4602413 52.771114 2.8282158
8.4529934 52.759129 2.6665866
8.4582863 52.760502 2.5018301
8.4558249 52.753601 2.3384502
8.4523726 52.745632 2.1749628
8.4546556 52.743763 2.0095396
8.4626427 52.747948 1.8419368
8.8727818 53.445412 9.1297455
8.8696527 53.437431 8.955061
8.8587399 53.42107 8.7790813
8.4313755 52.822384 3.468868
8.391757 52.762909 2.8257663
8.3845243 52.750881 2.6642265
8.3830767 52.745018 2.5011411
8.3873863 52.745281 2.3362639
8.3906889 52.744453 2.1711073
8.3929787 52.742535 2.0056846
8.4009714 52.746674 1.8380808
8.8024054 53.430943 8.9495697
8.8049088 53.428951 8.7771082
8.339241 52.768265 2.8208466
8.3252716 52.748951 2.6607246
8.3306122 52.750217 2.4960544
8.3349476 52.750401 2.3310919
8.3247986 52.735138 2.1693678
8.3405886 52.74749 2.0003431
8.7493544 53.437508 8.9513226
8.738533 53.421024 8.7753487
8.2678633 52.751427 2.8236659
8.2742491 52.753723 2.6592164
8.2796335 52.754932 2.4944615
8.2840118 52.755054 2.3294144
8.2739038 52.739735 2.1676054
8.6863298 53.436531 9.1205654
8.6899309 53.435627 8.9477701
8.6924677 53.43359 8.7752237
8.2072935 52.74931 2.8202446
8.2068863 52.744385 2.6572959
8.2122488 52.745598 2.4926262
8.2166052 52.745728 2.3276644
8.2064762 52.730412 2.1659443
8.6188335 53.419556 8.9400091
8.6145878 53.410282 8.7659235
8.1473017 52.748112 2.8162255
8.1535969 52.750408 2.6517732
8.1521349 52.744423 2.4886062
8.149683 52.737377 2.3253195
8.1529789 52.736439 2.1601641
8.1619911 52.74157 1.9928951
8.5661869 53.42627 8.9420919
8.5485802 53.402531 8.7645006
8.0886374 52.746914 2.8165476
8.0881863 52.741982 2.6536005
8.0935049 52.743191 2.4889305
8.0910711 52.736122 2.3256447
8.1011219 52.74234 2.1587281
8.08323 52.718788 1.9987668
8.4922915 53.41058 8.7672749
8.0410442 52.755405 2.6517026
8.032897 52.742146 2.490042
8.0305243 52.735027 2.3267579
8.0204229 52.719673 2.1651294
8.0362625 52.731926 1.9961876
8.4373837 53.419552 8.9406242
8.4265537 53.402935 8.7648335
7.9694037 52.739098 2.6540804
7.9748087 52.740215 2.4894128
7.965714 52.725876 2.3278072
7.9758615 52.732018 2.1609788
7.9647923 52.715553 1.999259
8.3923922 53.431515 9.11485
8.3825769 53.416119 8.938468
8.3917389 53.421234 8.7678022
7.9044027 52.730103 2.6534879
7.9097276 52.731274 2.488904
7.9140472 52.731361 2.3240285
7.9106207 52.723183 2.160639
8.3448277 53.432194 8.9502306
8.3338184 53.415836 8.7741737
7.8356128 52.723724 2.6609848
7.8408346 52.725075 2.4964848
7.8517981 52.732533 2.3300166
7.8482614 52.724518 2.166621
8.2690945 53.402382 8.7871456
7.8361397 52.81086 3.4766216
7.7749186 52.726013 2.674933
7.7733145 52.72039 2.5120149
7.7707233 52.713707 2.3489757
7.7671423 52.705959 2.1858282
8.2342024 53.428406 8.9817305
7.7908869 52.825783 3.4888866
7.7093906 52.719917 2.6907163
7.7145629 52.721657 2.5263038
7.7187314 52.722313 2.3615971
7.7151566 52.714703 2.1983564
7.731122 52.824345 3.4950802
7.6487899 52.712738 2.5340438
7.6530952 52.713356 2.3694263
7.6631308 52.72007 2.2027824
7.9243894 53.176941 6.7410226
7.9405403 53.189884 6.5768771
7.942111 53.18716 6.4114547
7.9358835 53.176067 6.2457123
7.9559107 53.193169 6.081594
7.9340777 53.165337 5.9155974
7.9453316 53.173019 5.7510614
7.5985208 52.715149 2.5209346
7.5961914 52.708309 2.357898
7.5996113 52.707581 2.193002
7.8551579 53.162296 6.551743
7.8295293 53.130009 6.3846893
7.8437371 53.140522 6.220891
7.8637881 53.157303 6.0571818
7.8487945 53.136471 5.8919034
7.853261 53.136524 5.7275577
7.8499293 53.128216 5.5631299
7.852438 53.126175 5.3988414
7.5412879 52.709106 2.4989476
7.5389972 52.701958 2.3359234
7.5357175 52.693745 2.1727924
7.7859573 53.157017 6.7022629
7.7953453 53.162155 6.5377698
7.7833366 53.144306 6.371727
7.7839456 53.140022 6.2069407
7.7971959 53.149315 6.0429001
7.7958412 53.142929 5.8781848
7.7935028 53.13549 5.7136116
7.7901816 53.127007 5.5491929
7.7927012 53.124786 5.3849063
7.4749503 52.69743 2.4870391
7.4861784 52.704483 2.3207407
7.7158594 53.138329 6.5380831
7.7310991 53.1497 6.3742599
7.7181273 53.130783 6.208581
7.7245979 53.132748 6.0443139
7.7300911 53.133659 5.880002
7.7277865 53.126209 5.7155161
7.7313213 53.125027 5.5512381
7.7407002 53.130104 5.386919
7.4235096 52.702423 2.4874504
7.4347672 52.70945 2.3210678
7.6646519 53.141666 6.553144
7.6663632 53.138512 6.3882532
7.6738992 53.141613 6.223875
7.6804571 53.143665 6.0594382
7.672401 53.130043 5.8944836
7.6633558 53.115368 5.7298441
7.6806126 53.128895 5.5657773
7.6696029 53.112129 5.4014564
7.3517456 52.679047 2.3418736
7.6112418 53.144409 6.5700121
7.619832 53.148693 6.4055381
7.6274438 53.151924 6.2409916
7.6272607 53.146797 6.0760536
7.6192727 53.133305 5.9109979
7.6307583 53.140694 5.746727
7.6344452 53.139725 5.5821896
7.6235037 53.123081 5.4176769
7.3067012 52.692162 2.3543377
7.5729723 53.162052 6.5861197
7.5679951 53.151859 6.4203639
7.5688334 53.147919 6.2553086
7.5686846 53.142925 6.0903668
7.5675497 53.136875 5.9255505
7.5858946 53.151711 5.7613649
7.5691495 53.128941 5.5964222
7.5787148 53.134365 5.4319506
7.3242941 52.805096 3.4937799
7.2421188 52.684158 2.3698835
7.5286102 53.182934 6.9300156
7.5256324 53.175003 6.7636557
7.5148487 53.158699 6.5969391
7.5302896 53.170551 6.4327307
7.5447588 53.181358 6.2682738
7.5378046 53.169186 6.1025481
7.5298562 53.155956 5.9371219
7.5413804 53.163601 5.7725158
7.1926341 52.698067 2.5417352
6.422534 53.461761 8.7215328
5.7078977 53.440372 8.7275877
5.6568313 53.444752 8.7327299
4.4413986 52.964573 5.3667774
4.4211869 52.940102 5.2029924
4.4274826 52.943642 5.0388346
4.4259214 52.938881 4.8748512
4.4371176 52.947594 4.7101059
4.4335852 52.940746 4.546051
4.4222021 52.925613 4.3826451
4.3783107 52.953327 5.1941652
4.3640189 52.934937 5.0305333
4.3624907 52.930031 4.866641
4.3599796 52.924088 4.702795
4.3496151 52.909855 4.5395031
4.34514 52.90184 4.3758731
4.3740044 52.928993 4.2089772
4.3118186 52.94714 5.3583198
4.2980485 52.925823 5.0307441
4.2965631 52.920868 4.86694
4.2940946 52.914879 4.7031822
4.2906432 52.907852 4.5394826
4.2930775 52.907032 4.3752708
4.2876582 52.897926 4.2116385
4.3018427 52.909489 4.0458302
4.2409611 52.922546 5.0353279
4.2395072 52.91761 4.8715234
4.2508173 52.92614 4.7069502
4.2405214 52.911873 4.5435691
4.249855 52.918308 4.3786893
4.2444611 52.90921 4.2148809
4.2518101 52.91354 4.0496578
4.2135148 52.951511 5.2064843
4.192461 52.925869 5.0429835
4.1773028 52.906452 4.8797226
4.1886673 52.915012 4.7152424
4.2059159 52.929768 4.5499802
4.2015529 52.921738 4.3859987
4.1824675 52.89819 4.2234297
4.2036037 52.917019 4.0567932
4.1609697 52.951763 5.0496764
4.1321459 52.917828 4.8866849
4.1367302 52.919117 4.7224364
4.1540775 52.933857 4.5570965
4.1429348 52.918568 4.3936005
4.1582932 52.93119 4.227716
4.1314449 52.899364 4.0658937
4.1077676 52.964149 5.551095
4.1026797 52.95504 5.3867555
4.1034842 52.952145 5.2224627
4.103302 52.948208 5.0581894
4.0883737 52.928734 4.8945651
4.1137357 52.951714 4.7289581
4.1037135 52.937408 4.5651264
4.1133337 52.94379 4.3998275
4.108212 52.934643 4.2355766
4.0576034 52.968277 5.5625901
4.0526485 52.959156 5.39816
4.0535865 52.956245 5.2337809
4.0604191 52.959553 5.0692043
4.0662637 52.961811 4.9044847
4.0642376 52.955776 4.7400246
4.0681024 52.95594 4.5751424
4.0709748 52.955059 4.4101548
4.0248442 53.002022 5.9077086
4.0112748 52.979744 5.5777712
4.0133233 52.977924 5.4131255
4.0074997 52.967808 5.2486067
4.0144525 52.971157 5.0838614
4.0341811 52.987957 4.9183793
4.0253887 52.974712 4.7539506
4.0293689 52.974918 4.58881
3.9795592 53.012665 5.9259982
3.9837091 53.01302 5.7609468
3.9731033 52.997822 5.5957513
3.9821513 53.003345 5.4308186
3.983326 53.000568 5.2658277
3.9903932 53.003994 5.1006527
3.9827008 52.991879 4.9359078
3.9740186 52.978725 4.7713785
3.9597886 53.054039 6.2807088
3.9522877 53.042137 6.1144662
3.9506605 53.036434 5.9487705
3.9411533 53.02243 5.7830544
3.9581795 53.036396 5.6179519
3.9397938 53.013046 5.4525666
3.9204097 52.988659 5.2877069
3.9482319 53.013985 5.1220574
3.9209073 53.069611 6.3089609
3.9135029 53.057941 6.142436
3.9188521 53.059719 5.9767299
3.9163227 53.053196 5.8108134
3.9127939 53.045628 5.6450462
3.928925 53.058762 5.4794359
3.9165163 53.041843 5.3138332
3.8913951 53.105907 6.8433375
3.8939986 53.104954 6.6764278
3.8887231 53.095692 6.5090642
3.8824329 53.085373 6.3419709
3.8888879 53.08849 6.1758876
3.8874633 53.083305 6.0094752
3.8919196 53.084316 5.8433862
3.8884919 53.07703 5.6771684
3.8840632 53.068691 5.5111103
3.8647473 53.136772 7.0341539
3.868434 53.137077 6.8667397
3.8642418 53.129078 6.6987605
3.8659022 53.127254 6.5315843
3.8734291 53.131622 6.3649626
3.8661964 53.120434 6.1975279
3.8648324 53.115437 6.030674
3.8349569 53.178352 7.5458064
3.8349488 53.174625 7.3766742
3.827059 53.162586 7.2068496
3.8387005 53.171165 7.0398426
3.8424761 53.171452 6.871995
3.8383698 53.163425 6.7035809
3.833241 53.154335 6.5354218
3.8408453 53.158665 6.3684535
3.8167887 53.234856 8.0533237
3.8064051 53.219795 7.8805819
3.8086081 53.218044 7.7106528
3.8166115 53.222427 7.5419655
3.8235939 53.225735 7.3732953
3.8227043 53.220741 7.203764
3.8139248 53.207436 7.0336461
3.817831 53.207516 6.865365
