# .PCD v0.7 - Point Cloud Data file format
VERSION 0.7
FIELDS x y z
SIZE 4 4 4
TYPE F F F
COUNT 1 1 1
WIDTH 1609
HEIGHT 1
VIEWPOINT 0 0 0 1 0 0 0
POINTS 1609
DATA ascii
10.664533 50.35862 39.699532
11.412956 50.564899 5.6774206
11.043961 51.39584 20.414656
11.061059 51.395599 19.981808
11.054336 51.361565 19.535053
11.060911 51.346687 19.101309
11.059557 51.320698 18.665415
11.06636 51.306503 18.238268
11.081458 51.304264 17.819422
11.083306 51.283344 17.394928
11.082674 51.259071 16.971907
11.068664 51.215981 16.543976
11.095926 51.23159 16.142939
11.07153 51.17411 15.715104
11.088686 51.175659 15.31308
11.087019 51.150684 14.903259
11.093384 51.114853 14.095898
11.10711 51.112019 13.700551
11.005421 51.944965 21.503586
11.00288 51.915627 21.044014
11.018429 51.912712 20.602127
11.020882 51.891026 20.153841
11.031185 51.880898 19.714806
11.044194 51.874859 19.280882
11.033446 51.834686 18.833776
11.036005 51.813927 18.399267
11.052066 51.812813 17.976664
11.065717 51.808372 17.555149
11.055424 51.7696 17.121601
11.047997 51.735142 16.693089
11.04893 51.712879 16.272533
11.058346 51.702961 15.859479
11.054526 51.674171 15.441624
11.064758 51.665703 15.033888
11.067234 51.646229 14.624388
10.95648 52.48563 22.630245
10.95569 52.457912 22.159166
10.972539 52.456379 21.706463
10.966115 52.420834 21.239046
10.967198 52.396553 20.781578
10.98113 52.391346 20.337488
10.997686 52.390179 19.898533
10.980296 52.33942 19.438608
11.002186 52.346432 19.009893
10.984715 52.295982 18.557407
11.017509 52.319275 18.141666
11.005491 52.277187 17.699516
11.012225 52.262688 17.272474
11.005834 52.229187 16.840336
11.013073 52.215744 16.419271
11.028728 52.214718 16.005533
11.025887 52.186871 15.583854
11.036941 52.179405 15.172287
10.914584 53.002003 22.863588
10.915158 52.975918 22.388538
10.917945 52.953377 21.919544
10.92303 52.934486 21.456413
10.94586 52.942249 21.010792
10.935276 52.900452 20.543112
10.932224 52.870094 20.085142
10.952402 52.874481 19.647562
10.964898 52.867619 19.207458
10.969665 52.849449 18.765121
10.966653 52.819927 18.320837
10.966348 52.794609 17.881647
10.979386 52.789234 17.453943
10.968839 52.749092 17.01453
10.971735 52.729027 16.586353
10.975712 52.68668 15.737175
10.479635 53.881996 39.749546
10.873597 53.541725 23.573257
10.868382 53.50631 23.083832
10.88022 53.496983 22.613354
10.889295 53.483688 22.144489
10.88047 53.443558 21.665201
10.883993 53.422333 21.199949
10.884796 53.397217 20.736456
10.898236 53.39138 20.286133
10.914245 53.389603 19.840883
10.907125 53.353153 19.38238
10.933563 53.367435 18.95063
10.921278 53.323601 18.495485
10.916789 53.291702 18.049135
10.925456 53.279755 17.614429
10.92646 53.256462 17.177805
10.935562 53.245487 16.748949
10.937024 53.223206 16.318254
10.826729 54.08437 24.29575
10.840568 54.077511 23.813375
10.831847 54.036213 23.315575
10.84985 54.036236 22.845253
10.855186 54.017029 22.368147
10.852737 53.986115 21.888813
10.857513 53.966511 21.419395
10.849494 53.927532 20.943975
10.869063 53.931015 20.493414
10.865787 53.899731 20.0292
10.88025 53.895775 19.581385
10.887097 53.880356 19.1313
10.891423 53.861271 18.682697
10.888081 53.830673 18.232239
10.882205 53.796406 17.783514
10.899795 53.798065 17.352663
10.899415 53.772514 16.913395
10.907078 53.759361 16.481766
10.784346 54.677231 25.553898
10.799286 54.642559 24.552904
10.799882 54.614891 24.053165
10.802394 54.590481 23.559805
10.802005 54.561806 23.068443
10.808582 54.544235 22.587364
10.812381 54.522575 22.108072
10.823352 54.512295 21.638525
10.82168 54.482578 21.162794
10.812265 54.441071 20.685202
10.830275 54.442356 20.232029
10.830633 54.416443 19.76918
10.843593 54.410259 19.318733
10.843898 54.384655 18.862656
10.856984 54.379017 18.418413
10.852278 54.346027 17.965485
10.860488 54.333191 17.523987
10.372296 55.44878 39.628365
10.750588 55.207203 25.309252
10.760334 55.193386 24.807751
10.752733 55.152359 24.295061
10.766236 55.14502 23.806149
10.767233 55.118141 23.310511
10.755605 55.071575 22.808674
10.775303 55.074738 22.337503
10.797289 55.081711 21.871628
10.777199 55.022541 21.375963
10.798842 55.029388 20.917027
10.793086 54.993275 20.440668
10.809624 54.992462 19.984495
10.81866 54.98003 19.526014
10.810076 54.940098 19.058575
10.80899 54.912155 18.599899
10.815529 54.896366 18.149548
10.845083 54.916824 17.716738
10.701308 55.571949 22.540785
10.7242 55.580566 22.071236
10.720098 55.546192 21.583494
10.732862 55.539017 21.113014
10.738118 55.52005 20.64028
10.755605 55.520809 20.180132
10.778229 55.476578 18.797071
11.059769 55.785419 5.7473698
11.133818 55.879219 5.3482647
10.300225 57.154438 39.576527
11.021178 56.358261 5.7920141
11.052673 56.385067 5.3831792
11.0456 57.04351 5.8410368
11.02506 56.985756 5.4199762
10.203982 58.297272 39.692314
10.518165 58.210026 29.386086
10.52316 58.185253 28.823677
10.529359 58.162884 28.268421
10.527919 58.127792 27.710808
10.536743 58.110569 27.169508
10.542524 58.088459 26.630337
10.563411 58.092407 26.111107
10.558688 58.052979 25.571693
10.569237 58.03986 25.051867
10.558547 57.990871 24.517113
10.572574 57.984211 24.009678
10.57459 57.95739 23.495831
10.564488 57.910255 22.976103
10.584284 57.914116 22.485987
10.610908 57.929756 22.004827
10.606741 57.893417 21.502405
10.609351 57.868797 21.009357
10.618866 57.856075 20.525249
10.635407 57.855431 20.049639
10.635139 57.826565 19.565094
10.661191 57.842339 19.102236
10.827876 57.66663 11.423792
10.24332 59.024338 39.542358
10.449977 58.852791 30.830284
10.481683 58.838669 29.698938
10.492731 58.823765 29.136478
10.491816 58.788425 28.566748
10.500892 58.770782 28.013632
10.489119 58.717316 27.444336
10.505312 58.712658 26.90954
10.523061 58.710979 26.381037
10.501904 58.642281 25.819403
10.518286 58.638817 25.299376
10.509138 58.591526 24.760042
10.519843 58.5788 24.243883
10.546138 58.593208 23.74572
10.532978 58.539845 23.217073
10.540065 58.521633 22.710413
10.42331 59.493504 31.173906
10.436739 59.446716 30.007908
10.44929 59.434174 29.44072
10.432614 59.370472 28.847237
10.45618 59.378025 28.303675
10.441684 59.318913 27.72506
10.459189 59.316433 27.185604
10.447181 59.262394 26.62134
10.494377 59.312626 26.120972
10.476367 59.248684 25.561329
10.477719 59.219025 25.025658
10.480696 59.192497 24.49633
10.485373 59.169228 23.973166
10.500942 59.165268 23.463907
10.500134 59.132919 22.944578
10.527205 59.119061 21.942118
10.532247 59.097641 21.439579
10.1179 60.086102 38.919205
10.136311 60.078373 38.254562
10.174411 60.10677 37.627419
10.185042 60.085957 36.967972
10.187737 60.051315 36.305809
10.214642 60.060863 35.685822
10.340596 59.956161 30.264193
10.341385 59.922798 29.678701
10.347479 59.899288 29.105356
10.359035 59.885883 28.543764
10.380548 59.890564 27.998123
10.381691 59.859207 27.436155
10.392911 59.846138 26.88995
10.401201 59.82814 26.345772
10.406577 59.805256 25.80368
11.529384 50.148857 0.69738382
11.530061 50.213951 0.37683719
11.530746 50.289917 0.33328271
11.410918 50.962437 0.14395544
11.401629 51.167007 0.54828423
11.372368 51.210796 0.54442322
11.367176 51.347363 0.66366136
11.369699 51.474453 0.3028999
11.374966 51.707516 0.84057057
11.418602 51.837475 1.4145339
11.375412 51.770813 0.80256093
11.402441 51.792923 0.63287807
11.406062 51.773823 -0.011659512
11.34333 51.832722 1.5561283
11.334821 51.818493 1.4034345
11.365894 51.844975 1.2359525
11.416078 51.89106 1.0598103
11.404497 51.873589 0.90582061
11.358388 51.820629 0.76541632
11.347322 51.915115 1.6784161
11.384352 51.932068 1.0365305
11.372537 51.914536 0.88212824
11.346343 51.882198 0.73318416
11.395531 51.916473 0.22918901
11.382635 51.995457 0.69363683
11.396952 52.088467 0.66451782
11.414471 52.18232 0.79156339
11.397738 52.149857 0.30814141
11.298083 52.238407 1.6879057
11.380696 52.419483 0.71638578
11.380974 52.414444 0.55132031
11.380197 52.408291 0.38595489
11.391686 52.414814 0.21464226
11.382111 52.399498 0.051466778
11.377783 52.490158 0.6975897
11.391351 52.498894 0.52645034
11.390451 52.492584 0.36016244
11.388489 52.485153 0.19359052
11.386862 52.574486 0.67613262
11.380284 52.562218 0.51204032
11.386018 52.56271 0.34234032
11.377341 52.548222 0.17783584
11.376773 52.634708 0.6518082
11.376816 52.629158 0.4843902
11.375793 52.622475 0.31667697
11.373699 52.614655 0.14868291
11.318217 52.650234 0.80692518
11.372865 52.701408 0.61911285
11.372786 52.695568 0.45094162
11.378303 52.695518 0.27973172
11.35968 52.768105 0.76646221
11.373985 52.777149 0.59276819
11.373812 52.771076 0.42375699
11.372564 52.763859 0.25445524
11.348327 52.835278 0.92555976
11.370414 52.852394 0.74919963
11.371288 52.84734 0.57973331
11.371088 52.841141 0.40996301
11.363151 52.826855 0.24264449
11.362179 52.945885 1.5806918
11.354809 52.932293 1.4163122
11.353166 52.924675 1.2496701
11.34376 52.908928 1.0851504
11.360188 52.920162 0.91103083
11.362099 52.916191 0.74120539
11.362936 52.911072 0.57106209
11.369367 52.911766 0.39796394
11.368031 52.904327 0.22714423
11.177032 53.128937 10.251559
11.188307 53.134956 10.083424
11.284703 53.001648 3.3934567
11.302065 53.014217 3.2282727
11.297917 53.004131 3.066407
11.299619 53.000191 2.9031818
11.307147 53.002361 2.7383509
11.300042 52.989136 2.576288
11.298759 52.982021 2.4126451
11.310069 52.98811 2.2454643
11.306769 52.978848 2.0814357
11.309243 52.975624 1.9154359
11.310691 52.971306 1.7491908
11.317868 52.972973 1.580659
11.323991 52.973507 1.4117385
11.315588 52.958813 1.2468938
11.319613 52.957108 1.077408
11.315865 52.947247 0.9099707
11.331159 52.957275 0.73493165
11.325277 52.945133 0.5669291
11.331681 52.945808 0.39349556
11.343627 52.952232 0.21687308
11.159648 53.189861 10.444542
11.093 53.112179 10.245186
11.117463 53.132347 10.08219
11.083258 53.180454 10.440935
11.305483 53.169357 3.5365171
11.136505 53.295742 9.9707041
11.269453 53.201546 3.5378129
11.070244 53.299698 9.9778099
11.20781 53.204304 3.5450423
11.162965 53.462944 9.8652763
11.186989 53.469074 9.352294
11.194745 53.457928 8.8394785
11.204168 53.461586 8.6713943
11.212767 53.451576 8.1649361
11.227862 53.442337 7.4961462
11.285017 53.409386 5.017323
11.288922 53.39484 4.5225401
11.284792 53.359257 3.697084
11.10508 53.470993 9.8758965
11.140743 53.502834 9.7134304
11.13552 53.490707 9.537776
11.129174 53.477406 9.3626633
11.135078 53.477299 9.1919956
11.153316 53.490456 9.0252752
11.137003 53.466534 8.8495865
11.153168 53.477493 8.6831064
11.14813 53.465725 8.5117483
11.162252 53.474522 8.3453903
11.15511 53.460541 8.1746979
11.160433 53.459934 8.0071735
11.171508 53.465496 7.8410563
11.168018 53.455482 7.6725912
11.177075 53.458904 7.5066419
11.178334 53.454002 7.3397136
11.171775 53.440758 7.1720786
11.184627 53.448257 7.0073009
11.189676 53.447433 6.8416691
11.200555 53.452831 6.676753
11.203619 53.449898 6.5111828
11.212522 53.453194 6.3461795
11.2136 53.448151 6.1807213
11.213685 53.442059 6.0153813
11.219624 53.442204 5.8503852
11.217726 53.43401 5.6852331
11.228539 53.439339 5.5203133
11.217813 53.421764 5.3553615
11.219801 53.417713 5.1904926
11.220802 53.412613 5.0256438
11.227672 53.413742 4.8605161
11.2267 53.406544 4.6956568
11.231594 53.405563 4.5303693
11.242349 53.410793 4.3644052
11.23841 53.40044 4.1994944
11.240331 53.39629 4.0339322
11.234414 53.383835 3.869137
11.22751 53.370338 3.7044621
11.082987 53.509853 9.7298212
11.091132 53.512177 9.5583172
11.091543 53.506203 9.3849745
11.090864 53.499081 9.2120152
11.089097 53.490818 9.0394535
11.092954 53.488621 8.8690844
11.095756 53.485313 8.6989698
11.104236 53.488113 8.5307322
11.098208 53.475368 8.35956
11.111366 53.483215 8.1931629
11.11 53.47551 8.0240316
11.121133 53.481205 7.8577476
11.117706 53.471325 7.6891012
11.133608 53.48214 7.5240726
11.121343 53.462833 7.3548751
11.128442 53.464256 7.1889749
11.141354 53.471889 7.0239444
11.132832 53.456635 6.8565683
11.143755 53.462158 6.6915722
11.146867 53.459343 6.5259132
11.142151 53.448189 6.3598661
11.15694 53.45784 6.1952786
11.150232 53.444576 6.029541
11.163054 53.452126 5.8647656
11.16805 53.451336 5.6996522
11.165211 53.442207 5.5344748
11.161381 53.432034 5.3694658
11.163412 53.428097 5.2045074
11.164457 53.423111 5.0395679
11.171368 53.424358 4.8743553
11.175373 53.416409 4.5440297
11.179317 53.414486 4.3785505
11.189117 53.418766 4.212326
11.230382 54.534451 4.6729884
11.234761 54.533527 4.4947872
11.224459 54.516861 4.3176031
11.114464 54.821903 8.6358967
11.140424 54.982796 4.8643842
11.15985 54.997334 4.6803322
11.198588 55.032623 4.4944339
11.154872 55.063183 4.8771958
11.167479 55.070545 4.692565
11.185789 55.08403 4.5071902
11.166466 55.779728 5.024538
11.124789 55.803555 5.016911
11.151359 55.826817 4.8229771
11.149608 55.819504 4.6299157
11.167085 55.832932 4.4355164
11.090493 55.834995 5.0107846
11.130653 55.872841 4.8159046
11.142496 55.880089 4.6215577
11.146395 55.878754 4.4273963
11.162718 55.890816 4.2320271
11.15752 55.879658 4.0381608
11.081399 55.895267 5.0082355
11.114785 55.925732 4.812952
11.119856 55.925591 4.6183777
11.130562 55.93153 4.4232244
11.126534 55.921558 4.2289162
11.080944 55.962254 5.0086827
11.087181 55.963367 4.8137975
11.099051 55.970558 4.6184058
11.109761 55.97649 4.4227304
11.112526 55.973835 4.2273421
11.07419 56.022236 5.0061369
11.107512 56.052723 4.8093715
11.112519 56.052589 4.6133142
11.123151 56.058525 4.416678
11.125832 56.055862 4.2203302
11.065357 56.082058 5.0017886
11.091798 56.10524 4.804615
11.1035 56.112465 4.6075616
11.114035 56.11842 4.4102249
11.116615 56.115768 4.2131786
11.051597 56.249191 9.1777124
11.06494 56.149139 5.0020537
11.084579 56.164989 4.8043933
11.082695 56.157547 4.6074085
11.09321 56.163509 4.4095497
11.102551 56.168194 4.2114234
11.028799 56.295593 9.1899195
11.071118 56.224659 5.0025072
11.084022 56.233109 4.8042727
11.102534 56.24762 4.6053576
11.099524 56.238838 4.4073939
11.108898 56.243446 4.2083983
11.042075 56.262764 5.0006795
11.082146 56.300522 4.8008261
11.087126 56.30027 4.601892
11.097709 56.306072 4.40238
11.086772 56.288593 4.2042727
11.049982 56.336178 4.9937162
11.083201 56.366554 4.7932739
11.094893 56.373604 4.5931683
11.112177 56.386696 4.3923082
11.101159 56.369156 4.1932468
11.053583 56.400425 4.9891462
11.093441 56.438202 4.7876086
11.111766 56.452637 4.5862384
11.108559 56.443756 4.3858356
11.097388 56.426258 4.1860776
10.574754 59.775997 23.361385
10.58163 59.775677 23.024513
10.587649 59.76675 22.354702
10.592559 59.764511 22.027037
10.594994 59.759624 21.700642
10.589172 59.745708 21.370506
10.59833 59.748398 21.056776
10.599322 59.742157 20.739229
10.470459 59.817356 28.172922
10.471332 59.800255 27.366377
10.492989 59.815449 26.996847
10.501094 59.815716 26.616297
10.500769 59.806751 26.231245
10.502654 59.800354 25.853926
10.51768 59.808632 25.496016
10.513565 59.795807 25.121845
10.517368 59.791862 24.760983
10.529318 59.797031 24.413046
10.521931 59.780903 24.049484
10.533945 59.786331 23.709917
10.537736 59.782757 23.366077
10.521937 59.757629 23.007395
10.537341 59.767063 22.682648
10.538894 59.76128 22.34841
10.532156 59.746433 22.010357
10.54013 59.747902 21.689226
10.551509 59.753197 21.374296
10.543073 59.736717 21.045507
10.54387 59.730495 20.728037
10.374623 59.865849 32.513184
10.370113 59.839874 31.561378
10.390703 59.852623 31.129982
10.392873 59.845001 30.679825
10.396061 59.83868 30.238438
10.410387 59.84491 29.819006
10.411098 59.83614 29.388044
10.433443 59.851574 28.991693
10.426973 59.835106 28.564419
10.432281 59.831871 28.158421
10.429004 59.819237 27.747852
10.448374 59.831871 27.370522
10.459426 59.835388 26.988319
10.462064 59.829689 26.601505
10.450861 59.808773 26.204285
10.463205 59.814068 25.839001
10.467226 59.810246 25.469183
10.473716 59.809265 25.106775
10.477321 59.805195 24.74584
10.461527 59.779762 24.369329
10.492583 59.806252 24.045454
10.482163 59.786964 23.683441
10.4857 59.783203 23.339674
10.486571 59.776585 22.997313
10.501831 59.785938 22.672403
10.491812 59.767471 22.327497
10.504169 59.766529 21.678543
10.337318 59.873058 31.572704
10.335619 59.850712 30.656721
10.343592 59.849621 30.222118
10.342833 59.838963 29.782721
10.353361 59.841026 29.365135
10.365419 59.844925 28.955791
10.368927 59.839462 28.541637
10.394671 59.858837 28.161263
10.391393 59.8461 27.7505
10.395103 59.841259 27.354191
10.385004 59.82122 26.947245
10.392683 59.821033 26.566824
10.402597 59.823441 26.194014
10.413423 59.818604 25.45286
10.230186 59.904236 34.960434
10.229015 59.891045 34.436596
10.678825 50.386101 39.825024
10.675787 50.406773 39.837955
10.660534 50.417164 39.838364
10.648088 50.433727 39.846333
10.618091 50.424564 39.826836
10.580983 50.416695 39.804337
10.575474 50.460403 39.827698
11.370691 50.71492 5.8104424
11.353935 50.727463 5.8073115
11.378646 50.746078 5.4421892
11.31189 50.709042 5.8014684
11.342905 50.735325 5.43747
11.380351 50.840736 6.1776862
11.299017 50.718681 5.4289823
11.341538 50.88887 8.0306101
11.364239 50.869862 6.5445418
11.292905 50.748165 5.4264593
11.309273 50.897861 8.3956614
11.260017 50.874722 6.8931832
10.931874 51.272232 26.339947
10.934219 51.259411 25.849798
10.944075 51.256161 25.371317
10.945166 51.242081 24.889824
10.94851 51.215824 23.941957
10.925927 51.325291 26.848885
10.931796 51.316715 26.356493
10.92881 51.29718 25.861134
10.93327 51.287159 25.377588
10.928916 51.266235 24.891186
10.932217 51.25507 24.41625
10.937817 51.246929 23.947769
10.934689 51.227993 23.476515
10.941317 51.206676 22.557402
10.933146 51.372044 26.376749
10.941167 51.366234 25.890831
10.918585 51.322113 25.382589
10.930741 51.321819 24.910305
10.945203 51.324566 24.444345
10.945471 51.309628 23.970724
10.938266 51.25563 22.570223
10.942736 51.246521 22.117235
10.884318 51.430645 28.391247
10.89565 51.428303 27.887426
10.898107 51.41494 27.380384
10.913059 51.417507 26.890648
10.908459 51.395592 26.387684
10.884068 51.348927 25.872227
10.91044 51.366364 25.407867
10.900873 51.338707 24.916248
10.909887 51.334587 24.44561
10.91572 51.326607 23.976667
10.923944 51.321774 23.514
10.917919 51.299171 23.044077
10.931134 51.300873 22.593639
10.924505 51.27779 22.131754
10.936072 51.263161 21.238672
10.868975 51.459332 28.404764
10.890959 51.470497 27.911221
10.893543 51.457317 27.403877
10.882607 51.41116 26.390625
10.885308 51.398655 25.899721
10.911809 51.416313 25.434982
10.902398 51.388851 24.942978
10.895066 51.36417 24.457911
10.900959 51.3563 23.988813
10.909239 51.351574 23.525988
10.897708 51.32206 23.05146
10.910947 51.323841 22.600943
10.921231 51.322025 22.151852
10.917281 51.302452 21.69581
10.916872 51.501217 26.428154
10.925172 51.49577 25.941401
10.940997 51.499977 25.46615
10.909894 51.445114 24.954441
10.930068 51.455112 24.49239
10.914063 51.419632 24.004114
10.933495 51.428967 23.549871
10.92766 51.406601 23.079174
10.919412 51.35199 21.70035
10.910378 51.548561 26.446815
10.924197 51.550068 25.964666
10.923864 51.533833 25.474539
10.914692 51.506584 24.981701
10.924048 51.502907 24.50983
10.919201 51.481438 24.030451
10.927705 51.476971 23.566692
10.927554 51.46172 23.10013
10.831127 51.605427 29.500507
10.850104 51.612488 28.991791
10.860252 51.608509 28.479574
10.861501 51.593414 27.964142
10.859092 51.573864 27.450914
10.863729 51.563431 26.950077
10.875606 51.562347 26.461241
10.862535 51.529812 25.95454
10.878446 51.534161 25.479294
10.863885 51.50008 24.981842
10.867777 51.489517 24.505522
10.868441 51.475018 24.031046
10.882492 51.477592 23.57205
10.899068 51.483482 23.118984
10.855125 51.671242 29.022524
10.865426 51.667484 28.509863
10.877385 51.666019 28.004408
10.875196 51.646744 27.490583
10.874707 51.629814 26.984085
10.886755 51.628975 26.49472
10.879268 51.603504 25.992399
10.86827 51.573753 25.492371
10.875575 51.567383 25.01372
10.890583 51.570919 24.546225
10.874965 51.535801 24.057241
10.872562 51.517574 23.5842
10.889183 51.523567 23.130899
10.902839 51.525928 22.678972
10.896733 51.503426 22.21559
10.912351 51.639309 24.090527
10.611682 51.894226 39.486629
10.614676 51.950531 39.521854
10.866697 51.877342 27.588589
10.861521 51.854214 27.075457
10.863423 51.840317 26.574614
10.883337 51.849602 26.095478
10.878435 51.827339 25.598537
10.870107 51.800873 25.103783
10.880181 51.798054 24.62999
10.876128 51.777359 24.148674
10.885332 51.773716 23.682976
10.891455 51.766281 23.218908
10.888957 51.748001 22.752153
10.888943 51.733021 22.291573
10.852351 52.01099 28.1355
10.861641 52.005932 27.629713
10.872725 52.003353 27.130938
10.875049 51.989704 26.629042
10.863189 51.958035 26.119408
10.885475 51.970322 25.646013
10.845064 51.90242 25.121756
10.893412 51.948391 24.680159
10.884296 51.920906 24.193172
10.887365 51.863056 22.323454
10.773678 52.10664 31.891973
10.783751 52.101177 31.34408
10.774611 52.071133 30.781694
10.776688 52.055794 30.238569
10.795427 52.062164 29.719551
10.815697 52.07069 29.207748
10.78555 52.014442 28.650154
10.787969 52.000366 28.132202
10.792011 51.988571 27.621578
10.792494 51.972378 27.113058
10.816048 51.986027 26.631628
10.798915 51.94754 26.117298
10.810443 51.946056 25.634552
10.85562 52.141014 28.223108
10.860053 52.129917 27.711138
10.850346 52.10078 27.191145
10.863569 52.10136 26.698534
10.857407 52.077148 26.192961
10.858493 52.062439 25.699326
10.872415 52.064396 25.221989
10.861444 52.034504 24.727554
10.874364 52.035469 24.258423
10.868914 51.997639 23.307137
10.500733 52.21648 39.644314
10.825878 52.285656 29.308285
10.82021 52.243591 28.250479
10.830141 52.23938 27.743122
10.836571 52.230812 27.237711
10.866043 52.252213 26.75922
10.855011 52.221409 26.247684
10.840428 52.186203 25.738571
10.833094 52.160538 25.241449
10.854847 52.172585 24.774628
10.835463 52.131695 24.276968
10.856404 52.142975 23.817987
10.852407 52.122238 23.342537
10.867319 52.126007 22.886536
10.862666 52.10471 22.419075
10.488586 52.290325 39.71851
10.718421 52.381149 33.729248
10.740808 52.371632 32.595467
10.740802 52.352638 32.026379
10.756727 52.35463 31.482487
10.748534 52.325447 30.918367
10.756576 52.317619 30.379005
10.77101 52.318314 29.85273
10.766297 52.294327 29.312372
10.768085 52.278992 28.785082
10.781783 52.27932 28.275696
10.791964 52.275265 27.768194
10.777581 52.239532 27.24239
10.785971 52.233517 26.74412
10.796285 52.230164 26.25267
10.803276 52.222668 25.763035
10.815786 52.420002 29.38327
10.823048 52.411915 28.860157
10.847552 52.409286 27.840878
10.844023 52.387733 27.323997
10.852774 52.382313 26.824366
10.852804 52.365742 26.321733
10.844053 52.337955 25.81638
10.847952 52.326744 25.327618
10.856764 52.306107 24.365112
10.78546 52.546425 29.968576
10.80694 52.55682 29.453316
10.809384 52.542522 28.923958
10.813307 52.530357 28.402067
10.808381 52.506832 27.877214
10.79454 52.471874 27.349688
10.808661 52.473568 26.854662
10.803532 52.45034 26.346664
10.821576 52.45747 25.865089
10.820354 52.439663 25.370804
10.826567 52.431694 24.887947
10.829572 52.419704 24.406908
10.818512 52.389576 23.91869
10.836958 52.397953 23.459381
10.717196 52.659225 33.325897
10.728101 52.63522 32.187088
10.724852 52.612148 31.618582
10.742621 52.616901 31.08062
10.766719 52.630161 30.555668
10.766796 52.612118 30.010756
10.757877 52.582504 29.462906
10.770809 52.581726 28.944118
10.77497 52.569656 28.422079
10.759872 52.532581 27.886803
10.777674 52.538731 27.389639
10.781585 52.526894 26.884193
10.787344 52.517643 26.38571
10.78973 52.504158 25.889181
10.818913 52.702412 28.488283
10.838018 52.692886 27.468781
10.842355 52.681553 26.961979
10.816793 52.631264 26.432682
10.8294 52.614635 25.449322
10.836145 52.607136 24.96516
10.575587 52.908974 39.55455
10.746175 52.852955 31.213333
10.760763 52.853954 30.675623
10.76144 52.836803 30.129101
10.758252 52.81477 29.584991
10.782009 52.828457 29.075073
10.786819 52.81736 28.551176
10.772438 52.781185 28.01403
10.775159 52.767723 27.499804
10.784854 52.763615 26.997681
10.77534 52.734421 26.482721
10.783501 52.728634 25.9895
10.777712 52.704689 25.488617
10.779254 52.690536 24.99931
10.809831 52.714634 24.539583
10.799634 52.685375 24.049263
10.560414 52.985531 39.597317
10.736703 52.952511 31.812145
10.750487 52.952023 31.266077
10.745323 52.92667 30.705622
10.741213 52.902939 30.153234
10.753552 52.90118 29.624836
10.757108 52.888012 29.093189
10.767269 52.883766 28.574207
10.758327 52.854488 28.041828
10.776934 52.861759 27.542336
10.776477 52.844055 27.029568
10.783056 52.835808 26.528809
10.780976 52.816319 26.025162
10.796777 52.820549 25.542696
10.52374 53.028709 39.578957
10.526164 53.11953 39.657269
10.807775 53.097389 28.163269
10.801888 53.004032 25.611496
10.45581 53.113544 39.645851
10.682137 53.20504 33.64109
10.706498 53.19846 32.506042
10.720022 53.197315 31.95047
10.729621 53.191154 31.397091
10.725297 53.166656 30.834965
10.722012 53.143772 30.280897
10.735089 53.142906 29.750811
10.734314 53.123798 29.212179
10.734918 53.106731 28.681143
10.742167 53.098701 28.162678
10.730328 53.065491 27.631094
10.746092 53.069145 27.132
10.763776 53.075512 26.639545
10.751865 53.042767 26.124554
10.75234 53.026638 25.626287
10.765463 53.027439 25.144114
10.758354 53.264984 29.81196
10.75284 53.239456 29.267088
10.764004 53.236385 28.745581
10.745865 53.194447 28.200399
10.775694 53.216625 27.708622
10.781468 53.206928 27.198277
10.778574 53.185871 26.685047
10.745906 53.125393 26.149897
10.778265 53.151588 25.67963
10.786367 53.145672 25.191774
10.726772 53.455822 30.974497
10.74334 53.440517 29.891605
10.728243 53.401821 29.334991
10.73475 53.392315 28.80724
10.753052 53.398808 28.297029
10.76794 53.400906 27.788572
10.748299 53.35696 27.252029
10.771901 53.371078 26.762432
10.771338 53.353035 26.254982
10.762114 53.323593 25.744917
10.639384 53.577263 35.019955
10.676526 53.56609 33.272949
10.67569 53.545033 32.689728
10.68541 53.538467 32.126137
10.676315 53.506779 31.548143
10.702896 53.523396 31.017017
10.700819 53.501629 30.46047
10.704909 53.488388 29.917173
10.69004 53.449863 29.360329
10.696731 53.440552 28.832354
10.694698 53.419716 28.30138
10.714789 53.428791 27.798063
10.705649 53.398804 27.271481
10.724161 53.406109 26.776829
10.718494 53.381153 26.264467
10.746217 53.401127 25.787689
10.746691 53.618626 29.460854
10.753879 53.610027 28.931393
10.752327 53.571972 27.873867
10.511129 53.854382 39.542366
10.682614 53.832233 32.297382
10.689311 53.821751 31.733953
10.701965 53.819588 31.183916
10.700857 53.798969 30.625175
10.705873 53.78688 30.079674
10.697055 53.756256 29.525896
10.709732 53.754982 29.000828
10.693386 53.714592 28.452059
10.71937 53.73172 27.951624
10.721468 53.716698 27.432747
10.730453 53.711174 26.92585
10.710055 53.666115 26.396702
10.722702 53.665894 25.903587
10.721628 53.647308 25.402836
10.452783 53.885597 39.533054
10.662108 53.933895 32.911793
10.680108 53.918671 31.781328
10.688126 53.910069 31.225134
10.697258 53.90321 30.676676
10.687612 53.871025 30.114367
10.69416 53.861095 29.575926
10.66668 53.805134 29.008436
10.686088 53.813099 28.495468
10.686749 53.795792 27.969057
10.699293 53.794804 27.45985
10.708476 53.789433 26.952499
10.714315 53.779705 26.447062
10.727281 53.7798 25.953106
10.727802 53.746078 24.956598
10.463608 54.002811 39.610031
10.734376 53.999565 29.12096
10.421587 54.051929 39.633648
10.721215 54.107216 29.710197
10.71476 54.079643 29.161619
10.634044 54.220081 33.075912
10.645975 54.216202 32.507519
10.658836 54.21384 31.946997
10.67274 54.213139 31.394201
10.663081 54.180309 30.821823
10.684232 54.189999 30.289755
10.661797 54.140118 29.717243
10.685662 54.153942 29.199924
10.670699 54.114761 28.648319
10.682472 54.112411 28.129852
10.670357 54.077557 27.59338
10.685465 54.080147 27.088968
10.681786 54.057224 26.571806
10.690269 54.051105 26.071182
10.646027 54.327908 32.56406
10.654331 54.319195 31.997168
10.673423 54.325573 31.449152
10.66905 54.299866 30.881405
10.660737 54.268974 30.316307
10.658495 54.246677 29.764494
10.692653 54.274632 29.256849
10.678062 54.235783 28.704353
10.690155 54.233799 28.184986
10.683503 54.20628 27.652599
10.67328 54.174061 27.122656
10.690463 54.179623 26.624218
10.699587 54.156654 25.618311
10.679176 54.402344 30.383831
10.66923 54.502407 30.445112
10.682659 54.501625 29.907379
10.673589 54.451019 28.812407
10.456331 54.647743 39.429676
10.595333 54.661373 34.496235
10.600677 54.626606 33.306103
10.623551 54.637733 32.74614
10.632915 54.630302 32.17701
10.630104 54.586224 31.035002
10.632661 54.570053 30.478634
10.641356 54.562622 29.935247
10.641409 54.543423 29.388832
10.642797 54.526287 28.849947
10.655722 54.525345 28.328556
10.65 54.498772 27.794128
10.666227 54.502781 27.286684
10.663103 54.462112 26.253275
10.481827 54.80077 39.538383
10.62149 54.751247 32.80154
10.641796 54.738647 31.669542
10.653489 54.734844 31.11517
10.636806 54.69175 30.5362
10.650782 54.691582 29.997211
10.641236 54.658901 29.439413
10.66297 54.669941 28.920252
10.641014 54.620453 28.362314
10.665913 54.636276 27.857195
10.662113 54.612427 27.329054
10.437167 54.856575 39.55349
10.658988 54.783302 28.972609
10.652349 54.736256 27.897934
10.392537 54.928181 39.608772
10.593756 54.985779 33.523029
10.593822 54.964851 32.932087
10.609042 54.96545 32.366154
10.62526 54.967686 31.807915
10.632836 54.958031 31.246357
10.631701 54.936405 30.681767
10.611924 54.888916 30.103865
10.627864 54.891663 29.570707
10.635303 54.882721 29.034346
10.629163 54.854996 28.490009
10.629479 54.836514 27.958155
10.641513 54.834591 27.4433
10.645125 54.821095 26.925488
10.557007 55.097359 34.764774
10.570407 55.094582 34.173893
10.589202 55.099667 33.596859
10.580164 55.0658 32.993752
10.590929 55.060089 32.42152
10.592954 55.042324 31.846109
10.595903 55.026108 31.278681
10.599891 55.011589 30.719082
10.600101 54.991997 30.161875
10.601511 54.974316 29.612341
10.629128 54.993618 29.096004
10.613363 54.952271 28.540716
10.624068 54.94825 28.018154
10.631383 54.939667 27.497557
10.591239 55.197422 33.06881
10.59277 55.178711 32.484409
10.619243 55.195446 31.935656
10.593507 55.138771 31.334391
10.607537 55.138424 30.784702
10.608082 55.119293 30.226536
10.609818 55.102074 29.676035
10.617824 55.093891 29.13818
10.6023 55.052822 28.58222
10.606466 55.299152 31.992767
10.624722 55.30455 31.439663
10.620793 55.258854 30.307867
10.622973 55.24221 29.75625
10.621485 55.220608 29.207003
10.543988 55.442024 34.980614
10.544428 55.420856 34.369797
10.579992 55.428673 33.213188
10.582335 55.411011 32.627052
10.575859 55.381081 32.03801
10.570172 55.352535 31.457228
10.609167 55.387619 30.9328
10.595866 55.348743 30.35685
10.57373 55.297607 29.778576
10.582294 55.290195 29.239376
10.61221 55.31321 28.727621
10.593855 55.268105 28.172419
10.386537 55.499573 39.365345
10.471351 55.573483 38.147598
10.550459 55.55109 34.449921
10.537657 55.511261 33.829468
10.563128 55.526302 33.263046
10.565739 55.508995 32.676262
10.554749 55.472572 32.081059
10.57344 55.478672 31.526863
10.583607 55.472858 30.969316
10.570537 55.434227 30.392849
10.568291 55.411228 29.834906
10.562329 55.383183 29.279472
10.58744 55.399471 28.762053
10.579301 55.368759 28.216297
10.430923 55.689903 39.516472
10.463475 55.688843 38.220905
10.555864 55.663776 33.92551
10.548718 55.632191 33.31831
10.575418 55.649273 32.758698
10.579264 55.633923 32.178928
10.574373 55.606342 31.596249
10.584904 55.601025 31.037746
10.591731 55.590652 30.481466
10.564796 55.512718 29.345009
10.580307 55.515385 28.816486
10.592422 55.513405 28.28985
10.367848 55.732113 39.527691
10.507447 55.793152 35.798615
10.533495 55.786297 34.592625
10.514716 55.716175 33.362751
10.551122 55.747238 32.813797
10.550742 55.705097 31.650032
10.561572 55.700184 31.09087
10.567272 55.668186 29.974049
10.336992 55.819107 39.582047
10.513806 55.825001 32.850842
10.523475 55.797176 31.697071
10.55166 55.796913 30.590361
10.570075 55.803303 30.050596
10.309365 55.909252 39.630718
10.405444 56.298965 39.283974
10.365935 56.382866 39.330719
10.347805 56.493107 39.399323
10.421018 56.55249 38.159229
10.308294 56.576443 39.446331
10.403965 56.669319 38.236023
10.296937 56.70578 39.537708
10.914728 56.69178 14.603526
10.932838 56.686527 13.73812
10.345696 57.018772 38.455086
10.887397 56.943935 14.658093
10.323657 57.468094 39.414421
10.354494 57.465996 38.109802
10.890025 57.357113 13.442174
10.251618 57.517834 39.421265
10.317559 57.568886 38.165138
10.885158 57.506184 13.473029
10.310874 57.714794 38.266861
10.766065 57.683781 18.895609
10.775121 57.680378 18.433037
10.776362 57.665424 17.968538
10.790957 57.670475 17.514729
10.83084 57.680321 16.165064
10.841128 57.679287 15.718035
10.816849 57.610779 14.808906
10.846988 57.639496 14.378004
10.842399 57.616676 13.932894
10.830018 57.582371 13.486764
10.875171 57.633537 13.066795
10.885483 57.633041 12.633574
10.909971 57.653622 12.207301
10.904894 57.630417 11.771364
10.939198 57.557766 8.3645992
10.958839 57.57156 7.9475589
10.97084 57.574089 7.5294747
10.980762 57.573578 7.1116767
10.977436 57.553543 6.692297
10.983195 57.546944 6.275341
10.557323 57.873348 28.394411
10.586662 57.859158 26.798977
10.599895 57.859985 26.280142
10.6051 57.848881 25.758595
10.607199 57.833263 25.239002
10.6162 57.828209 24.730011
10.622221 57.818817 24.222767
10.625276 57.805122 23.717327
10.645626 57.817585 23.229975
10.663214 57.826015 22.743889
10.642332 57.776779 22.231827
10.664535 57.792408 21.75662
10.673809 57.788742 21.275026
10.670051 57.765644 20.787577
10.684244 57.769604 20.316259
10.69583 57.769764 19.846169
10.704823 57.76614 19.377346
10.700761 57.743073 18.903181
10.699311 57.724037 18.433949
10.721623 57.740673 17.982105
10.720376 57.722145 17.518721
10.743114 57.739586 17.071814
10.736895 57.713818 16.611027
10.754841 57.724258 16.16597
10.743693 57.691326 15.70795
10.751522 57.686821 15.262238
10.756997 57.678879 14.817547
10.760126 57.667519 14.373917
10.777139 57.676933 13.938617
10.788131 57.661621 13.063214
10.321498 58.070892 39.167816
10.34306 58.055378 37.853493
10.500249 57.947338 28.412037
10.498806 57.925415 27.863729
10.508597 57.920715 27.331821
10.52497 57.926159 26.811069
10.523516 57.904781 26.278408
10.523788 57.886204 25.752407
10.545715 57.900551 25.250393
10.539832 57.872997 24.728277
10.54085 57.856045 24.216816
10.548919 57.849903 23.715593
10.335732 58.216648 37.954716
10.376812 58.20863 36.053501
10.369839 58.152081 34.782314
10.380024 58.036728 31.190746
10.24027 58.288239 39.285492
10.301415 58.357872 38.692509
10.315329 58.354885 38.040661
10.360998 58.377331 36.786255
10.339972 58.321438 36.113293
10.345648 58.306984 35.484089
10.342702 58.279556 34.851986
10.371787 58.301666 34.267532
10.351671 58.248417 33.629868
10.248113 58.4641 39.408501
10.296791 58.514732 38.795898
10.259155 58.431961 38.070744
10.332855 58.474518 36.206104
10.334528 58.45388 35.570034
10.34547 58.447849 34.953823
10.361455 58.449871 34.351318
10.359974 58.425209 33.734604
10.354254 58.372463 32.5205
10.350175 58.344608 31.922966
10.322381 58.679493 37.604053
10.341857 58.685741 36.972775
10.343989 58.665359 36.326538
10.324097 58.611115 35.660332
10.326564 58.591877 35.031662
10.33394 58.580532 34.416981
10.323193 58.519184 33.179211
10.173328 58.705795 39.542675
10.263537 58.796654 38.310055
10.289948 58.789043 37.019985
10.318812 58.810101 36.407974
10.303924 58.76326 35.746502
10.324747 58.772354 35.139378
10.328259 58.754772 34.517742
10.305202 58.696144 33.8713
10.32857 58.68779 32.685726
10.247355 58.98106 39.084934
10.254715 58.967434 38.41655
10.292251 59.001442 37.798641
10.308421 59.002251 37.159172
10.311666 58.983124 36.510674
10.28418 58.916225 35.830734
10.318777 58.94677 35.239502
10.296036 58.887936 34.583073
10.268145 59.196568 39.23642
10.215273 59.062996 37.810028
10.281957 59.047848 34.671909
10.249085 59.349594 39.336266
10.244918 59.317543 38.646999
10.222798 59.232738 37.278637
10.230762 59.196819 35.987446
10.27981 59.226871 34.780563
10.286811 59.191723 33.549648
10.168931 59.413998 39.345909
10.250054 59.517265 38.776699
10.199156 59.411098 38.029861
10.247518 59.413887 36.122391
10.258015 59.382763 34.861809
10.26475 59.686737 37.570263
10.249678 59.613178 36.237473
10.239351 59.5485 34.945957
10.226996 59.795837 36.980984
10.230641 59.704494 34.421066
10.201348 60.027248 39.093479
10.19276 59.911732 36.407024
10.176845 60.185036 39.190315
10.145785 60.108776 38.46241
10.178021 60.135193 37.832664
10.167716 60.093208 37.152824
10.204807 60.128056 36.545155
10.207755 60.108093 35.899715
10.536315 58.295319 24.013361
10.56538 58.101997 22.588278
10.722839 57.968735 17.955549
10.77011 57.523018 14.079416
10.823473 57.066048 14.01333
10.847959 56.930649 13.992799
10.58784 54.976563 29.404428
10.604124 54.49308 29.237265
10.611344 54.399731 29.185959
10.635678 54.297585 28.451788
10.628871 53.771454 29.672115
10.711452 53.197826 29.131804
10.707888 53.160686 27.739059
10.763899 53.09454 25.030001
10.755576 52.906925 27.12739
10.71612 52.760822 28.527527
10.818991 52.660591 23.160322
10.734834 52.656029 29.957634
10.794609 52.697533 29.286987
10.713237 52.55751 29.956167
10.747552 52.414104 27.858025
10.799939 52.447956 27.195595
10.75833 52.442093 30.65167
10.726921 52.308132 28.528122
10.824842 52.297951 24.479618
10.802047 52.281067 27.203053
10.775441 52.238277 26.505009
10.732213 52.153336 29.964649
10.806704 52.206306 29.301479
10.835312 52.146896 25.865589
10.724453 52.083023 29.900377
10.771068 52.071186 27.828981
10.771344 52.114845 29.875614
10.75188 52.014103 28.47142
10.878276 51.892368 22.474318
10.890366 51.840145 25.216314
11.054264 51.621445 18.043655
11.038982 51.536697 15.494396
11.10782 51.593475 16.126253
11.17149 51.507927 11.129162
11.199355 51.51556 10.515156
11.20115 51.499504 9.898077
11.211478 51.429897 8.0153542
11.21932 51.418823 7.4035134
11.30442 51.459625 6.1876078
11.143815 51.521118 14.168398
11.235472 51.379169 6.7572241
11.276988 51.481358 9.8372345
11.282215 51.467319 9.2206068
11.307098 51.415089 6.7652946
11.271462 51.355968 6.8161588
11.316058 51.377781 6.207634
11.288407 51.343159 6.8871751
11.335905 51.344002 7.5311699
11.248994 51.40868 9.1365252
11.221322 51.473698 11.609692
11.314691 51.436539 7.2626872
11.277765 51.369892 6.023479
11.14808 51.467758 12.864764
11.228451 51.453949 9.7451715
11.239076 51.429585 8.5023518
11.279279 51.448311 7.8863306
11.322917 51.470078 7.2707686
11.123787 51.569645 16.061357
11.148354 51.470642 11.62792
11.258366 51.533985 10.393079
11.191894 51.458141 9.758503
11.232919 51.477489 9.1410446
11.251763 51.426613 6.6609554
11.053419 51.642029 19.291592
11.074994 51.658997 17.332952
11.022584 51.765175 18.602011
10.873182 51.883698 25.271759
11.004849 51.808529 18.6241
10.995383 51.781361 17.968639
10.839763 51.934944 25.973351
10.846493 51.921059 25.28635
10.869591 51.921894 24.6103
10.854961 52.015541 23.184847
10.834146 52.242188 25.149641
10.819803 52.30138 25.162371
11.409151 50.327175 5.1811428
11.407452 50.306492 4.6460938
11.404573 50.28936 4.2446156
11.406657 50.286694 4.1102867
11.40791 50.283188 3.9758794
11.408332 50.278843 3.841404
11.407921 50.273659 3.7068706
11.413698 50.274662 3.5711277
11.414328 50.256073 3.0291774
11.387312 50.413437 6.0988412
11.344574 50.365498 5.9615283
11.41348 50.430359 5.8302612
11.401108 50.394131 5.1564975
11.387692 50.375877 5.0224314
11.39458 50.378078 4.8878212
11.386555 50.365261 4.7538595
11.391788 50.365791 4.6191573
11.403234 50.372562 4.4837699
11.399768 50.36433 4.3494101
11.402511 50.362335 4.214385
11.40442 50.359497 4.0792737
11.412522 50.362869 3.9431701
11.405733 50.351288 3.8088317
11.405136 50.345913 3.6735222
11.403701 50.339695 3.5381677
11.408434 50.339649 3.4015164
11.412315 50.338737 3.264668
11.408347 50.329956 3.1290686
11.403537 50.320324 2.9934664
11.404862 50.316826 2.8562641
11.412296 50.319416 2.7172143
11.378554 50.481155 6.0834913
11.356858 50.454403 5.9466934
11.398841 50.468189 5.136127
11.399419 50.463997 5.0008411
11.392128 50.451862 4.8658991
11.391044 50.445995 4.7307649
11.396165 50.446381 4.5951872
11.400452 50.445919 4.4594932
11.396872 50.437531 4.3243585
11.399489 50.435379 4.1885505
11.40127 50.432377 4.0526571
11.402211 50.428524 3.9166894
11.395297 50.416771 3.7816706
11.394563 50.411224 3.6456721
11.407001 50.418903 3.5072575
11.411572 50.418663 3.3697369
11.408292 50.41053 3.2333813
11.411153 50.408554 3.0955687
11.414289 50.401966 2.8194349
11.354365 50.53495 6.0657306
11.353662 50.529415 5.9295578
11.414897 50.567322 5.2501235
11.381064 50.528275 5.1145468
11.381544 50.523945 4.9786534
11.381188 50.518772 4.8427892
11.38703 50.519859 4.7065477
11.377976 50.505901 4.5711875
11.396199 50.519474 4.433701
11.392502 50.510914 4.2977934
11.39499 50.508595 4.161202
11.396637 50.505421 4.0245275
11.404456 50.508453 3.886843
11.404412 50.503559 3.7499473
11.396519 50.490757 3.6141117
11.401788 50.491196 3.4760125
11.406199 50.490761 3.3377099
11.409747 50.489445 3.1992147
11.412432 50.487247 3.0605383
11.41425 50.484165 2.9216912
11.408237 50.473213 2.7843144
11.401372 50.461395 2.6469612
11.407543 50.462646 2.5060389
11.405885 50.456032 2.3667061
11.398069 50.418159 1.5214894
11.346327 50.602215 6.0485644
11.359557 50.610825 5.9124141
11.379316 50.601902 5.0923147
11.379677 50.597439 4.9556403
11.379199 50.592129 4.8189955
11.391929 50.600185 4.6815367
11.382751 50.586067 4.5453243
11.393797 50.592403 4.4075422
11.38996 50.583687 4.2708616
11.392299 50.581207 4.1334877
11.393792 50.577866 3.9960322
11.394438 50.573666 3.8585062
11.394237 50.568604 3.7209206
11.400184 50.569733 3.5821621
11.398277 50.562935 3.444402
11.402506 50.562309 3.3053172
11.39889 50.553772 3.1674254
11.408363 50.558403 3.0265884
11.403024 50.548111 2.8885221
11.403784 50.543949 2.7488294
11.403669 50.538895 2.6089907
11.402679 50.532944 2.4690173
11.407739 50.533058 2.3270209
11.411897 50.532246 2.1847413
11.408243 50.523579 2.0442598
11.410601 50.520927 1.9015336
11.342946 50.676952 6.0395274
11.356124 50.685516 5.9025817
11.395441 50.701248 5.2149882
11.382537 50.6833 5.0775952
11.382823 50.678745 4.9400506
11.389283 50.680454 4.8021898
11.380867 50.667076 4.6650662
11.378625 50.659962 4.527647
11.382554 50.659092 4.3896818
11.385635 50.65736 4.251615
11.38086 50.647675 4.1142416
11.382248 50.644218 3.9760921
11.389785 50.646973 3.8369164
11.389465 50.641773 3.6985524
11.388292 50.635708 3.5601408
11.400236 50.642879 3.4192579
11.397343 50.635056 3.2806098
11.400564 50.633396 3.1405563
11.388984 50.616798 3.0032787
11.397431 50.620384 2.8614917
11.404987 50.623055 2.7193773
11.397767 50.610825 2.5804164
11.403545 50.611671 2.4378536
11.408422 50.611591 2.2949979
11.405483 50.603634 2.1538529
11.410716 50.598839 1.866954
11.412289 50.59029 1.5790721
11.344011 50.757813 6.0465951
11.343243 50.752159 5.9080772
11.403756 50.789429 5.2167535
11.369862 50.750088 5.0789094
11.370172 50.745541 4.9406667
11.369635 50.740135 4.8024554
11.368252 50.733868 4.6642861
11.366022 50.726742 4.5261688
11.376961 50.732975 4.3868999
11.387043 50.738327 4.2473569
11.382265 50.728603 4.1091113
11.383637 50.725109 3.9700921
11.377161 50.713661 3.8319592
11.383817 50.715504 3.6918588
11.389606 50.716461 3.5515375
11.387547 50.709465 3.4122212
11.391601 50.708641 3.2715781
11.387815 50.699886 3.1321352
11.390126 50.697281 2.991214
11.398511 50.700794 2.8485668
11.399056 50.696377 2.7072399
11.398719 50.691055 2.5657699
11.404422 50.691814 2.4223499
11.402303 50.684669 2.2805421
11.406199 50.683567 2.136636
11.411249 50.678551 1.8480309
11.412395 50.674625 1.7033559
11.41262 50.669754 1.5584484
11.352324 50.845806 6.0663099
11.330692 50.818863 5.9257431
11.364779 50.824654 5.0922403
11.358151 50.813072 4.9534583
11.364682 50.814892 4.814209
11.370361 50.815838 4.6748257
11.361183 50.801666 4.5363407
11.379159 50.815105 4.3957019
11.382276 50.813427 4.2559819
11.39153 50.817978 4.1154003
11.371955 50.793243 3.977998
11.379492 50.796036 3.8372669
11.379178 50.790852 3.6973355
11.378004 50.78479 3.5573566
11.389912 50.791977 3.4149296
11.387 50.784138 3.2747147
11.397143 50.789505 3.1317275
11.392488 50.779877 2.9913206
11.400853 50.783421 2.8478186
11.401381 50.779015 2.7056272
11.401024 50.773701 2.563293
11.399776 50.767475 2.4208272
11.404546 50.767315 2.2763464
11.408402 50.766212 2.1315856
11.406484 50.754234 1.8434235
11.360907 51.012833 6.1039357
11.386938 51.030148 5.8225846
11.360133 50.979347 5.1173015
11.367566 50.982281 4.9763737
11.367147 50.977188 4.8356185
11.36587 50.971218 4.6949029
11.370724 50.971508 4.5537438
11.392302 50.955975 3.4189179
11.396289 50.955307 3.2756801
11.363601 51.092972 6.1151876
11.314352 51.037716 5.9703116
11.375795 51.096107 5.8315134
11.356224 51.052647 5.1225791
11.349712 51.041313 4.9813247
11.363294 51.050545 4.8393278
11.362041 51.04459 4.6978254
11.359925 51.037754 4.5563726
11.363928 51.037167 4.4144039
11.367063 51.03569 4.2723327
11.369328 51.033321 4.1301689
11.370725 51.030056 3.9879243
11.371249 51.025894 3.8456097
11.370901 51.02084 3.7032359
11.383599 51.029079 3.5586178
11.374538 51.015121 3.41717
11.385458 51.021523 3.2720556
11.388534 51.019917 3.1279383
11.38378 51.01033 2.9850883
11.392003 51.013939 2.8391852
11.392393 51.009563 2.6945727
11.391884 51.004261 2.549818
11.397374 51.005043 2.4031441
11.39505 50.997871 2.258054
11.398702 50.99675 2.1108968
11.408295 51.001644 1.9614277
11.396355 50.984669 1.8179255
11.404067 50.987617 1.6678743
11.397147 50.975708 1.5220248
11.302713 51.103584 5.9755039
11.345062 51.118252 5.123601
11.36597 51.017612 1.5127126
11.306618 51.263023 5.9926887
11.340462 51.292725 5.8503013
11.343476 51.269901 5.1305089
11.344238 51.265503 4.9866781
11.351096 51.267368 4.842566
11.350106 51.261169 4.6987147
11.348241 51.25407 4.554913
11.352468 51.25322 4.4106016
11.36278 51.258606 4.2655301
11.358279 51.248795 4.1216826
11.366822 51.25235 3.9762654
11.360562 51.240726 3.8324425
11.36733 51.242439 3.6867244
11.366254 51.236115 3.5418785
11.36429 51.228874 3.3969967
11.375311 51.234905 3.2495601
11.378488 51.232895 3.103116
11.38076 51.22995 2.9564977
11.382125 51.226067 2.8097165
11.382581 51.221241 2.6627841
11.382125 51.215473 2.515712
11.373866 51.201736 2.3702948
11.385352 51.208115 2.2193279
11.38214 51.199493 2.0718219
11.391727 51.203892 1.9201448
11.393501 51.200314 1.7701706
11.394327 51.195747 1.6199576
11.287971 51.320984 6.0023971
11.335816 51.365051 5.8600278
11.339374 51.34211 5.1363173
11.333262 51.330502 4.9919214
11.333239 51.325165 4.8474216
11.353233 51.340416 4.7017822
11.351448 51.333256 4.5571094
11.355746 51.332348 4.4119301
11.352198 51.323372 4.2673025
11.368646 51.334923 4.1205339
11.363327 51.324123 3.975822
11.357127 51.312416 3.8312147
11.37089 51.321175 3.683718
11.376801 51.321865 3.5369163
11.367933 51.307411 3.3922565
11.372047 51.306244 3.2452226
11.375257 51.304134 3.0980029
11.370637 51.294006 2.952044
11.365122 51.282959 2.8060954
11.372517 51.285091 2.6569541
11.372086 51.279213 2.5091946
11.377624 51.279415 2.3595288
11.382224 51.278637 2.2095759
11.385882 51.276882 2.0593483
11.381741 51.267151 1.9108943
11.390362 51.270416 1.758118
11.391176 51.265701 1.6071402
11.296568 51.407021 6.0132275
11.330585 51.436768 5.8693037
11.334556 51.413807 5.1416717
11.335479 51.409355 4.9962726
11.335519 51.403992 4.8509011
11.341637 51.404884 4.7051783
11.346869 51.404858 4.5593309
11.351214 51.403915 4.4133697
11.354671 51.402046 4.2673059
11.350282 51.392113 4.1218891
11.35196 51.388409 3.9757409
11.352747 51.383785 3.8295243
11.35264 51.378235 3.6832497
11.358579 51.37888 3.5358436
11.370545 51.385689 3.3870568
11.367736 51.377338 3.2404177
11.364029 51.368061 3.0937667
11.373252 51.372013 2.9442515
11.374639 51.367928 2.7959199
11.361308 51.348774 2.6506467
11.374658 51.356895 2.4988186
11.366404 51.342915 2.3518486
11.370991 51.342041 2.2012117
11.374633 51.340187 2.0503008
11.391032 51.35133 1.8950623
11.37907 51.333504 1.7477065
11.386688 51.33564 1.5938444
11.292913 51.478775 6.0244908
11.320047 51.501385 5.8794875
11.331319 51.485687 5.1482396
11.325341 51.474056 5.0022674
11.325434 51.468689 4.8561974
11.331595 51.469582 4.7097793
11.336868 51.469547 4.5632362
11.34125 51.468594 4.4165797
11.34474 51.466709 4.2698202
11.340385 51.456749 4.1237044
11.349036 51.460163 3.9760389
