# .PCD v0.7 - Point Cloud Data file format
VERSION 0.7
FIELDS x y z
SIZE 4 4 4
TYPE F F F
COUNT 1 1 1
WIDTH 1382
HEIGHT 1
VIEWPOINT 0 0 0 1 0 0 0
POINTS 1382
DATA ascii
9.4241428 53.438442 9.7790813
9.0709629 53.467262 9.763051
8.6895237 53.443783 9.7315245
8.3500338 53.483994 9.7129011
7.2480497 53.408566 9.6349878
11.301414 53.458103 7.6585703
11.31162 53.456436 7.3255148
11.304996 53.443104 7.1578031
11.317797 53.450508 6.9929285
11.329615 53.456863 6.8279362
11.319957 53.440338 6.6609149
11.322951 53.437305 6.4954314
11.325954 53.428082 6.1647601
11.239185 53.460766 7.6654215
11.242697 53.45187 7.3313775
11.24293 53.44582 7.1646547
11.248968 53.445972 6.9989672
11.260829 53.452343 6.8340669
11.258052 53.443108 6.6677718
11.2611 53.44009 6.5022893
11.263153 53.436024 6.3369007
11.277894 53.445469 6.1723852
11.277967 53.439297 6.0070481
11.283895 53.439362 5.8420515
11.281986 53.431091 5.6769032
11.279085 53.421776 5.5119119
11.282049 53.418694 5.3470373
11.290882 53.421844 5.1820297
11.298734 53.417709 4.8518796
11.29775 53.410431 4.6869364
11.306524 53.407249 4.3560839
11.309424 53.404076 4.190515
11.311331 53.399841 4.0248671
11.319089 53.401787 3.8583169
11.170439 53.417271 4.7094035
11.177387 53.400215 4.0480671
11.185198 53.40237 3.8816082
11.171495 53.381733 3.7176621
11.037989 53.53307 9.7512398
11.066335 53.499752 8.0428772
11.064054 53.491039 7.8738041
11.067509 53.488495 7.7062483
11.076731 53.492134 7.5399637
11.091745 53.501976 7.3747029
11.085374 53.488945 7.2065277
11.084782 53.482113 7.0395756
11.083179 53.474209 6.8728499
11.087385 53.472527 6.7070265
11.097419 53.477074 6.5418563
11.099638 53.473278 6.3761148
11.100863 53.46843 6.2104778
11.101092 53.462524 6.0449572
11.11401 53.47015 5.8800178
11.119103 53.469429 5.7147326
11.116364 53.460369 5.5493755
11.112633 53.45026 5.3841853
11.11476 53.446392 5.2190523
11.122749 53.448757 5.0537271
11.116054 53.435501 4.8888516
11.122067 53.43576 4.7234249
11.014818 53.53318 8.3884935
11.014739 53.526627 8.2186203
11.013614 53.51897 8.0490541
11.01821 53.517471 7.8810806
11.021785 53.514889 7.7132678
11.02434 53.511227 7.545629
11.032667 53.51376 7.379189
11.039992 53.515228 7.2127752
11.039515 53.50835 7.0455647
11.044833 53.50769 6.8793302
11.042338 53.498676 6.7124977
11.052477 53.503181 6.54707
11.047976 53.492046 6.3805809
11.0493 53.487144 6.2147717
11.056464 53.48848 6.0493932
11.054149 53.473404 5.7182317
10.910788 53.555943 9.9245396
10.961714 53.563347 8.7258434
10.970521 53.566128 8.5568399
10.971566 53.560577 8.3864193
10.978303 53.561161 8.2177315
10.984014 53.560658 8.0491791
10.988698 53.559063 7.880775
10.985589 53.549126 7.7113509
10.988219 53.545361 7.5433688
10.98983 53.540516 7.3755746
10.928123 53.617496 9.2458401
10.920086 53.602001 9.0702181
10.924322 53.599766 8.8987408
10.920792 53.589188 8.7258215
10.853372 53.314182 3.5687144
10.775561 53.303078 3.5757201
10.767264 53.364719 3.5773137
10.658668 53.551575 9.9363441
10.605865 53.557163 9.9387684
10.628036 53.35606 3.5834491
10.54142 53.548004 9.9364805
10.47631 53.540077 9.9360094
10.547729 53.583275 8.9162903
10.37365 53.191238 2.6165905
10.372376 53.184475 2.4511981
10.376855 53.183815 2.284009
10.380311 53.182049 2.1165454
10.382742 53.179176 1.9488211
10.384144 53.175198 1.7808495
10.384513 53.170101 1.6126441
10.383848 53.163891 1.4442189
10.388839 53.163658 1.2733929
10.392764 53.162273 1.1022046
10.40229 53.166794 0.92830366
10.384089 53.14193 0.76369691
10.411913 53.540379 9.943078
10.35635 53.245953 2.6129417
10.355015 53.239201 2.4469426
10.352674 53.231369 2.2808282
10.356068 53.229626 2.1128478
10.3517 53.219612 1.9464566
10.326147 53.187077 1.785795
10.353354 53.210583 1.6094187
10.372736 53.225739 1.4342453
10.364243 53.211281 1.2671199
10.361408 53.202812 1.0976967
10.37086 53.207355 0.92337346
10.339286 53.168385 0.76322269
10.347871 53.541965 9.9491301
10.314376 53.270744 2.614418
10.313057 53.263996 2.4481587
10.324232 53.270535 2.2784345
10.320879 53.261593 2.1117857
10.323247 53.258724 1.9432017
10.270804 53.197563 1.7898283
10.280477 53.538681 9.9422226
10.194914 53.185753 1.7891704
10.218655 53.543026 9.9326839
10.129309 53.188049 1.7797602
10.150648 53.539612 9.9244747
10.058585 53.183609 1.7758689
10.048248 53.266773 2.5983574
10.036463 53.232899 1.9334019
9.9840193 53.171627 1.7805431
10.022224 53.547142 9.9263258
9.9321327 53.210003 2.6116712
9.9308424 53.203182 2.4462821
9.9285526 53.195282 2.2807779
9.9387188 53.200668 2.11163
9.9344034 53.190578 1.9457633
9.9223719 53.172245 1.7817638
9.9361515 53.181423 1.6097615
9.9354782 53.175171 1.4414246
9.9538031 53.189133 1.2662866
9.9395275 53.530952 9.9131117
9.8773232 53.217815 2.6040456
9.8828011 53.218086 2.4369724
9.8737888 53.202862 2.2729895
9.883975 53.208126 2.1037543
9.8931198 53.212254 1.9340875
9.8609657 53.172306 1.7756788
9.8948689 53.202801 1.5975791
9.8941946 53.196396 1.4289904
9.885808 53.181755 1.2623987
9.8802824 53.535702 9.9014559
9.8164301 53.217472 2.5926366
9.8286123 53.224834 2.4239535
9.8330259 53.223869 2.2565079
9.8364191 53.221802 2.0887902
9.8522215 53.232956 1.917081
9.7998877 53.171383 1.7643067
9.7750854 53.238304 2.5847645
9.7940035 53.252773 2.4142103
9.7839756 53.224693 1.9156508
9.7450876 53.177376 1.7590736
9.7485676 53.529678 9.9050655
9.7363672 53.259674 2.589499
9.679842 53.170013 1.7703015
9.6719007 53.512821 9.9193764
9.6217165 53.172382 1.7889661
9.6083288 53.50758 9.9392519
9.5615101 53.174637 1.8085189
9.5352802 53.487926 9.949192
9.5095882 53.214306 2.6527147
9.5153055 53.21484 2.4857373
9.4863415 53.178257 2.3268118
9.5035172 53.191025 2.1561897
9.5330667 53.216984 1.9812807
9.4743423 53.148594 1.8304719
9.5352898 53.208038 1.6447637
9.4778042 53.482559 9.9610214
9.4161825 53.179901 2.6717255
9.4151468 53.173439 2.5067551
9.4063835 53.158695 2.3433287
9.3899155 53.1357 2.1817174
9.4194832 53.161938 2.0075119
9.4077282 53.143959 1.8438934
9.394989 53.124924 1.6803797
9.4213657 53.147663 1.5044341
9.4120989 53.468422 9.9721518
9.3759604 53.202152 2.680407
9.3681316 53.18861 2.5167418
9.3727856 53.188423 2.3498151
9.3696985 53.179939 2.1843531
9.3857517 53.191917 2.0133109
9.353817 53.152546 1.8550766
9.3544245 53.147976 1.6874595
9.3468246 53.454868 9.9840612
9.309989 53.195984 2.695838
9.3223734 53.204281 2.5275526
9.3000746 53.175407 2.367054
9.3440485 53.217495 2.1896009
9.3399029 53.208031 2.0236063
9.3079395 53.168793 1.8651626
9.2683582 53.121422 1.7093297
9.2893686 53.450951 9.9911566
9.2372713 53.458168 9.9865036
9.1950932 53.474468 9.9738703
9.1472998 53.483589 9.9586754
9.0750961 53.470394 9.9444504
9.0234909 53.477287 9.9419069
8.9669733 53.475365 9.9405355
8.9331646 53.503887 9.9465961
8.8586769 53.492718 9.9359617
8.7710896 53.46764 9.9221992
8.7272205 53.491112 9.9283419
8.6591368 53.484077 9.9280186
8.5936346 53.476559 9.9250126
8.5331249 53.476025 9.9228334
8.4526024 53.454304 9.9178143
8.3902187 53.456615 9.9200239
8.320158 53.451748 9.9172039
8.2554922 53.444523 9.9110813
8.2080297 53.447937 9.9114599
8.1309681 53.417896 9.7402372
8.1511507 53.435551 9.5742474
8.1438999 53.423248 9.3999348
8.1421757 53.417004 9.228137
8.0823498 53.343048 8.8714466
8.1106386 53.369614 8.7100868
8.064621 53.315144 8.5305309
8.0508308 53.295853 8.3601141
8.0535727 53.290371 8.0280104
8.0672131 53.267578 6.5511475
8.0617323 53.253338 6.2250586
8.0744677 53.263027 6.0631013
8.0794725 53.26432 5.9006977
8.0564089 53.235168 5.7377019
8.0730438 53.249081 5.5757008
8.1022844 53.276653 5.4132743
8.0831041 53.251728 5.2510066
8.0697412 53.23312 5.0890703
8.0961027 53.257545 4.9257364
8.1011581 53.258884 4.7628961
8.0916929 53.244499 4.6008773
8.094821 53.243748 4.437984
8.0486336 53.173096 3.6292906
8.024003 53.346436 9.2226095
8.0077772 53.324646 9.0482149
7.9946494 53.238907 6.0741563
7.9792747 53.218323 5.9113145
7.9968109 53.233456 5.7496934
7.9862828 53.21814 5.5874672
8.0019083 53.23119 5.425468
8.0030184 53.228497 5.2633553
7.9963894 53.217419 5.1014619
8.0023613 53.219994 4.9391913
8.0073719 53.221527 4.7767873
7.9978657 53.207333 4.6151915
8.0009556 53.206779 4.4527321
7.9681344 53.15176 3.6441777
7.9321866 53.281849 8.2159119
7.9299922 53.228844 6.0844402
7.9349704 53.230392 5.9223871
7.9254355 53.216198 5.7599983
7.9420505 53.23037 5.5981922
7.9441519 53.228802 5.4360752
7.924952 53.20414 5.2742934
7.9386959 53.215191 5.112061
7.931139 53.203159 4.9503632
7.9497433 53.21946 4.7873907
7.9606023 53.227364 4.6244078
7.9501662 53.212212 4.4627805
7.9455481 53.203358 4.3007717
7.9399705 53.193462 4.1388521
7.9402013 53.189854 3.9762273
7.946229 53.192501 3.8126483
7.9039683 53.142956 3.6557195
7.8698044 53.23241 6.2495108
7.8758359 53.234943 6.087419
7.8809085 53.236431 5.925281
7.8714681 53.222179 5.762805
7.8678398 53.214237 5.6007214
7.8700304 53.212605 5.4387803
7.8644819 53.202587 5.2769523
7.8850989 53.220924 5.1145267
7.8708525 53.201485 4.9530263
7.8692098 53.195702 4.791172
7.8801656 53.203556 4.6284537
7.8833795 53.203022 4.4659967
7.8856297 53.201439 4.303443
7.8869147 53.198811 4.1408048
7.8736982 53.1805 3.9797077
7.8865862 53.190407 3.8153243
7.8444133 53.140804 3.658391
7.7933598 53.251942 7.7083249
7.8097911 53.227249 6.0768685
7.8149047 53.228569 5.9148173
7.8122826 53.2215 5.7525873
7.8154769 53.220741 5.5905695
7.8244929 53.226295 5.4285154
7.8189898 53.21611 5.2665219
7.8125262 53.204887 5.1047192
7.8322282 53.222008 4.9419599
7.8170662 53.201366 4.7806034
7.8348441 53.216385 4.6173282
7.8313208 53.208344 4.4552498
7.8336124 53.206589 4.2926111
7.8213954 53.189144 4.13134
7.8420668 53.207253 3.9662828
7.8346906 53.195034 3.8042431
7.7925549 53.145264 3.6472628
7.7453547 53.277393 8.1945066
7.7362905 53.263012 8.0266647
7.7352233 53.252884 7.6960382
7.7449679 53.219196 6.0642934
7.763638 53.235058 5.902782
7.7542491 53.220474 5.7403316
7.757452 53.219551 5.5783153
7.759696 53.21759 5.4162912
7.7609816 53.214592 5.2542725
7.7613077 53.210552 5.0922709
7.7742376 53.220161 4.9297051
7.7726445 53.214039 4.7676005
7.7836494 53.22155 4.6046085
7.7869101 53.220673 4.4418926
7.7824306 53.211418 4.2797265
7.7769904 53.201126 4.1176524
7.7705903 53.189793 3.9556823
7.7835245 53.199352 3.7911091
7.7413898 53.149418 3.6340885
7.6890731 53.311226 9.2026224
7.6850433 53.287914 8.5276251
7.684783 53.282944 8.3605328
7.6835032 53.276878 8.193738
7.6812072 53.269718 8.027256
7.6846056 53.268776 7.8623672
7.7113504 53.256477 6.3902597
7.7117066 53.2523 6.2274742
7.7110958 53.247074 6.064806
7.7095194 53.240807 5.9022679
7.7205334 53.248199 5.74015
7.7170315 53.239849 5.5777345
7.7193475 53.237808 5.4154506
7.7342663 53.249424 5.2529259
7.7278795 53.237949 5.0907001
7.727313 53.232784 4.9283814
7.712224 53.211899 4.7668743
7.7165179 53.211998 4.6043544
7.7266264 53.218376 4.4411688
7.7240472 53.2019 3.9533262
7.7235117 53.196751 3.7903941
7.7084851 53.175949 3.6294045
7.6415615 53.339985 9.729351
7.6421413 53.33567 9.557827
7.6416516 53.330204 9.3866739
7.6400962 53.323593 9.2159071
7.6433001 53.307636 8.5418396
7.6498661 53.309975 8.3760223
7.642055 53.29665 8.2074347
7.6466022 53.296814 8.0420523
7.6631823 53.27219 6.5636821
7.6713953 53.276409 6.4011102
7.6583385 53.257534 6.2372532
7.657845 53.252312 6.0744972
7.6699357 53.260746 5.9123325
7.6675148 53.253437 5.7496734
7.670908 53.252434 5.5872245
7.6801214 53.25774 5.424737
7.6748109 53.247307 5.2623153
7.6753197 53.243179 5.0998797
7.6748667 53.238007 4.9374733
7.6636877 53.188423 3.6367979
7.6021595 53.351936 9.5776196
7.6018014 53.346577 9.406209
7.6045184 53.339668 9.0664377
7.6040797 53.324516 8.5600805
7.6040883 53.319664 8.3924685
7.6030741 53.313717 8.225153
7.6227741 53.292095 6.7422166
7.6117702 53.275402 6.5776277
7.633606 53.29438 6.4159732
7.6206465 53.275581 6.2518396
7.6270227 53.277779 6.0891447
7.6324363 53.278931 5.9264035
7.6268129 53.263401 5.6007066
6.1899943 53.282825 9.8898287
6.131536 53.281261 9.890172
6.2056799 53.358097 9.7429934
6.0716519 53.277409 9.894928
6.0087128 53.265865 9.8939896
6.0901866 53.346889 9.5765343
5.9652681 53.278908 9.8937922
5.9115262 53.287117 9.8891716
5.9658837 53.342426 9.7350044
5.8527126 53.289459 9.8789539
5.7971406 53.291763 9.8622684
5.7403092 53.292358 9.8478756
5.7044125 53.312122 9.8473024
5.6404629 53.3018 9.8474636
5.5577474 53.277939 9.8491821
5.5011153 53.284897 9.859581
5.4476905 53.292095 9.863205
5.3758769 53.276146 9.8551407
5.3314638 53.287281 9.8615837
5.2659421 53.275196 9.8703585
5.1966853 53.265858 9.8749218
5.130013 53.260715 9.8661728
5.0805044 53.273682 9.8431549
5.0362506 53.293346 9.8213549
4.9747205 53.284767 9.8081837
4.9189267 53.280014 9.8101816
4.8607144 53.27449 9.8146505
4.798522 53.264282 9.8079691
4.7954659 53.238323 8.7825041
4.7037935 53.22187 9.7798615
4.6796269 53.173271 8.7521496
4.6274486 53.109177 8.4047651
4.6331453 53.111759 8.2401314
4.6110568 53.084122 8.0698891
4.6549721 53.128288 7.9139571
4.6711411 53.142269 7.7520962
4.6392865 53.104057 7.5818334
4.6602182 53.12323 7.4213204
4.6667314 53.126732 7.2584772
4.6655293 53.121861 7.0947509
4.6430902 53.093941 6.9287605
4.6677198 53.088867 5.4719887
4.6484594 53.053944 4.8266001
4.5793896 53.150368 9.7458773
4.6064291 53.176079 9.58389
4.6126909 53.179138 9.4152393
4.591434 53.152222 9.2386742
4.595572 53.153 9.0707893
4.5853891 53.138191 8.8994207
4.575141 53.119644 8.561842
4.5515208 53.075714 7.7297187
4.5464425 53.066582 7.56494
4.5403647 53.056377 7.400516
4.5265512 53.037777 7.2354641
4.5387168 53.047409 7.0746002
4.543179 53.048672 6.9127865
4.5534348 53.056232 6.7517653
4.5492129 53.04808 6.5893459
4.5440192 53.038879 6.4271836
4.5446281 53.035984 6.2657638
4.554564 53.01482 4.8171329
4.5591931 53.016277 4.6559358
4.5628662 53.016701 4.4946198
4.5588026 53.008759 4.3337717
4.4791064 53.059502 7.7248063
4.4746804 53.047367 7.3970346
4.4676142 53.036041 7.233067
4.4932876 53.06028 7.0740156
4.491024 53.054184 6.9112077
4.4877853 53.047035 6.7486324
4.483573 53.038837 6.5863018
4.5054598 53.058956 6.4264646
4.4925523 53.04134 6.2638402
4.500493 53.013878 4.6535463
4.5041809 53.014259 4.4922309
4.5136919 53.020927 4.330235
4.5086842 53.011902 4.1692948
4.5027227 53.001846 4.0084481
4.5025787 52.99807 3.8468711
4.4157424 53.047161 7.5632548
4.4298463 53.058887 7.4022508
4.4295182 53.054943 7.2391024
4.4282107 53.049942 7.0761609
4.4259253 53.043884 6.9134388
4.4226651 53.036777 6.7509484
4.4251952 53.035961 6.5893507
4.4199958 53.026768 6.4272752
4.427372 53.031212 6.2664165
4.4270205 53.027283 6.1051049
4.4373007 53.01009 4.8177857
4.4456019 53.011982 4.4952736
4.4347572 52.996712 4.3349981
4.4297419 52.987747 4.1743174
4.4373231 52.99239 4.0122352
4.4439373 52.995979 3.8499098
4.3687234 53.059067 7.7313294
4.3635707 53.050022 7.5666351
4.3574185 53.039898 7.4022946
4.3570123 53.03603 7.2393188
4.3623743 53.038425 7.0774593
4.3600192 53.032452 6.9148221
4.3702068 53.040092 6.7538886
4.3591504 53.024693 6.5909052
4.3741879 53.037598 6.4305997
4.3611917 53.020107 6.2681427
4.3751049 53.001305 4.6591759
4.3583684 52.97982 4.4994016
4.3678093 52.986641 4.3377557
4.3627334 52.977764 4.1771598
4.3838029 52.997131 4.0136724
4.3835797 52.993488 3.8520927
4.3149533 53.068932 8.2226944
4.2998734 53.039448 7.5622687
4.3070683 53.044006 7.4001794
4.3200383 53.05484 7.2391052
4.3185596 53.049992 7.0760751
4.3093491 53.036762 6.9124432
4.3194304 53.044472 6.7514195
4.3150301 53.036472 6.5889983
4.3164272 53.034767 6.4273939
4.3100905 53.024681 6.2654128
4.3228951 53.006485 4.6555634
4.3263922 53.007057 4.4942455
4.3289318 53.006592 4.3328218
4.3237357 52.997765 4.1719656
4.3307943 52.998955 3.8480392
4.2629695 53.06889 8.0495892
4.2595882 53.062057 7.8842282
4.2484822 53.046841 7.7179475
4.2565417 53.052452 7.5556712
4.2636333 53.057014 7.3934035
4.2630153 53.053211 7.2301679
4.2681661 53.055676 7.0680418
4.2588415 53.042439 6.9043312
4.2688107 53.05014 6.7432132
4.2710614 53.049473 6.5813503
4.279119 53.055099 6.4201264
4.2732177 53.017765 4.8072014
4.2843342 53.026695 4.6454196
4.2833428 53.019432 4.322731
4.2712464 53.003262 4.1623716
4.2717495 53.000706 4.0007739
4.2175813 53.107159 9.2178135
4.2147026 53.100777 9.0483294
4.2131138 53.089371 8.5457296
4.2060728 53.078514 8.3777838
4.2180753 53.088367 8.214819
4.2089968 53.075317 8.0475512
4.2123137 53.075748 7.8834405
4.2146416 53.075111 7.7194858
4.2227111 53.080715 7.5568609
4.2163391 53.070644 7.392097
4.2157125 53.066818 7.2286887
4.227603 53.076584 7.0672884
4.2317834 53.077988 6.9049473
4.2349977 53.078342 6.7426653
4.2237153 53.062981 6.5791764
4.2182202 53.053902 6.4166718
4.2271891 53.035656 4.9643068
4.2256684 53.030907 4.8031173
4.163681 53.123428 9.5667839
4.1630087 53.119331 9.3964434
4.1745219 53.128517 9.2305298
4.1651196 53.114941 9.0588493
4.1546392 53.100204 8.8877459
4.1630669 53.106064 8.7225351
4.1704941 53.110844 8.557416
4.1702418 53.107273 8.3908043
4.168972 53.102612 8.2244816
4.1733899 53.104141 8.0598831
4.1768155 53.104599 7.8954282
4.1725311 53.096687 7.7298789
4.1739688 53.095001 7.565834
4.1676855 53.084938 7.4008946
4.1738868 53.08844 7.2383022
4.1791191 53.090893 7.0757432
4.1698756 53.077641 6.9115987
4.1799202 53.085323 6.7500467
4.1146312 53.131596 9.4099884
4.1394801 53.155262 9.2479668
4.1368299 53.148987 9.0778809
4.1264758 53.134342 8.9063416
4.115047 53.118546 8.7353935
4.1292305 53.130634 8.5717907
4.1223927 53.119858 8.4033213
4.1345892 53.129795 8.239851
4.1324081 53.124107 8.0734825
4.1359239 53.124619 7.9087696
4.1384473 53.124062 7.7442117
4.1130748 53.093204 7.5751514
4.1337905 53.112427 7.4145298
4.1400819 53.115982 7.2515936
4.1251602 53.096512 7.085969
4.1294928 53.097954 6.9233713
4.0981836 53.17907 9.4319124
4.0834188 53.159592 9.2571163
4.0874472 53.160599 9.0888882
4.0970902 53.167725 8.9227524
4.072432 53.137535 8.7478209
4.1000185 53.164207 8.5873423
4.0932641 53.153522 8.4184389
4.0988503 53.156273 8.253026
4.0967374 53.150658 8.0863104
4.0868998 53.136662 7.9185662
4.0961881 53.143459 7.7550917
4.0910487 53.134586 7.5892706
4.098371 53.139263 7.4259701
4.0898547 53.123474 7.0967093
4.0649328 53.204163 9.4454231
4.0568686 53.191971 9.2723141
4.0543504 53.185833 9.1017113
4.0574207 53.185791 8.9333735
4.0461402 53.170143 8.7617292
4.0604687 53.182373 8.5974483
4.0604525 53.179005 8.4298878
4.052722 53.167263 8.261095
4.0506535 53.161686 8.0942068
10.863207 53.422184 7.4666562
10.872993 53.395058 6.3058748
10.826482 53.68507 13.462011
10.815763 53.656441 13.046702
10.825906 53.655937 12.642037
10.822169 53.636833 12.233637
10.816148 53.614727 11.826342
10.819538 53.605331 11.42431
10.832425 53.608734 11.027063
10.819676 53.577782 10.622776
10.798801 53.535999 10.217924
10.852678 53.553532 8.6527691
10.844598 53.529144 8.2586546
10.869998 53.549606 7.873188
10.84581 53.50375 7.4780207
10.85518 53.502823 7.0908709
10.862492 53.499168 6.7040405
10.855817 53.476849 6.3156762
10.790252 53.760262 13.890841
10.793577 53.750355 13.478999
10.787504 53.713585 12.656027
10.789714 53.702381 12.249603
10.795487 53.696033 11.846263
10.787371 53.67104 11.439592
10.794525 53.666668 11.040028
10.69103 54.539501 33.847748
10.693587 54.522266 33.257324
10.677478 54.479481 32.652603
10.691113 54.478088 32.090057
10.691089 54.458054 31.518721
10.70188 54.453197 30.966244
10.640857 54.715282 37.604462
10.651356 54.707287 36.973518
10.638743 54.667427 36.321003
10.635331 54.640701 35.689854
10.63204 54.614452 35.067669
10.652656 54.621719 34.483639
10.650139 54.597115 33.878639
10.66117 54.571022 32.711159
10.488832 53.535522 9.7955847
10.56564 54.777069 38.912636
10.610105 54.792725 37.654682
10.597984 54.753006 36.992542
10.596359 54.706158 35.726608
10.325061 53.534637 9.7801857
10.2247 53.513977 9.7641821
9.9330177 53.478901 10.134737
9.6707315 53.46664 10.114986
9.3077717 53.446136 10.081738
6.6849895 53.293449 10.199864
6.4710569 53.273884 9.8058653
6.3762159 53.292229 9.7979517
6.2804179 53.310959 9.7889967
6.1721497 53.3139 9.7777376
6.0690522 53.324745 9.7692518
5.9619236 53.326702 9.7560892
4.2659564 53.151432 9.9169445
10.59418 54.330887 27.091278
10.569411 54.110462 23.650612
10.596625 54.072609 21.025537
10.660999 54.073097 22.985992
10.66992 53.984394 19.072002
10.61134 53.892643 17.772097
10.650432 53.721813 13.970525
10.629641 53.654854 12.106822
10.784787 53.681114 11.490826
10.791138 53.553383 10.245786
10.808794 53.80323 14.667939
11.15582 53.297005 3.9650838
11.163678 53.299164 3.7968924
11.149973 53.278553 3.6311803
11.079382 53.299843 4.3093576
11.089366 53.304157 4.1415815
11.098342 53.307396 3.9735503
11.092603 53.295074 3.8068995
11.085863 53.2817 3.6403673
11.017813 53.352844 5.6466031
11.018604 53.341022 5.3128753
11.022255 53.332241 4.9793115
11.015722 53.318989 4.8128543
11.021911 53.319221 4.645864
11.033958 53.325649 4.478292
11.031286 53.316486 4.3115368
11.034472 53.313519 4.1442256
11.036652 53.309479 3.9768331
11.044677 53.311611 3.808562
11.037995 53.298195 3.6418552
10.95733 53.376152 6.143682
10.957798 53.370266 5.9763298
10.96411 53.370598 5.8093386
10.969424 53.369865 5.642313
10.96003 53.353512 5.4751492
10.956484 53.343384 5.3082967
10.965653 53.346752 5.1413918
10.960108 53.334503 4.9747348
10.974139 53.343018 4.8074117
10.973454 53.335926 4.6405363
10.978626 53.335033 4.4732518
10.975941 53.325817 4.3064122
10.985964 53.330048 4.1383758
10.988125 53.325951 3.9708102
10.989281 53.320782 3.8031764
10.982584 53.307304 3.6363871
10.890615 53.418171 7.3172655
10.891015 53.405746 6.9791508
10.903317 53.41246 6.8119307
10.900969 53.403553 6.6432676
10.897598 53.393574 6.4748549
10.906882 53.397083 6.3076906
10.908327 53.392246 6.140049
10.908763 53.386341 5.9725227
10.915042 53.386658 5.8053551
10.913469 53.378632 5.6380105
10.917746 53.37682 5.4708753
10.914166 53.366669 5.3037634
10.923298 53.370014 5.1365938
10.93143 53.372295 4.9692669
10.917991 53.351688 4.8026733
10.93098 53.359112 4.6349521
10.929253 53.350929 4.4678717
10.93338 53.348946 4.3003054
10.936502 53.34589 4.1326456
10.938619 53.341763 3.9649053
10.946576 53.343807 3.7962825
10.946674 53.337528 3.6283333
10.845798 53.448429 7.6617537
10.848564 53.445 7.4919453
10.850298 53.440479 7.3223214
10.857807 53.442139 7.1538243
10.85749 53.435452 6.9845228
10.869784 53.442234 6.8169541
10.867427 53.433392 6.6479406
10.877708 53.43803 6.4803376
10.866483 53.419758 6.3111701
10.867908 53.414974 6.1432652
10.875168 53.416412 5.9757943
10.874579 53.409496 5.8080449
10.879834 53.408798 5.6405807
10.877234 53.399754 5.4730377
10.887338 53.404213 5.3056011
10.889586 53.400322 5.1381116
10.890833 53.395367 4.9706392
10.884221 53.382072 4.8034887
10.890319 53.382263 4.635797
10.902267 53.388649 4.4675207
10.899502 53.379433 4.3000703
10.902584 53.376408 4.1320605
10.904659 53.372307 3.9639702
10.905725 53.367134 3.7958126
10.878411 53.33194 3.6312056
10.78399 53.521267 9.5771084
10.799652 53.473755 7.8426156
10.810253 53.478775 7.6735668
10.819837 53.482712 7.5045152
10.814809 53.471039 7.333437
10.808735 53.458267 7.1627297
10.828859 53.473492 6.9957852
10.827543 53.465824 6.8262696
10.832025 53.464355 6.657661
10.828664 53.454529 6.4885445
10.831113 53.450905 6.3201871
10.832551 53.446213 6.1519313
10.832979 53.440453 5.9837894
10.839242 53.440907 5.81601
10.830807 53.42572 5.6479006
10.848759 53.438614 5.480361
10.838308 53.421299 5.3125696
10.833703 53.410206 5.1450171
10.848653 53.419891 4.9770532
10.84204 53.40667 4.8096342
10.854983 53.414207 4.6413054
10.860068 53.413399 4.473146
10.857296 53.404247 4.3054295
10.843005 53.364246 3.6345994
10.776746 53.519321 7.8502955
10.77659 53.50666 7.5078368
10.785137 53.509575 7.3385339
10.779062 53.496864 7.1673908
10.785559 53.497604 6.9983211
10.784224 53.48999 6.8285427
10.788681 53.488567 6.6596713
10.798951 53.493359 6.4914594
10.646819 53.515305 9.7395239
10.588247 53.518154 9.7282333
10.518208 53.513805 9.7224884
10.44163 53.500919 9.7224998
10.456786 53.511002 9.5504799
10.388991 53.223843 3.4658849
10.379151 53.501595 9.7268772
10.394299 53.511738 9.5548601
10.346856 53.248302 3.4672015
10.315833 53.504211 9.7239342
10.23146 53.108418 0.9366017
10.255342 53.508579 9.7129087
10.178378 53.178944 2.6236293
10.177939 53.172611 2.4556153
10.183257 53.172363 2.2858727
10.184018 53.161362 1.9473311
10.214398 53.175644 1.427097
10.220126 53.175701 1.2534916
10.238184 53.188755 1.0751079
10.228334 53.172302 0.90518832
10.187684 53.505726 9.7015438
10.189407 53.501358 9.5253563
10.122897 53.186852 2.61321
10.142763 53.201992 2.4405415
10.148017 53.201618 2.2704535
10.158997 53.207287 2.0983882
10.168916 53.211811 1.9258839
10.116484 53.500496 9.7011642
10.04684 53.204121 3.4532306
10.086995 53.217072 2.6093059
10.093306 53.217781 2.4393413
10.10535 53.224552 2.267473
10.129865 53.244514 2.0917611
10.053089 53.500896 9.7086239
10.025967 53.218853 2.6167111
10.032332 53.219597 2.446749
10.078283 53.262318 2.2668581
9.9879446 53.142288 1.6103256
9.992836 53.500835 9.7097597
9.9747152 53.474976 9.5272894
9.964489 53.213306 2.449378
9.9630375 53.20578 2.2808118
10.001127 53.240189 2.1019878
9.9127607 53.47958 9.6980352
9.9409838 53.503895 9.5306683
9.8623447 53.206161 3.4566815
9.8438883 53.115562 1.4417435
9.8678265 53.128845 1.0912843
9.8525076 53.480103 9.6961412
9.7960157 53.486427 9.7086773
9.7984943 53.476486 9.3571825
9.7559748 53.21991 3.4631281
9.7317066 53.12178 1.4481583
9.7375956 53.121891 1.2752398
9.7320528 53.483173 9.7231264
9.7471924 53.493221 9.5514545
9.7495708 53.277683 3.4694922
9.6598177 53.140137 2.312921
9.6845741 53.160378 2.1382785
9.7014904 53.172256 1.9646204
9.6768818 53.140064 1.8015
9.6652842 53.471558 9.7335186
9.6804066 53.481735 9.5619392
9.5928411 53.134438 2.3268497
9.6176004 53.154831 2.1523092
9.6277733 53.159698 1.980511
9.6234055 53.149117 1.811985
9.6077013 53.465611 9.7443476
9.6301003 53.478024 9.3991642
9.5875397 53.200966 2.493048
9.6064434 53.215405 2.3198743
9.6107626 53.214314 2.1494198
9.5691013 53.158684 1.8206334
9.5558805 53.465134 9.7588844
9.5774813 53.482899 9.5893745
9.4847269 53.159386 2.5139852
9.4832945 53.152534 2.3460839
9.5281334 53.194859 2.1663892
9.5246029 53.185734 1.9976715
9.5133095 53.168346 1.8307074
9.4989452 53.456589 9.7758951
9.5271063 53.48177 9.6085768
9.5276918 53.47715 9.4326649
9.4179792 53.154087 2.5330234
9.4232473 53.154682 2.363646
9.4409904 53.16853 2.1906593
9.4104414 53.131004 2.029284
9.4126263 53.128281 1.8593427
9.4416628 53.451653 9.8076401
9.4830818 53.491306 9.6447153
9.4836903 53.486862 9.4686852
9.3816929 53.455753 9.8538847
9.41646 53.488197 9.6887102
9.4103909 53.476509 9.5106163
9.409852 53.470821 9.3350515
9.3113136 53.445885 9.8281784
9.3459911 53.478115 9.6631241
9.3398304 53.466206 9.4852161
9.3458595 53.467491 9.3118038
9.2061567 53.117584 2.596462
9.2006435 53.09164 1.924426
9.1951017 53.07563 1.5866427
9.2634888 53.456554 9.8051987
9.2782059 53.46706 9.6336012
9.2918758 53.476444 9.4620266
9.2048264 53.457329 9.7929316
9.232769 53.482079 9.6255789
9.2198315 53.462643 9.4456558
9.1922808 53.250378 3.5439544
9.1396952 53.447159 9.7928505
9.1543064 53.45763 9.6213293
9.1678696 53.466976 9.449831
9.0980196 53.213825 3.5509725
9.1021624 53.462246 9.8099136
9.1100903 53.465794 9.6360083
9.1036472 53.453823 9.4581976
9.1093998 53.455051 9.2848625
9.0297432 53.440739 9.8169737
9.057478 53.465973 9.6496592
9.0642757 53.468594 9.4758615
9.0566759 53.455677 9.2983313
8.9969444 53.465027 9.834136
8.9915419 53.454594 9.655776
8.9983034 53.457321 9.4820642
8.9973316 53.451714 9.3065844
8.9099216 53.435951 9.827508
8.9310198 53.454144 9.6580667
8.9311562 53.449696 9.4822969
8.9368544 53.451275 9.308876
8.9281359 53.437302 9.131897
8.847868 53.437057 9.8234692
8.8689709 53.455204 9.6540241
8.8691149 53.450703 9.4782543
8.8681602 53.445038 9.3028612
8.7871275 53.438148 9.8197737
8.8082647 53.456223 9.6503248
8.7951536 53.437283 9.4704447
8.8141842 53.453106 9.301137
8.7988396 53.431797 9.1222801
8.7271214 53.437744 9.8197193
8.748312 53.455772 9.6502724
8.7352562 53.436783 9.4703932
8.741024 53.438164 9.2971458
8.7390509 53.431198 9.1222315
8.6678572 53.435902 9.8161697
8.6757526 53.439575 9.6424379
8.6825733 53.442104 9.4688978
8.6816635 53.436295 9.2935944
8.6038322 53.42704 9.809783
8.6116495 53.430717 9.6361341
8.618392 53.433247 9.462677
8.6240635 53.434631 9.2894268
8.6153212 53.420467 9.1126328
8.5444078 53.426636 9.8100643
8.5522432 53.430294 9.6364164
8.5457125 53.418434 9.4588556
8.5380573 53.405384 9.2818422
8.5559721 53.419983 9.1129189
8.4810352 53.427757 9.8111172
8.4889345 53.431366 9.6374712
8.4891157 53.42664 9.4619646
8.5015144 53.435143 9.2907705
8.4728451 53.399277 9.1083336
8.4830875 53.405483 8.9377651
8.4019804 53.406116 9.80371
8.4363899 53.438335 9.6388712
8.4233208 53.419209 9.4591761
8.4157591 53.406067 9.2821665
8.4337626 53.420574 9.113245
8.3608732 53.416786 9.8060122
8.3620596 53.413208 9.630312
8.388732 53.437202 9.4631796
8.381114 53.424137 9.2859135
8.2970314 53.403172 9.8101768
8.3179884 53.421272 9.640974
8.3113356 53.409546 9.4634094
8.3235416 53.418209 9.2922955
8.3347054 53.425762 9.121232
8.2394629 53.395493 9.8248644
8.2669792 53.420998 9.6578245
8.2802076 53.431072 9.4863415
8.2657433 53.411255 9.3069925
8.2568092 53.397434 9.1302662
8.26682 53.404076 8.959527
8.1932621 53.404495 9.8442898
8.2009182 53.40868 9.6706457
8.2075005 53.411716 9.4971914
8.2063503 53.406422 9.3219585
8.2107811 53.407162 9.1490116
8.1963558 53.383568 8.7986536
8.1087122 53.383457 9.8438873
8.1429939 53.416218 9.6791267
8.149725 53.419216 9.5055914
8.1420641 53.406689 9.328289
8.1332836 53.392975 9.1515465
8.1233892 53.378078 8.975378
8.1190825 53.369236 8.801527
8.0276804 53.365238 9.6496458
8.0078478 53.339138 9.4685354
8.0201349 53.347771 9.2982092
8.0247126 53.348091 9.1260386
7.9760671 53.201591 5.5865459
7.9649076 53.185226 5.4214101
7.9527621 53.167812 5.2566257
7.9669204 53.178593 5.0914478
7.9528093 53.159084 4.9270544
7.965003 53.167747 4.7615943
7.9625711 53.160748 4.5967402
7.9727931 53.16729 4.4308743
7.9953804 53.169361 3.5996864
7.8775887 53.129433 4.5758543
7.8810396 53.12838 4.4108782
7.9380374 53.184582 4.2407088
7.8202858 53.134632 4.7264028
7.8247299 53.134453 4.5614471
7.8213711 53.125927 4.3969426
7.8170314 53.116348 4.2325177
7.8253407 53.120289 4.0667229
7.8258457 53.115883 3.9015033
7.8185554 53.103146 3.7371335
7.7516494 53.106976 4.2352133
7.7531838 53.103626 4.0702372
7.7605438 53.106491 3.9043744
7.7396774 53.079212 3.7419
7.6989784 53.113731 4.4140372
7.7015758 53.111523 4.2490559
7.6963711 53.100975 4.0847149
7.690186 53.089382 3.9204781
7.7034497 53.098545 3.7536662
7.6396265 53.130512 5.0885668
7.6428089 53.119152 4.594739
7.6601 53.132706 4.4286847
7.649117 53.116035 4.2646976
7.6371579 53.098331 4.1009746
7.6582961 53.115963 3.9335189
7.6511822 53.103424 3.7690384
7.5880842 53.134743 5.1026859
7.5935307 53.130917 4.7731781
7.5913682 53.123775 4.6085882
7.5814018 53.108295 4.4445958
7.6045632 53.128208 4.277751
7.5926318 53.110622 4.1138372
7.6001701 53.113827 3.9478159
7.5930896 53.101425 3.783324
7.5850282 53.087971 3.6189592
7.53828 53.155579 5.6075468
7.5410194 53.153812 5.4427352
7.5427771 53.150993 5.2779245
7.536726 53.13982 5.113306
7.53652 53.134903 4.9486217
7.5489845 53.143536 4.7832675
7.546813 53.136513 4.6184978
7.5436592 53.128441 4.4537916
7.5463443 53.126602 4.2885461
7.5548615 53.130989 4.1225128
7.5555682 53.127026 3.957022
7.5620966 53.129269 3.7905948
7.5335889 53.094131 3.628762
6.2152276 53.267891 9.8851614
6.2563233 53.307926 9.7229986
6.2498326 53.296848 9.5455523
6.2422152 53.284584 9.3686485
6.2468576 53.2855 9.1961374
6.243731 53.278088 9.0220242
6.226089 53.255123 8.8448343
6.1583939 53.26553 9.8801165
6.192801 53.298401 9.7157679
6.1862483 53.287296 9.5384092
6.1986074 53.296509 9.3675957
6.1831546 53.275887 9.189168
6.1866732 53.275642 9.0169706
6.168982 53.252666 8.8397884
6.1007743 53.26759 9.8681011
6.1285682 53.293144 9.70156
6.1220369 53.281845 9.5242977
6.1344199 53.290871 9.3535624
6.1256809 53.277241 9.1771469
6.1292357 53.276817 9.0049515
6.1048613 53.24646 8.8260517
6.0451674 53.271572 9.8487492
6.0729852 53.296871 9.6821747
6.0598044 53.278152 9.5028591
6.0588331 53.272564 9.328229
6.0902362 53.301735 9.1634836
6.0737295 53.279507 8.9855919
6.0426517 53.241684 8.805007
5.9900727 53.272594 9.8300858
6.0244713 53.304893 9.6656218
6.0178847 53.293194 9.4883041
6.0034881 53.273132 9.3095579
6.014729 53.280605 9.1391039
6.0048041 53.265388 8.9633007
5.9937692 53.249004 8.7880898
5.9450684 53.275158 9.8230648
5.9460449 53.271759 9.6477852
5.9726119 53.29583 9.4810915
5.9580679 53.275814 9.3022699
5.9624739 53.276138 9.129837
5.9658141 53.275337 8.9576387
5.9546452 53.259003 8.7822628
5.8928781 53.267471 9.8272972
5.9137325 53.285641 9.6584435
5.9135394 53.281258 9.4832678
5.9189353 53.282879 9.310441
5.9165597 53.276188 9.1359482
5.9063792 53.261154 8.9600601
5.901813 53.252155 8.7864799
5.8476362 53.274872 9.8438187
5.8618693 53.286053 9.6726608
5.8550239 53.274654 9.4953337
5.8537416 53.269238 9.3205309
5.8647685 53.27702 9.1499043
5.8680377 53.276505 8.9775324
5.843338 53.246071 8.7985258
5.7677388 53.249119 9.8496294
5.7953506 53.274586 9.6830473
5.7952628 53.270386 9.5078678
5.794075 53.265022 9.3330631
5.8051963 53.272854 9.1624451
5.8018446 53.265205 8.9882631
5.7705007 53.227627 8.8075933
5.7091479 53.247925 9.853838
5.7368145 53.273373 9.6872625
5.7367826 53.26915 9.5120831
5.7222705 53.249443 9.3333092
5.7334213 53.257229 9.1628647
5.7435293 53.263912 8.9924812
5.7256923 53.240704 8.8152618
5.6574292 53.253063 9.8554544
5.6851029 53.278507 9.6887894
5.6850734 53.274284 9.513525
5.6839428 53.268902 9.3386354
5.6817155 53.262363 9.1641359
5.685111 53.261856 8.9918528
5.6605334 53.231445 8.8129082
5.6017442 53.247952 9.8589535
5.6293731 53.273468 9.6922913
5.6226125 53.262177 9.5149536
5.6414938 53.278343 9.3461037
5.632535 53.264736 9.1695299
5.6291757 53.257133 8.9953451
5.6179991 53.241196 8.81985
5.5603275 53.253723 9.8769054
5.5746036 53.26519 9.7057695
5.5677891 53.254108 9.5284204
5.5799279 53.263309 9.3575907
5.5776081 53.257065 9.1829948
5.5741954 53.249664 9.0088024
5.5495048 53.219547 8.8298225
5.4886694 53.231022 9.888628
5.5229058 53.264061 9.7241859
5.5294499 53.26749 9.550909
5.5215297 53.255474 9.3738337
5.5057788 53.235111 9.1954012
5.5224829 53.249435 9.0268564
5.4977837 53.219551 8.8477564
5.4307675 53.227985 9.8920612
5.4583497 53.253925 9.7254553
5.4582086 53.25024 9.5501766
5.4502711 53.238235 9.37327
5.4479189 53.23222 9.1988363
5.4444747 53.225048 9.0248041
5.4332108 53.209545 8.8494425
5.3747249 53.233128 9.8722305
5.3889899 53.244549 9.7012644
5.3888402 53.24057 9.5261621
5.3875904 53.235435 9.3514347
5.3986611 53.243473 9.1809082
5.388526 53.228874 9.0049801
5.3772788 53.213108 8.8296413
5.311718 53.234585 9.8356876
5.3326292 53.252728 9.6669245
5.3257799 53.241196 9.4897718
5.3311992 53.242794 9.3171167
5.3422585 53.250435 9.1465702
5.3321056 53.235428 8.9706774
5.3208408 53.219254 8.7953768
5.2710147 53.254074 9.8107195
5.2652059 53.243401 9.6332254
5.2783265 53.252987 9.4624014
5.2769995 53.247143 9.2876959
5.2678628 53.232971 9.1115103
5.2777843 53.239178 8.9412689
5.2664552 53.222702 8.7659998
5.2118864 53.244068 9.8011847
5.2260003 53.254784 9.6301594
5.2256861 53.250088 9.4550743
5.2242708 53.244232 9.2803698
5.2150435 53.230057 9.1041889
5.2114272 53.221889 8.9303732
5.2269387 53.234154 8.7620773
5.1571064 53.236279 9.8066111
5.1644406 53.240028 9.6334581
5.1773896 53.249783 9.4625435
5.1691766 53.236958 9.2857895
5.1732755 53.237289 9.1133471
5.1426601 53.200607 8.9322033
5.1917524 53.248955 8.7725906
5.1033182 53.227303 9.8154192
5.1172481 53.238373 9.6444016
5.1033516 53.219769 9.46521
5.1218381 53.235718 9.2965574
5.1258645 53.236259 9.1240282
5.1153588 53.221321 8.9481506
5.130713 53.233955 8.7796917
5.0477524 53.225189 9.810051
5.0549111 53.229141 9.6368961
5.0409036 53.210541 9.4577961
5.0525808 53.219341 9.287261
5.0564914 53.219872 9.1149015
5.0525999 53.212101 8.9409895
5.0948358 53.253471 8.7794275
4.9259424 53.177406 9.9498825
4.9740729 53.224922 9.7903862
4.9878702 53.235817 9.6194344
4.9872217 53.231319 9.4444313
4.9720507 53.211361 9.2659035
4.9960742 53.233181 9.0993147
4.9786897 53.210899 8.9217634
4.8703327 53.180515 9.9303265
4.925127 53.234936 9.7729626
4.9322348 53.238495 9.5997963
4.9315653 53.233772 9.424799
4.9365082 53.23505 9.2521267
4.9134789 53.206539 9.0722513
4.9094963 53.198345 8.8986158
4.8224821 53.18578 9.9267311
4.8772821 53.24015 9.7692595
4.8710093 53.229404 9.5917854
4.8837085 53.238895 9.4209251
4.8953586 53.247276 9.2501059
4.8723288 53.218735 9.0700712
4.8818259 53.22485 8.8998032
4.8334179 53.246162 9.7853422
4.8204546 53.228493 9.6055708
4.8264399 53.231022 9.4326019
4.8246346 53.225269 9.2578983
4.821732 53.218369 9.0835905
4.8042569 53.195972 8.9061441
4.7583833 53.213737 9.7961111
4.7854581 53.23904 9.629324
4.7646046 53.213348 9.4479427
4.7694407 53.215008 9.2752705
4.7664747 53.208382 9.1009531
4.7624164 53.200603 8.9270449
4.7977858 53.234753 8.7637424
4.7072148 53.206913 9.7968941
4.7073736 53.203876 9.6216049
4.7265491 53.221077 9.4528017
4.7111015 53.201473 9.2740927
4.728168 53.216442 9.1054659
4.7037497 53.18734 8.9260349
4.6583352 53.213566 9.7876587
4.6651106 53.217602 9.6144047
4.6640983 53.213367 9.4393129
4.6687064 53.215122 9.266551
4.6655083 53.208591 9.0921497
4.5870137 53.122097 8.898613
4.6828647 53.220791 8.7513571
4.5478497 53.160374 9.7540398
4.5477972 53.157001 9.5793514
4.5600638 53.166733 9.4090834
4.5443935 53.146786 9.2310982
4.5545211 53.154266 9.0612698
4.5513797 53.144405 8.7167883
4.4445 52.974083 5.6953301
4.5196562 53.02533 4.2088552
4.3812699 52.93335 4.0435772
4.3806796 52.929417 3.8787823
4.1521072 52.953053 5.542511
4.1399975 52.936729 5.3783984
4.0912333 52.950447 5.7152209
4.1089725 52.93169 4.0706758
4.0546336 52.996429 6.8822799
4.0507712 52.988422 6.71629
4.0527649 52.986607 6.5511222
4.0537624 52.983746 6.3860469
4.0537643 52.979839 6.221077
4.0527725 52.974884 6.0562243
4.0645404 52.983398 5.8919425
4.0478101 52.961845 5.726923
4.072854 52.953129 4.2450743
4.0806098 52.957375 4.0791745
4.010746 53.031277 7.733047
4.0055809 53.017727 7.3977461
4.0117221 53.020191 7.2319069
3.9963195 52.999886 7.0635967
4.0141463 53.014717 6.8996115
4.0035615 52.999523 6.7326918
4.012548 53.005013 6.5679269
3.9930749 52.980453 6.401124
4.0069394 52.9911 6.2369561
4.0129476 52.993454 6.0722413
4.0082378 52.980518 5.7424092
4.0392337 52.981312 4.4230056
4.0137205 52.950478 4.2601566
4.0284696 52.962002 4.0935321
4.0353398 52.965225 3.9273093
3.9615135 53.054535 8.4275894
3.973902 53.063534 8.2608414
3.9784791 53.064266 8.0926886
3.9752176 53.056705 7.9234033
3.9640937 53.040836 7.7532582
3.9655681 53.038315 7.585845
3.966022 53.034725 7.4186187
3.9722984 53.037296 7.2525239
3.9707234 53.031574 7.0856228
3.9681332 53.024788 6.9189467
3.9645305 53.016937 6.7525091
3.9667814 53.015282 6.5869079
3.9749014 53.019821 6.4218931
3.9682865 53.008812 6.2559867
3.9812934 53.018517 6.0913386
3.9849923 52.986259 4.6056914
3.9812086 52.978256 4.4408212
3.9970648 52.990913 4.2741203
3.9981642 52.988037 4.1084361
3.991394 52.976887 3.9434924
3.9282844 53.097992 9.4853697
3.9268985 53.092346 9.3116798
3.9311545 53.092705 9.140275
3.9343443 53.091942 8.9691067
3.9229493 53.075737 8.7947435
3.9239929 53.072731 8.624259
3.9375451 53.082989 8.4571495
3.9297063 53.070599 8.2855968
3.9207973 53.057095 8.114522
3.9380677 53.071308 7.9490976
3.947526 53.077255 7.7822819
3.9423192 53.067703 7.6132307
3.9429083 53.064285 7.4455671
3.9356332 53.05257 7.2771583
3.9341745 53.047009 7.1099901
3.9385538 53.047623 6.9438148
3.9419293 53.047184 6.7777019
3.9511671 53.052933 6.6122599
3.938803 53.035889 6.4452076
3.9544044 53.016506 4.9565682
3.9595819 53.017975 4.7909451
3.9499967 53.00391 4.626102
3.9006412 53.123051 9.5227509
3.8994129 53.117706 9.3486242
3.8970864 53.11121 9.1748886
3.8936665 53.103573 9.0015564
3.8756351 53.080479 8.8251743
3.9106526 53.113575 8.662756
3.8904552 53.088223 8.4872522
3.9098983 53.104839 8.3214111
3.9011357 53.091618 8.1497946
3.9117393 53.098892 7.9825764
3.8940485 53.076256 7.8104739
3.9162517 53.09581 7.6458406
3.910131 53.085426 7.4766955
3.9166579 53.088421 7.3098326
3.9153264 53.083115 7.1421347
3.9061186 53.069504 6.973875
3.9096043 53.069305 6.8074155
3.9052184 53.060799 6.64042
3.9066899 53.058483 6.4742069
3.85988 53.132935 9.5607653
3.8655124 53.135044 9.388382
3.8565965 53.121754 9.212369
3.8735576 53.135887 9.0442743
3.8624535 53.120312 8.8690777
3.8773282 53.132252 8.7011404
3.8776178 53.128765 8.529973
3.883641 53.131351 8.3605833
3.881824 53.12566 8.1899137
3.8789532 53.118862 8.019556
3.8750317 53.11097 7.849525
3.8837211 53.116409 7.6821251
3.8708878 53.099117 7.5115528
3.8843734 53.109638 7.3454108
3.8877828 53.105804 7.0103178
3.847877 53.169983 9.4203014
3.8256111 53.142693 9.2398958
3.8224211 53.135616 9.0659399
3.8046148 53.113091 8.8888779
3.8466287 53.15387 8.7276545
3.8537922 53.15778 8.5577278
3.8599143 53.160595 8.3879108
3.8513896 53.147938 8.2153883
3.851584 53.140884 7.8755322
3.7934024 53.175926 9.4239464
3.7779498 53.155735 9.2453871
3.7748473 53.14864 9.0712605
3.7571268 53.126095 8.8940258
3.7261617 53.172035 9.4116859
3.7242763 53.165871 9.2370825
3.7280407 53.165703 9.0647192
3.7036872 53.135792 8.8855772
