# .PCD v0.7 - Point Cloud Data file format
VERSION 0.7
FIELDS x y z
SIZE 4 4 4
TYPE F F F
COUNT 1 1 1
WIDTH 1612
HEIGHT 1
VIEWPOINT 0 0 0 1 0 0 0
POINTS 1612
DATA ascii
2.9600232 59.754322 19.369822
3.0217354 59.801426 18.100765
3.0346801 59.782974 16.822044
3.1001503 59.853386 16.206192
3.1389689 59.887897 15.582265
3.0845478 59.754993 17.453678
3.1479847 59.821644 16.835085
3.1496027 59.805248 16.196424
3.1272349 59.719086 18.069773
3.1881783 59.76173 16.806253
3.2487078 59.823387 16.187113
3.2648013 59.825573 15.554479
3.2972729 59.802883 17.448717
3.3615389 59.868797 16.828018
3.3578119 59.844002 16.185375
3.5249708 59.825623 17.530731
3.6200833 59.794418 16.945354
3.674407 59.828659 15.678069
3.6861162 59.814804 18.93573
3.7506554 59.861588 17.657204
3.7391446 59.827473 17.005476
3.8197029 59.876873 15.10251
3.871454 59.92614 14.478488
3.8035746 59.828114 18.321686
3.8882725 59.861397 15.761106
4.7002058 60.081345 14.018964
5.2339501 60.105686 14.069597
5.879353 60.133602 15.472343
5.8721972 60.080196 14.149637
5.9412103 60.142162 13.509481
5.9339561 60.09613 16.86043
5.949523 60.069092 15.532925
6.0204287 60.132355 14.889737
6.0124531 60.099865 14.226482
6.0669417 60.016518 16.971104
10.788961 59.91153 35.758171
10.705801 59.910351 35.718822
10.528499 59.902397 35.502117
10.551408 59.914459 35.005611
10.488099 59.907192 35.48653
10.445024 59.887035 35.489819
10.18866 59.921059 35.520821
10.192453 59.91338 34.99437
10.205126 59.915863 34.492126
10.168335 59.931606 35.568626
10.17671 59.92955 35.049156
10.16662 59.907078 34.51009
10.174635 59.905045 34.009811
10.149001 59.937653 35.593483
10.139051 59.915745 35.044418
10.156054 59.92411 34.549023
10.159357 59.917389 34.041161
10.17205 59.921322 33.557056
10.125819 59.952911 35.602112
10.13377 59.951344 35.082218
10.123225 59.929367 34.542747
10.130836 59.927811 34.042034
10.147942 59.936996 33.564953
10.151383 59.931149 33.075565
10.090582 59.971313 35.098442
10.093845 59.964684 34.580616
10.110903 59.973602 34.093967
10.100255 59.951862 33.573486
10.108427 59.951248 33.091068
10.121813 59.956596 32.624779
10.050381 59.98996 34.124622
10.077435 60.009933 33.661186
10.058024 59.978336 33.135544
10.062321 59.97332 32.654892
10.071929 59.97438 32.190319
10.08229 59.976437 31.734619
10.083793 59.968803 31.273983
10.024586 60.013771 33.205315
10.038914 60.019775 32.738239
10.034752 60.005371 32.252136
10.035918 59.99707 31.782183
10.037812 59.989738 31.321228
10.045496 59.988998 30.875935
10.059239 59.995136 30.44598
10.01607 60.049934 32.331699
10.012901 60.036816 31.854206
10.005497 60.019157 31.378984
10.003714 60.007912 30.919678
10.012777 60.008865 30.482687
10.033074 60.02243 30.067497
10.03477 60.01548 29.634048
9.9675198 60.039318 31.419977
9.9709253 60.033802 30.967134
9.9753437 60.029564 30.523039
10.010894 60.06002 30.127497
10.018009 60.059044 29.700115
10.006262 60.037281 29.254984
10.011121 60.034073 28.837969
9.9168425 60.066715 31.464567
9.910881 60.050461 30.997831
9.9255695 60.05732 30.566992
9.9515543 60.07687 30.157827
9.9942474 60.115093 29.776403
9.9983559 60.110596 29.350189
9.9988432 60.102219 28.925854
10.00088 60.095699 28.509851
9.9994183 60.085426 28.095711
9.841095 60.066528 30.604399
9.8726435 60.091705 30.201799
9.9604435 60.15099 28.597893
9.9754105 60.158367 28.202076
9.8879776 60.052246 27.68873
9.9812641 60.112114 25.842869
10.000912 60.125484 25.488142
9.7159462 60.044346 31.492125
9.9292164 60.144062 25.902826
9.9766417 60.187767 25.576977
10.005248 60.210701 25.234219
9.9652128 60.157734 24.823816
9.9992485 60.186878 24.495064
10.014119 60.194901 24.150311
9.6254797 60.023399 31.486193
9.7030592 60.077374 30.23411
9.8618383 60.146004 25.923557
9.9315367 60.196453 24.878658
9.5525522 60.01347 31.500803
9.7802582 60.125732 25.926426
9.4643784 59.972801 31.507795
9.7144766 60.112087 25.960186
9.649519 60.091827 26.016668
9.3441143 60.001202 31.320618
9.2424297 59.992199 31.269266
9.2887821 60.022873 30.428339
9.0811625 59.94186 31.582462
9.2523155 60.014961 27.0947
9.3175688 60.058445 26.005827
9.1614876 60.011395 27.042213
9.1754026 60.016552 26.666237
9.2424583 60.070938 25.972202
8.9215965 59.936649 31.51099
9.090189 60.000942 27.02824
9.1762514 60.066177 25.964594
8.8640327 59.911495 31.526102
9.0419512 59.991825 27.055706
9.1225777 60.052345 25.985723
8.8261328 59.896286 31.564713
9.0736189 60.033386 26.009687
8.7888851 59.911598 31.594685
8.9671097 60.001732 27.119234
9.0371017 60.052723 26.035912
8.7214499 59.920429 31.577148
8.8726482 59.978661 27.071524
8.9580135 60.046345 26.007301
8.6399717 59.92065 31.53404
8.8052359 59.991077 27.049765
8.8134861 59.990749 26.667686
8.8904915 60.057808 25.985697
8.5699797 59.927467 31.520786
8.7350492 59.995651 27.036726
8.7379875 59.989231 26.648579
8.7537441 59.997231 26.280207
8.8202372 60.061852 25.972712
8.2651663 59.796616 35.66576
8.3559456 59.797623 31.775112
8.4521379 59.882397 30.98798
8.5125284 59.938774 30.619434
8.5353661 59.953186 30.204523
8.1580915 59.750412 35.601368
8.1554298 59.734001 35.060749
8.1522789 59.717312 34.530018
8.1716223 59.726215 34.045391
8.0874815 59.748558 35.608147
8.0984106 59.747311 35.089672
8.0820055 59.715488 34.536793
8.1014996 59.724407 34.05217
7.9811268 59.742722 35.570492
8.0055819 59.756081 35.074467
7.9759164 59.708519 34.499744
8.0182943 59.742641 34.051746
8.0153627 59.725826 33.540215
7.8845959 59.758385 35.540901
7.9003239 59.760998 35.030296
7.9294267 59.779041 34.551071
7.9041843 59.735794 33.993671
7.9196749 59.738956 33.511379
7.9308457 59.73748 33.031063
7.8115182 59.763729 34.978127
7.822444 59.760647 34.469917
7.8196416 59.742279 33.949375
7.8396211 59.750027 33.474522
7.8368225 59.732224 32.972984
7.7321129 59.758808 34.950939
7.7339282 59.745186 34.428276
7.7445874 59.741901 33.92981
7.773695 59.759823 33.469467
7.7755656 59.747108 32.975067
7.8010416 59.761398 32.525406
7.642529 59.746078 35.47607
7.644824 59.732674 34.943806
7.6782165 59.754913 34.472549
7.6756001 59.736519 33.952068
7.7003317 59.749454 33.484482
7.7070208 59.742176 32.997219
7.5734706 59.73975 35.511852
7.5761065 59.726746 34.979462
7.6008091 59.739132 34.493473
7.6029806 59.726196 33.98024
7.600461 59.708229 33.469391
7.6164193 59.711502 32.996716
7.4944105 59.731407 35.513199
7.5194178 59.743755 35.017792
7.5084853 59.715511 34.472961
7.5151777 59.707623 33.967239
7.5355973 59.715603 33.492596
7.528657 59.692802 32.984077
7.5590968 59.712662 32.541851
7.5809817 59.723049 32.094105
7.4127293 59.720078 34.953274
7.4285545 59.721859 34.452877
7.4443769 59.723927 33.961807
7.4557719 59.721241 33.472755
7.4627628 59.713825 32.985802
7.4747057 59.712307 32.515182
7.2920113 59.704041 34.865299
7.2986188 59.694572 34.350857
7.3367734 59.721409 33.896816
7.3297567 59.697014 33.379391
7.3549471 59.709621 32.921677
7.3714423 59.712585 32.458572
7.4158983 59.732319 31.572851
7.2008147 59.7183 34.831856
7.2075138 59.708202 34.317604
7.2366743 59.724117 33.849216
7.2250948 59.693779 33.324913
7.2456074 59.700409 32.860428
7.2713213 59.713249 32.411911
7.1250234 59.706936 34.290604
7.1722584 59.743225 33.851421
7.1379876 59.68655 33.291088
7.1722684 59.708607 32.848251
7.1747513 59.694611 32.364422
7.2057796 59.713482 31.931942
7.0795097 59.718983 34.327232
7.0997725 59.724514 33.844269
7.0974221 59.704491 33.334427
7.1088634 59.700558 32.85561
7.1206717 59.697342 32.385925
7.1329989 59.695 31.92527
6.9901476 59.688469 34.826283
7.0102887 59.693882 34.334171
7.0214601 59.689342 33.83675
7.0418291 59.695629 33.363083
7.0441365 59.681576 32.869858
7.0512938 59.673367 32.393093
7.072978 59.681999 31.946535
6.9387369 59.687996 34.86105
6.9545574 59.68869 34.361443
6.9658442 59.684517 33.863899
7.0000296 59.706802 33.411736
6.9979706 59.687981 32.911053
7.0146351 59.690819 32.448208
6.9166994 59.720089 33.913643
6.9239607 59.711281 33.417892
6.9083052 59.676598 32.895775
6.9203954 59.673935 32.426037
6.9376926 59.67749 31.972345
6.8298454 59.731369 33.409237
6.8191643 59.701488 32.894341
6.8223372 59.687817 32.410446
6.8352189 59.685562 31.949869
6.8582149 59.695148 31.512123
6.8631005 59.684311 31.055328
6.7568588 59.743141 32.442604
6.7703567 59.740658 31.98173
6.7750578 59.728394 31.515848
6.7899137 59.728062 31.072798
6.8057127 59.729084 30.638412
6.8177519 59.72607 30.205797
6.73489 59.774139 31.11945
6.7464514 59.76973 30.67786
6.7638502 59.772285 30.251705
6.7727079 59.765331 29.820547
6.7679992 59.74313 29.378
6.7842441 59.745152 28.970543
6.6830816 59.787636 30.721626
6.696064 59.78492 30.288452
6.7053032 59.778191 29.857103
6.7108197 59.767467 29.427643
6.7175932 59.758453 29.006712
6.7457557 59.774136 28.620222
6.7405109 59.751888 28.196331
6.6757364 59.804546 29.9454
6.6768675 59.789001 29.508696
6.6841221 59.780731 29.087233
6.6877742 59.768597 28.667643
6.7029462 59.769867 28.269342
6.6405234 59.794254 30.008604
6.6565299 59.796429 29.59153
6.668992 59.794796 29.176125
6.6729345 59.78368 28.755922
6.6732926 59.768719 28.337641
6.6903801 59.773048 27.946918
6.6430125 59.812363 29.67499
6.6408348 59.79475 29.239191
6.6598692 59.801537 28.838181
6.6654844 59.793259 28.425749
6.6574645 59.769703 28.002354
6.6321812 59.829769 29.319885
6.6265435 59.808918 28.885527
6.6423388 59.81266 28.485699
6.6395779 59.795525 28.068222
6.6383853 59.780388 27.659107
6.6492009 59.779083 27.270752
6.6620088 59.780216 26.890194
6.6184883 59.848408 28.128284
6.6074805 59.822018 27.705887
6.6083193 59.809296 27.304518
6.6213694 59.810623 26.92362
6.6156378 59.79084 26.525827
6.6578517 59.812618 25.808163
6.5568061 59.86237 27.720697
6.5424767 59.831955 27.300261
6.5556779 59.833035 26.919298
6.5762191 59.842625 26.552107
6.5622592 59.813255 26.149824
6.6137915 59.858318 25.827612
6.6149273 59.846413 25.452496
6.6291332 59.84948 25.09664
6.4777632 59.856472 27.279255
6.4962115 59.863014 26.904486
6.4855204 59.83662 26.500467
6.5187716 59.860352 26.153069
6.598505 59.923248 25.484732
6.5969896 59.90799 25.110704
6.5924516 59.889484 24.738428
6.6066642 59.892387 24.39077
6.6236439 59.898571 24.050018
6.632494 59.895699 23.704882
6.4038444 59.853008 27.228153
6.4116359 59.847244 26.841274
6.4371424 59.861824 26.48052
6.4440031 59.855381 26.102776
6.5958309 59.958988 24.410181
6.607492 59.958939 24.063219
6.6054416 59.943527 23.706472
6.2888145 59.797897 27.527437
6.368504 59.859547 26.827736
6.3833451 59.862167 26.454668
6.4109678 59.879486 26.101162
6.5659914 59.961403 23.697681
6.6219125 59.938026 21.379005
6.2146382 59.757771 27.494362
6.3070188 59.84866 27.206942
6.3143387 59.842937 26.820051
6.3132515 59.827854 26.428707
6.351069 59.857132 26.087557
6.5680623 59.939064 21.703329
6.6216846 59.987789 21.422647
6.1417322 59.718964 27.475029
6.2493091 59.827469 27.206656
6.2720232 59.839649 26.838375
6.2656264 59.818958 26.440771
6.2980752 59.842522 26.093513
6.5190454 59.933716 21.714363
6.6300187 60.047249 21.483912
6.200305 59.826031 27.211294
6.2333078 59.850147 26.855307
6.226872 59.829681 26.457493
6.2540264 59.847477 26.103975
6.4742026 59.940784 21.722887
6.0597043 59.733349 27.489328
6.1517062 59.824509 27.201872
6.1845336 59.848614 26.845867
6.188375 59.840008 26.460279
6.2101545 59.851902 26.100567
6.4171772 59.932693 21.708227
6.0046639 59.719318 27.465204
6.1585708 59.855484 26.467016
6.1802034 59.867508 26.107082
6.3911228 59.956326 21.716875
5.9446383 59.705002 27.458982
6.0568852 59.81958 27.196642
6.0893712 59.843853 26.840544
6.0928426 59.835426 26.45488
6.0984383 59.829567 26.076965
6.3170857 59.930309 21.701611
5.8872342 59.703758 27.471907
5.9840384 59.800869 27.190798
6.0268903 59.836937 26.847198
6.0356388 59.83453 26.467644
6.0465846 59.83477 26.095701
6.2321825 59.898884 21.687914
5.8159633 59.699482 27.467402
5.9334745 59.819923 27.211357
5.9453187 59.820671 26.830488
5.9593043 59.824009 26.457253
5.9808373 59.836048 26.097532
6.1848478 59.918594 21.705091
5.7537766 59.712799 27.4695
5.8729367 59.82201 26.820074
5.8974423 59.837032 26.459126
5.908535 59.837009 26.087257
6.1301842 59.936596 21.711065
5.6655273 59.688763 27.418589
5.7828627 59.808765 27.162775
5.8049488 59.820759 26.794598
5.8136072 59.817684 26.415462
5.8244629 59.817268 26.04394
6.0775857 59.950779 21.702934
5.600668 59.687618 27.406963
5.7191706 59.79575 26.758383
5.7433457 59.810204 26.3979
5.7699409 59.827545 26.044615
5.8639965 59.825642 22.896923
6.000421 59.934566 21.682257
5.5270667 59.683437 27.418972
5.6289763 59.785778 27.144529
5.6702018 59.806156 26.409988
5.7022324 59.829525 26.062754
5.7980428 59.828346 22.914461
5.9465823 59.950428 21.709764
5.4644008 59.680824 27.454124
5.5978255 59.792477 26.432652
5.6194978 59.804092 26.073362
5.727519 59.816654 22.937204
5.8709803 59.932995 21.727554
5.4072485 59.661915 27.468287
5.524796 59.782284 27.212639
5.5561781 59.792183 26.465223
5.5884361 59.816139 26.117825
5.6695104 59.801327 22.951427
5.6917048 59.815201 22.632324
5.8070221 59.912209 21.736736
5.431726 59.71944 27.550102
5.5608559 59.817024 26.135567
5.639987 59.805527 22.967154
5.7538986 59.892021 21.731106
5.3464046 59.650764 27.490664
5.4584498 59.765812 27.228443
5.4802785 59.778923 26.859999
5.5096507 59.800694 26.505028
5.5045457 59.783661 26.114805
5.607728 59.804714 22.975246
5.6238656 59.812878 22.650425
5.7150049 59.885864 21.733448
5.3199606 59.685146 27.541313
5.4064069 59.771324 27.247387
5.428308 59.784615 26.878811
5.4525056 59.800632 26.517591
5.4527187 59.789711 26.133341
5.5397243 59.793407 22.97629
5.6525784 59.881191 21.739918
5.2121949 59.656025 27.50877
5.3140631 59.759449 27.234039
5.3498516 59.776501 26.492437
5.3712015 59.78915 26.132727
5.4540305 59.785477 22.970961
5.5672965 59.872711 21.73522
4.8440986 59.537331 33.841518
4.8731642 59.554985 33.382912
4.8867354 59.540081 32.420933
4.8987761 59.539032 31.960768
4.9445505 59.576744 31.558317
5.203454 59.725033 27.178905
5.2252803 59.737583 26.811089
5.2074947 59.705437 26.401712
5.2390151 59.729271 26.055065
5.3751678 59.782722 22.955078
5.494359 59.875374 21.725027
4.8320909 59.560947 32.878578
4.8387938 59.553539 32.402222
4.8599877 59.562954 31.956106
4.8631139 59.551971 31.490793
4.9457068 59.57687 29.370598
5.0295925 59.620525 27.809828
5.1013808 59.677177 27.097477
5.148675 59.718616 26.761219
5.1514754 59.709797 26.376652
5.1722393 59.721462 26.017963
5.1795387 59.71804 25.648546
5.4242125 59.863926 21.69055
4.7834873 59.549454 32.849258
4.7897077 59.541954 32.37302
4.8198247 59.561981 31.941061
4.8083663 59.534805 31.454859
4.8832512 59.6063 31.10227
4.8494277 59.554111 30.599478
4.9591112 59.652267 29.864714
5.0416741 59.646881 26.671837
5.0968823 59.674969 25.591463
4.7294202 59.539345 33.325207
4.7502027 59.534664 32.377743
4.7800994 59.55492 31.945711
4.7683892 59.527988 31.459442
4.8000956 59.550732 31.044685
4.847569 59.591591 30.658602
4.8384128 59.568233 30.198908
4.8497148 59.568348 29.775101
4.7012386 59.538956 32.407856
4.7219167 59.548798 31.961596
4.733974 59.549042 31.510073
4.7373066 59.539574 31.053543
4.765542 59.558651 30.640127
4.7465467 59.524239 30.167133
4.7968483 59.568764 29.797388
4.6634159 59.560963 31.990698
4.6568494 59.539799 31.511129
4.6650987 59.535751 31.061567
4.6742368 59.532932 30.620802
4.71841 59.57016 30.236145
4.7104549 59.548313 29.785301
4.5968614 59.563606 31.977629
4.5950007 59.547642 31.505093
4.5937147 59.532578 31.041727
4.622046 59.551464 30.628445
4.622601 59.538944 30.182678
4.6290679 59.53336 29.752424
4.6367736 59.529388 29.330709
4.4844165 59.523727 32.325073
4.5000162 59.527344 31.872274
4.5069132 59.521267 31.414354
4.5336733 59.538059 30.992937
4.5327444 59.523518 30.538828
4.5618544 59.543388 30.134251
4.5679698 59.537292 29.704191
4.4311943 59.535427 31.812811
4.4614315 59.555687 31.389893
4.44981 59.528416 30.913292
4.4676938 59.53503 30.486935
4.472198 59.526611 30.048721
4.4876184 59.530838 29.63257
4.4995074 59.531242 29.218073
4.391263 59.570187 31.35578
4.3748074 59.53688 30.872452
4.397418 59.54842 30.453098
4.3872795 59.522831 29.994762
4.412333 59.53759 29.592308
4.4142408 59.52618 29.164761
4.4423809 59.544838 28.778542
4.2533231 59.529282 32.180538
4.2730303 59.536503 31.735479
4.298336 59.550369 31.306032
4.2864919 59.522007 30.829975
4.3041458 59.527603 30.404121
4.3230119 59.534805 29.986689
4.3236198 59.521393 29.5508
4.3303418 59.515179 29.130205
4.2182341 59.533073 31.717665
4.23385 59.535984 31.274391
4.2599583 59.551113 30.853542
4.2583575 59.534828 30.400112
4.2771034 59.542 29.982607
4.287394 59.539742 29.560022
4.2693443 59.505417 29.106138
4.297163 59.523548 28.720293
4.1707239 59.519886 31.689787
4.1811757 59.517281 31.239691
4.1876893 59.510426 30.791523
4.2144356 59.526867 30.379393
4.2133441 59.511795 29.934959
4.2132916 59.498135 29.499331
4.098855 59.51054 32.116512
4.1184244 59.503849 31.207766
4.1342101 59.507702 30.773523
4.146246 59.507507 30.341026
4.1545529 59.503281 29.910337
4.1738944 59.511826 29.501547
4.1897888 59.516644 29.094299
4.0563698 59.525082 31.664204
4.0713472 59.527607 31.221098
4.0776787 59.5205 30.77293
4.0849276 59.514675 30.333567
4.1224828 59.543598 29.943316
4.1076713 59.513084 29.487411
4.1235309 59.517708 29.080227
4.1309686 59.512951 28.668098
4.020865 59.533993 30.773703
4.0330448 59.533539 30.341082
4.0463667 59.534611 29.917006
4.0511465 59.526165 29.487999
4.0472832 59.508102 29.054317
4.0546546 59.503044 28.642391
3.9555759 59.525154 30.754293
3.9434648 59.496956 30.287794
3.9613376 59.503189 29.870903
3.9854949 59.516785 29.468973
4.0062866 59.526745 29.068459
3.9887643 59.493317 28.623631
3.846158 59.4977 32.057209
3.8935146 59.522289 31.190639
3.8804204 59.492977 30.715151
3.9066117 59.508701 30.303366
3.9098103 59.498444 29.86607
3.9141378 59.489693 29.43745
3.9197373 59.482609 29.017376
3.9517386 59.505737 28.638403
3.9604993 59.502628 28.234674
3.818058 59.494675 31.60988
3.8515084 59.518528 31.194777
3.8382494 59.489365 30.719223
3.8352664 59.472164 30.266577
3.8673575 59.495102 29.870005
3.8813837 59.497681 29.454655
3.8918839 59.496449 29.040983
3.8134148 59.512505 30.762346
3.825103 59.512203 30.32971
3.8281791 59.502327 29.892151
3.8274658 59.488361 29.456596
3.8428373 59.492874 29.049526
3.8547821 59.493687 28.644062
3.8784451 59.507965 28.259678
3.7415028 59.505573 31.208599
3.7329714 59.482159 30.739836
3.7638566 59.503815 30.334652
3.7620428 59.488491 29.890356
3.7809749 59.496956 29.481546
3.7914972 59.496056 29.067677
3.8085184 59.50272 28.668621
3.6651366 59.494518 31.644426
3.6843297 59.502522 31.208294
3.6901495 59.495522 30.76012
3.70174 59.495308 30.327545
3.6998343 59.479969 29.883314
3.7039068 59.471638 29.454556
3.7340777 59.49313 29.067366
3.7310379 59.477119 28.642151
3.6211755 59.501873 31.181381
3.6027646 59.46727 30.699036
3.6236291 59.477589 30.280497
3.6458166 59.489609 29.870251
3.6546893 59.486694 29.448162
3.6500251 59.468613 29.014679
3.6716502 59.480564 28.622545
3.6849821 59.48328 28.225342
3.5671446 59.498997 30.273195
3.5844765 59.505219 29.856148
3.588412 59.49641 29.427399
3.5936282 59.489265 29.007189
3.5952599 59.478256 28.588854
3.6034186 59.47485 28.185381
3.5208762 59.517632 29.847776
3.5101011 59.491764 29.399052
3.5301561 59.501183 28.998827
3.5368559 59.495613 28.587029
3.555203 59.503464 28.196419
3.5652361 59.50206 27.800873
3.5719783 59.497101 27.406973
3.4644537 59.51823 29.858696
3.4832368 59.526081 29.449936
3.4886439 59.518921 29.029533
3.48546 59.502213 28.604475
3.5038528 59.510204 28.2138
3.5088475 59.503174 27.811789
3.5053523 59.486702 27.405228
3.4233801 59.531872 29.115065
3.4203074 59.515636 28.689688
3.4438617 59.529793 28.305172
3.4490077 59.523254 27.902775
3.4507835 59.513081 27.502155
3.4595306 59.510979 27.115896
3.4702973 59.511326 26.737448
3.4779782 59.508339 26.360529
3.3908765 59.523853 28.360365
3.4063015 59.529362 27.970554
3.3980167 59.508217 27.556889
3.4171941 59.518303 27.182947
3.4229448 59.513363 26.797935
3.4307692 59.510921 26.420717
3.344501 59.542847 28.408129
3.3501146 59.537189 28.005173
3.352354 59.527893 27.603981
3.3718729 59.538307 27.229712
3.3727717 59.527824 26.838154
3.3704312 59.513851 26.448387
3.3754115 59.508305 26.072605
3.3041694 59.57468 27.642662
3.3138492 59.573444 27.255444
3.3151517 59.562897 26.863619
3.3236701 59.560684 26.485861
3.3343809 59.561104 26.115738
3.3368056 59.552315 25.741096
3.3522091 59.558334 25.385908
3.3594327 59.555256 25.026155
3.3637962 59.549095 24.667881
3.2893293 59.596512 25.767267
3.3157978 59.614513 25.423592
3.3181176 59.60535 25.057493
3.3229091 59.599133 24.698801
3.2976463 59.559139 24.313055
3.3239689 59.577518 23.986032
3.2693968 59.624321 25.092508
3.2690797 59.612198 24.727743
3.2712824 59.603073 24.370359
3.2925482 59.615604 24.03713
3.29475 59.606754 23.688211
3.277597 59.576225 23.324295
3.2965548 59.586536 23.000374
3.313081 59.594215 22.677462
3.245784 59.644279 24.792175
3.259187 59.647991 24.445662
3.264421 59.642616 24.09477
3.2558916 59.621861 23.73418
3.2666562 59.62299 23.397413
3.2804127 59.627613 23.067337
3.2692399 59.604286 22.716965
10.205627 60.008854 33.379944
10.145041 60.138634 28.80588
10.159776 60.140812 28.258596
10.15269 60.107937 27.694752
10.156389 60.092693 27.147041
10.04237 60.16605 28.237194
10.067113 60.16304 27.153439
10.086629 60.173401 26.625523
10.089039 60.1562 26.086063
9.9244699 60.163361 27.658371
9.9468002 60.178204 27.129324
9.9474516 60.157894 26.583994
9.9544125 60.148056 26.049614
9.9678307 60.148914 25.525768
9.8000183 60.148396 27.074615
9.8144789 60.150589 26.543497
9.8259821 60.148125 26.014114
9.8156967 60.110203 25.469355
9.6737232 60.15979 27.03973
9.6927252 60.169365 26.513527
9.7041512 60.166653 25.984537
9.6891718 60.12072 25.435886
9.7182264 60.147339 24.932003
9.5363379 60.152073 27.003586
9.5412493 60.138432 26.464663
9.5431423 60.119999 25.927794
9.5513878 60.112251 25.401623
9.5661306 60.115414 24.885735
9.4184275 60.149712 26.447046
9.4156408 60.123459 25.906197
9.4284649 60.123325 25.38479
9.4384413 60.118637 24.865084
9.4502897 60.117218 24.351263
9.4640837 60.11919 23.843145
8.6653967 59.672058 39.608204
9.3289738 60.17815 25.380081
9.3343086 60.165638 24.856161
9.3320951 60.140732 24.330021
9.3364058 60.126877 23.814114
9.3473768 60.124279 23.308016
9.2291269 60.198196 24.323576
9.2522402 60.215652 23.823883
9.2527952 60.174599 22.79707
9.2679224 60.17915 22.301834
9.2852287 60.187481 21.811699
9.1542645 60.236572 22.799994
9.1647167 60.233204 22.300865
9.1773024 60.233566 21.807001
9.2111473 60.269756 21.332804
9.2043581 60.237869 20.830711
9.2189226 60.241955 20.348055
9.2117605 60.209743 19.853012
9.1451616 60.3013 19.382317
9.1234322 60.244595 18.883976
8.9957285 60.240513 18.379269
9.0611038 60.311115 17.46932
8.8557167 60.236511 18.360479
8.920804 60.306973 17.451702
8.7241812 60.241005 18.338158
8.7264061 60.224556 17.864109
8.7841501 60.303017 17.427383
8.5939512 60.249214 18.303413
8.5817156 60.207809 17.82066
8.6631403 60.32729 17.399582
8.398201 60.16803 18.719244
8.4452362 60.228725 18.274128
8.4424953 60.203552 17.798258
8.2694311 60.174877 18.714113
8.3020487 60.21101 18.259966
8.3040056 60.194016 17.787825
8.1200142 60.143642 18.680656
8.1712379 60.212555 18.239948
8.173111 60.195435 17.768303
7.9770808 60.130898 18.651428
8.0232954 60.191479 18.208221
8.0203285 60.165874 17.734255
7.8462577 60.139709 18.641701
7.8829055 60.183834 18.19261
7.8846011 60.166409 17.72229
7.4569435 59.946106 24.341309
7.5156188 60.028454 23.882185
7.5590963 60.061707 22.904251
7.5974584 60.108166 22.434595
7.2792616 59.969902 26.36261
7.2907152 59.944012 25.316525
7.3098955 59.955544 24.813602
7.3132644 59.938858 24.29949
7.3272605 59.941437 23.799715
7.3476186 59.955597 23.309565
7.3789368 59.989552 22.832581
7.1425548 59.958889 25.807144
7.1512322 59.951172 25.289991
7.1747184 59.970417 24.791828
7.1737146 59.945599 24.273907
7.1788383 59.932045 23.766356
7.207953 59.96196 23.284941
6.9555888 59.926445 26.800119
6.9652791 59.919968 26.275766
6.9937959 59.94796 25.775528
7.011116 59.955757 25.267733
7.0214844 59.951103 24.757189
7.0117302 59.910088 24.231565
7.0343647 59.928104 23.741398
7.0545578 59.941849 23.252449
6.8595815 59.940418 25.223368
6.8914857 59.975063 24.734959
6.8687162 59.909943 24.197037
6.8780742 59.903759 23.695044
6.8936768 59.909157 23.202843
6.6834989 59.900867 25.677446
6.7175641 59.93961 25.188669
6.7233248 59.926441 24.6751
6.7351222 59.924576 24.171856
6.7443762 59.918224 23.670258
6.751101 59.90741 23.170361
6.7640939 59.908287 22.680149
6.5501871 59.921043 25.663702
6.558486 59.912251 25.149059
6.5641494 59.898788 24.636278
6.5585628 59.864727 24.116999
6.6109753 59.938091 23.657784
6.3714218 59.894466 26.131016
6.3904805 59.880791 25.10165
6.42172 59.9147 24.615448
6.411942 59.872421 24.09236
6.4253354 59.873478 23.596479
6.4492607 59.894295 23.114288
6.4577947 59.886669 22.621313
6.2140479 59.880516 26.08683
6.2583151 59.913773 25.085056
6.2469358 59.86787 24.556242
6.2627201 59.873096 24.05942
6.2803335 59.881931 23.568224
6.2955341 59.886425 23.078417
6.0730562 59.865631 25.537151
6.1021285 59.895599 25.046524
6.094944 59.857361 24.522703
6.1148305 59.870388 24.03072
6.1152225 59.846867 23.523573
6.1430941 59.87529 23.046783
5.9609928 59.885571 24.514542
5.9808121 59.898594 24.022797
5.9897342 59.89114 23.524139
5.9919267 59.871128 23.023148
6.0002074 59.862846 22.532011
6.0146985 59.866501 22.050303
5.8781009 59.91766 22.532339
5.8926034 59.921349 22.050632
5.9048009 59.920815 21.570305
5.9017534 59.891438 21.080225
5.8214202 59.984051 20.14929
5.8290076 59.97522 19.678104
5.8300285 59.953995 19.204967
5.841949 59.953754 18.743439
5.7201633 60.017902 18.747787
5.7125897 59.98019 18.274445
5.7290869 59.988888 17.821926
5.7611337 60.027554 17.382648
5.773622 60.028774 16.931761
5.7752385 60.009266 16.476107
5.7969766 60.028458 16.035965
5.8034348 60.018467 15.588235
5.5331998 59.95504 18.705027
5.5603137 59.98423 18.258724
5.5854559 60.009705 17.813013
5.3805008 59.959095 18.685709
5.4203801 60.01347 18.249611
5.4280367 60.005184 17.791536
5.2033954 59.92067 18.649822
5.2558455 60.000164 18.224331
5.2806473 60.025517 17.779526
5.0559506 59.932091 18.635538
5.0995588 59.994751 18.203993
5.1070352 59.986164 17.747152
4.8937778 59.917599 18.613939
4.9371181 59.980221 18.183062
4.9402642 59.963028 17.723728
4.7461228 59.928036 18.59927
4.7680678 59.94836 18.152618
4.5779428 59.896156 18.567036
4.6164632 59.950226 18.134159
4.6363015 59.966724 17.688766
4.395946 59.866131 18.99198
4.4577284 59.943993 18.113705
4.1562176 59.817814 21.265654
4.1406746 59.760986 20.77117
4.1472902 59.749851 20.301041
4.1886501 59.810123 19.864553
4.2199602 59.849888 19.421217
4.224627 59.835201 18.957949
4.2645044 59.892742 18.526075
4.2610393 59.861702 18.061893
4.2972026 59.911846 17.631027
3.8955984 59.726482 23.587215
3.8912168 59.69138 23.084658
3.9241946 59.733948 22.624821
3.9431872 59.747688 22.153751
3.9466877 59.704334 21.188591
3.708282 59.684502 24.03281
3.7218046 59.686382 23.546106
3.713439 59.642746 23.040287
3.7461262 59.68507 22.581413
3.7609484 59.690262 22.107332
3.7656767 59.674587 21.626835
3.5319328 59.671551 24.495831
3.5359921 59.653275 23.995323
3.5571709 59.671291 23.517834
3.5644841 59.660313 23.029171
3.5695605 59.644844 22.542257
3.5921235 59.666348 22.077003
3.596806 59.650452 21.597227
3.3733377 59.666161 24.466131
3.3945429 59.657291 23.485027
3.4095571 59.66254 23.005264
3.4185178 59.655155 22.522881
3.4174659 59.62677 22.034193
3.2428582 59.666508 23.467127
3.2423811 59.63866 22.971231
3.2706437 59.672428 22.50983
3.2618692 59.627312 22.013515
3.286005 59.65263 21.554567
3.3003113 59.657158 21.08893
3.041014 59.626301 24.402193
3.0677559 59.656487 23.929325
3.080972 59.657703 23.444839
3.0728426 59.613174 22.941227
3.0932026 59.630215 22.472441
3.1037796 59.626396 21.99687
3.130342 59.630962 21.061815
2.9090905 59.623158 23.409914
2.904773 59.58662 22.911224
2.9316058 59.591164 21.964331
2.9554248 59.616253 21.506678
2.9656651 59.612114 21.038517
2.073621 59.085369 39.723324
2.7524204 59.623131 23.38792
2.7632833 59.61953 22.906248
2.7644117 59.594868 22.41806
2.7824554 59.607388 21.951723
2.7869837 59.590588 21.474911
2.8207104 59.611389 20.556448
2.6005991 59.613071 22.877186
2.6130621 59.61314 22.401726
2.6196613 59.600506 21.923779
2.6356022 59.608639 21.459219
2.6419048 59.595764 20.988289
2.6538546 59.595497 20.526463
2.4867647 59.65897 21.930529
2.4913869 59.642002 21.454199
2.512949 59.662796 20.998697
2.5097082 59.628819 20.521767
2.5235527 59.632877 20.065109
2.5354829 59.632877 19.60969
2.5532322 59.645908 19.162531
2.41418 59.715923 19.628874
2.4204576 59.703514 19.170914
2.4209697 59.678448 18.711027
2.427278 59.666473 18.259491
2.4472327 59.68502 17.822348
2.4498692 59.665195 17.373337
2.3106902 59.733864 17.826586
2.3327177 59.757404 17.393396
2.3638713 59.775959 16.523043
2.3729577 59.770905 16.086288
2.3842201 59.770851 15.653476
2.3859162 59.74955 15.216148
2.1114461 59.698952 18.689188
2.2456796 59.745537 14.350242
2.0555508 59.711285 14.751121
2.0889459 59.761795 14.340864
1.9061805 59.71529 14.312507
1.7426293 59.712151 14.298849
1.5446932 59.658737 14.693677
1.5736408 59.700214 14.282782
1.379739 59.655151 14.679378
1.4236848 59.732147 14.27932
2.5155637 59.845165 13.806944
2.538625 59.865402 13.222575
2.6020241 59.826012 15.598525
2.612534 59.826584 15.004066
2.6575792 59.880398 14.423291
2.6247234 59.814289 13.817925
2.6532862 59.8428 13.234609
2.742116 59.845451 15.614505
2.7658536 59.850414 14.426093
2.765229 59.833824 13.830565
2.7993834 59.87056 13.247777
2.8896742 59.854939 15.034773
2.8974898 59.851116 14.439082
2.9023371 59.842823 13.844348
2.915046 59.846561 13.253921
3.0238345 59.866352 15.666618
3.0563896 59.90004 15.076546
3.0698004 59.904713 14.481221
3.0965056 59.929596 13.891892
3.0768707 59.884239 13.289662
3.1792507 59.890606 15.716356
3.1741769 59.867298 15.111626
3.2776752 59.859261 16.945536
3.3262734 59.885124 15.145402
3.3509579 59.906586 14.551852
3.3617668 59.907249 13.955252
3.347713 59.87064 13.352852
3.472162 59.915051 15.765695
3.4837606 59.91647 15.164479
3.4813817 59.897053 14.56051
3.5252299 59.946754 13.973495
3.5113151 59.910202 13.369728
3.5823019 59.846607 14.558833
3.6704676 59.961395 13.985293
3.651264 59.916599 13.378766
3.7179761 59.875134 15.794388
3.7795558 59.949631 15.208836
3.7922652 59.918797 13.402189
5.8122368 60.142719 13.682086
5.8414612 60.168591 13.074837
5.8967791 60.093655 16.131248
5.9609041 60.151791 14.906281
5.9968009 60.186199 14.296852
5.9658771 60.128361 13.669425
5.995306 60.153915 13.061216
6.0689993 60.118141 16.751457
6.1170788 60.152981 15.51485
6.1159372 60.135853 14.891096
6.1346326 60.146038 14.275519
6.2442794 60.106236 16.12067
6.2637811 60.117275 15.500878
6.3322392 60.195274 14.898067
6.3044958 60.141827 14.266894
6.3257627 60.155403 13.65246
6.3945556 60.087936 17.391613
6.4378309 60.116074 16.145227
6.4806256 60.158966 15.531635
6.5026884 60.17371 14.912633
6.4980907 60.152275 14.287321
6.5018167 60.142197 13.666596
6.6190948 60.119583 16.813707
6.7245121 60.217949 14.960103
6.8586216 60.185192 16.872526
6.8699317 60.186184 16.243153
6.912991 60.229881 15.626145
6.8822918 60.174522 14.987415
6.9245424 60.217201 14.373225
6.9163961 60.192238 13.745858
7.0565739 60.20026 16.907133
7.091485 60.232895 16.284237
7.0524411 60.166756 15.638879
7.0687327 60.174606 15.014033
9.1980562 60.408699 16.784679
9.2005329 60.378147 15.48737
9.2360611 60.406124 14.851966
9.2803297 60.445133 14.220112
9.2658024 60.410194 13.574085
9.344306 60.350262 17.513634
9.6017265 60.412128 16.96763
9.6019487 60.397182 16.314257
9.6292019 60.415947 15.671416
9.8330278 60.429695 15.07293
9.8409691 60.424549 14.426572
9.9750729 60.436966 17.718088
10.004372 60.457722 17.068722
10.053558 60.457394 14.469176
10.048441 59.843906 36.109947
9.9880152 59.872543 36.158546
10.00459 59.878086 35.642418
9.9385977 59.905125 36.226292
9.942174 59.895927 35.687733
9.9546061 59.89666 35.173466
9.9529724 59.882259 34.646912
9.8886204 59.912998 35.753242
9.9016924 59.914158 35.238628
9.9100342 59.910385 34.726166
9.9183788 59.906845 34.223103
9.9268847 59.903709 33.72934
9.8745975 59.948746 35.344429
9.8791094 59.940659 34.824078
9.8929386 59.942982 34.327587
9.8975067 59.935425 33.826046
9.9022961 59.928326 33.333809
9.9074583 59.921856 32.850773
9.857954 59.964363 34.935356
9.8779202 59.961002 33.935997
9.8882713 59.960049 33.450142
9.8797464 59.938744 32.945362
9.8909807 59.939171 32.477779
9.8524647 59.967823 34.046741
9.8587198 59.962765 33.553207
9.8556728 59.947792 33.054844
9.862709 59.943993 32.5797
9.8802357 59.951778 32.127277
9.8196201 59.969608 34.668133
9.8358641 59.975719 34.17897
9.8333435 59.961636 33.670532
9.8309975 59.947952 33.171528
9.8484583 59.955959 32.709667
9.8470974 59.943726 32.228939
9.851326 59.937737 31.764135
9.8264427 59.98904 33.784584
9.8344097 59.986885 33.29887
9.8380041 59.980179 32.815262
9.8568888 59.990211 32.361431
9.8222704 59.942482 31.840975
9.837781 59.949207 31.398108
9.8027792 60.010204 32.384167
9.7734194 59.967838 31.870358
9.7742825 59.958405 31.406918
9.7811041 59.955589 30.95903
9.8239231 59.981976 30.121771
9.8451471 59.995174 29.711937
9.7301245 60.031834 31.895718
9.7015839 59.989574 31.391293
9.7086716 59.986172 30.943413
9.7118378 59.978691 30.497477
9.772438 60.033604 30.132442
9.8095217 60.063156 29.741863
9.8122425 60.055641 29.313702
9.811285 60.044304 28.887463
9.806673 60.029171 28.463205
9.8249674 60.038948 28.072187
9.6276102 60.01302 31.354784
9.6649446 60.041664 30.947233
9.6633682 60.028194 30.494417
9.7242317 60.082691 30.129129
9.8069592 60.127647 28.515821
9.8152475 60.125832 28.111513
9.5635824 60.018902 31.337353
9.5757456 60.019947 30.896372
9.5739298 60.005989 30.443953
9.8020086 60.121792 25.782063
9.8097219 60.120083 25.412821
9.8368759 60.139465 25.067738
9.4972715 59.978794 31.328999
9.5494518 60.023746 30.941801
9.5426645 60.004848 30.482412
9.6187153 60.07597 30.136959
9.7936506 60.149994 25.840548
9.8349676 60.18486 25.505199
9.7972403 60.125233 24.724379
9.88132 60.206425 24.442202
9.4552298 59.941174 31.361345
9.5173874 59.997654 30.987545
9.5257854 59.996059 30.547857
9.5866213 60.051353 30.182371
9.8111467 60.18681 25.936171
9.4168596 59.932518 31.395609
9.4840918 59.994896 31.028362
9.4570227 59.955452 30.541901
9.5432367 60.038574 30.209539
9.3461123 59.920719 31.368942
9.4182272 59.988331 31.008575
9.4011841 59.959667 30.535542
9.4771385 60.031651 30.189999
9.2867355 59.940342 31.340593
9.338666 59.985714 30.953411
9.3366404 59.972828 30.500643
9.4176359 60.049892 30.161728
9.2154493 59.95681 31.306654
9.2623138 59.996201 30.912861
9.2652969 59.98819 30.466934
9.1636992 59.977825 31.313581
9.1754742 59.97887 30.872787
9.1834087 59.975933 30.433819
9.1183825 59.977581 31.333944
9.1252098 59.973377 30.886326
9.1433458 59.981609 30.460554
9.0302868 59.924561 31.322023
9.0823298 59.969593 30.935043
9.0905733 59.967354 30.495749
9.161521 60.0331 30.143763
8.938839 59.885872 31.316477
9.0009956 59.941833 30.94322
9.0195417 59.950726 30.517344
9.0958023 60.022179 30.172007
8.8927765 59.927139 31.348967
8.9151201 59.939461 30.921734
8.9236422 59.936977 30.482775
8.8189793 59.953842 31.323372
8.8263721 59.949188 30.876093
8.8349075 59.945969 30.437399
8.6228065 59.851101 31.593552
8.7742186 59.975937 30.428894
8.5509176 59.848389 31.591518
8.661191 59.95472 31.27923
8.6837769 59.965706 30.852379
8.6824226 59.950848 30.40056
8.8548031 60.002682 26.063391
8.4913464 59.840576 31.625885
8.6018162 59.947193 31.313576
8.6145906 59.94762 30.873203
8.6235189 59.944065 30.434652
8.5147219 59.899029 31.312328
8.5869789 59.95137 30.500385
8.4574375 59.896587 31.343388
8.520092 59.938446 30.517941
7.905961 59.654972 36.23959
7.9218807 59.65535 35.717308
7.848484 59.683632 36.221081
7.8508296 59.66853 35.676647
7.8709431 59.673302 35.17136
7.895648 59.683422 34.682617
7.7781444 59.679623 36.203026
7.8167505 59.704212 35.717777
7.8097081 59.678898 35.168194
7.8298464 59.683796 34.672188
7.7192917 59.669376 36.208946
7.7488618 59.68409 35.708935
7.7417626 59.65881 35.159466
7.7710991 59.673889 34.678112
7.6837106 59.665806 36.238091
7.7133455 59.680882 35.737907
7.7356973 59.671413 34.706718
7.6503849 59.676693 36.294666
7.6803541 59.692272 35.794144
7.6828012 59.677963 35.258778
7.7033629 59.68383 34.762245
7.7355618 59.686646 33.782288
7.5469675 59.645626 36.260742
7.5497708 59.631012 35.71624
7.4588561 59.655045 36.233013
7.466383 59.644817 35.696091
7.4642768 59.624355 35.15424
7.3498588 59.655197 36.168804
7.3664412 59.654011 35.647083
7.3964381 59.667965 35.156841
7.4034772 59.656956 34.639305
7.2580504 59.668961 36.152344
7.2704391 59.662239 35.623367
7.2915616 59.665554 35.11866
7.2987895 59.653881 34.60144
7.3291345 59.668064 34.129795
7.3411093 59.662315 33.638401
7.1938624 59.680264 36.202763
7.1978245 59.663857 35.658779
7.2057562 59.652245 35.131977
7.1995311 59.625381 34.593002
7.2393756 59.649761 34.136051
7.1511741 59.668034 36.280323
7.1646204 59.662563 35.750767
7.1685328 59.646942 35.216145
7.1950345 59.656628 34.727676
7.189168 59.630966 34.197727
7.1296368 59.6516 36.361397
7.1568494 59.662201 35.853638
7.1565542 59.642849 35.311054
7.1833706 59.653698 34.822063
7.2336197 59.690613 34.378262
7.2048192 59.640972 33.820969
7.0939145 59.620342 36.395382
7.1164994 59.626709 35.8801
7.138854 59.633152 35.374187
7.1565294 59.634777 34.870258
7.1742034 59.636711 34.375622
7.1967325 59.644264 33.897346
7.0987678 59.666828 36.512375
7.0993776 59.649361 35.959213
7.0947328 59.626495 35.408653
7.1125216 59.628578 34.904545
7.1209993 59.62077 34.39526
7.0205331 59.648373 36.49453
7.0256386 59.635757 35.948956
7.0255809 59.617832 35.405865
7.0664749 59.645157 34.938301
7.0612788 59.622261 34.407066
6.9353051 59.63253 36.440556
6.9537358 59.634258 35.917576
6.9490256 59.610912 35.367313
6.9759579 59.62265 34.878098
6.9751463 59.604271 34.354527
6.8398938 59.618298 36.350014
6.8397856 59.599194 35.797932
6.8572488 59.599789 35.285198
6.9022102 59.630917 34.825596
6.8872037 59.596508 34.280602
6.778203 59.63195 36.287975
6.7867303 59.621983 35.750942
6.8084636 59.626919 35.245663
6.8347459 59.637184 34.756943
6.8239484 59.60704 34.219513
6.753849 59.640102 35.723209
6.7615051 59.629604 35.195911
6.7919273 59.644474 34.714619
6.8039761 59.639473 34.213406
6.7972732 59.614231 33.692898
6.7076516 59.634941 35.717335
6.7425537 59.654675 35.234028
6.7453194 59.639427 34.708729
6.7571635 59.634487 34.207512
6.7738032 59.635117 33.722763
6.7717514 59.615582 33.218739
6.6766872 59.639332 35.763416
6.7071528 59.654579 35.272484
6.7053823 59.634777 34.739662
6.6985993 59.609833 34.209404
6.7151089 59.610729 33.724712
6.7319498 59.612278 33.249111
6.7636786 59.630379 32.803574
6.6460748 59.635674 35.789742
6.6856337 59.661385 35.313301
6.6884923 59.647186 34.787445
6.6910992 59.633045 34.271248
6.7030458 59.629429 33.778908
6.644846 59.658443 35.303215
6.6612859 59.65947 34.799183
6.6637216 59.645489 34.282799
6.6660709 59.631725 33.775967
6.6827846 59.633934 33.299858
6.6903753 59.626465 32.818661
6.6305199 59.667542 34.788952
6.6326041 59.65353 34.272507
6.6298828 59.634586 33.758465
6.6557708 59.647125 33.29652
6.6678929 59.644917 32.82222
6.675724 59.638294 32.349934
6.6174326 59.67696 34.297958
6.6240559 59.668587 33.797905
6.6165295 59.645084 33.285919
6.6427917 59.658638 32.83268
6.631 59.631046 32.332363
6.6538258 59.641342 31.889814
6.564302 59.682438 34.316929
6.5852361 59.689693 33.838196
6.5875115 59.676884 33.340073
6.5948424 59.669853 32.858307
6.5929351 59.653038 32.371719
6.6160049 59.66362 31.92886
6.5244174 59.692112 33.358765
6.532064 59.68507 32.876881
6.5499001 59.689377 32.418022
6.5538387 59.67881 31.947195
6.5732994 59.685364 31.505867
6.5689378 59.666267 31.039158
6.5091643 59.725224 31.974661
6.5043359 59.704777 31.498846
6.5151238 59.70158 31.052464
6.5219636 59.694324 30.607986
6.545135 59.705036 30.192043
6.4543624 59.738602 31.494493
6.4901438 59.762207 31.081816
6.4922538 59.749378 30.630192
6.5106101 59.754459 30.207212
6.5099902 59.73914 29.766163
6.5260711 59.742184 29.35323
6.5282407 59.730339 28.929047
6.5371847 59.726051 28.51956
6.4502664 59.774185 30.626968
6.4584422 59.768101 30.190586
6.4883318 59.785839 29.788942
6.4993811 59.783306 29.369104
6.5171862 59.788319 28.963894
6.5001817 59.755779 28.522036
6.5056205 59.747795 28.114088
6.4746213 59.797382 28.567032
6.4856081 59.795391 28.164892
6.4666624 59.761173 27.733255
6.4706693 59.752022 27.334833
6.4187021 59.806725 27.788317
6.3751993 59.746017 27.333851
6.4739509 59.800209 25.882439
6.3418598 59.77166 27.400354
6.3485107 59.76556 27.009405
6.3789606 59.785366 26.650318
6.4367352 59.822021 25.941174
6.4365373 59.809166 25.561935
6.3192787 59.781246 27.442722
6.3367233 59.787292 27.063641
6.3293858 59.766739 26.661795
6.345912 59.772121 26.291801
6.4088392 59.82769 25.976259
6.414166 59.821262 25.602556
6.4275661 59.823681 25.241955
6.3019547 59.782696 27.469528
6.3083949 59.777668 27.07794
6.3224072 59.78096 26.700102
6.3387771 59.786942 26.329678
6.4015956 59.843052 26.013708
6.4067583 59.837219 25.639568
6.4144363 59.834236 25.272772
6.413548 59.822182 24.901775
6.432199 59.831253 24.554916
6.259727 59.769341 27.482943
6.2821269 59.782104 27.10961
6.2797856 59.768379 26.713364
6.2905045 59.768852 26.336893
6.358624 59.831165 26.026834
6.4189444 59.88517 25.71093
6.3989406 59.852997 25.314543
6.3980403 59.841484 24.943106
6.4110479 59.845028 24.590197
6.4269428 59.85178 24.244118
6.4287109 59.843502 23.888281
6.1708589 59.742134 27.454643
6.198463 59.76054 27.087769
6.2068329 59.758369 26.703884
6.296526 59.832901 26.029448
6.3925562 59.914616 25.374769
6.3976312 59.909504 25.008307
6.4223166 59.92556 24.66584
6.4159722 59.90844 24.29664
6.4351897 59.918854 23.956566
5.9003792 59.685802 31.503082
6.1087594 59.769981 27.056023
6.0955205 59.743904 26.648195
6.1170063 59.755432 26.284296
6.2179623 59.852711 26.010094
6.4556217 59.969372 21.619656
5.9607015 59.730621 27.333448
6.0203538 59.782478 27.004044
6.0070729 59.755611 26.596533
6.0285048 59.766426 26.232901
6.1403637 59.874992 25.970636
5.9163599 59.760345 27.310528
5.9489942 59.782791 26.950516
5.9624867 59.784672 26.573429
5.9565148 59.765675 26.179941
5.8644943 59.756084 27.290747
5.8860478 59.766865 26.918602
5.8883004 59.756931 26.529676
5.9091525 59.767258 26.166286
5.7995467 59.73119 27.284718
5.8370318 59.759632 26.930983
5.8391657 59.750011 26.541977
5.8489828 59.748848 26.166615
5.7274885 59.708698 27.284878
5.7648973 59.737286 26.931299
5.7886567 59.751251 26.566526
5.7876339 59.738605 26.179113
5.6948819 59.748245 27.336212
5.6734443 59.713154 26.915102
5.697156 59.727032 26.550617
5.7179289 59.737869 26.187311
5.9638944 59.863495 21.792559
5.5940895 59.719143 27.284584
5.6154141 59.730232 26.912725
5.6066136 59.708893 26.512014
5.6435375 59.737137 26.166918
5.2726235 59.595436 31.65152
5.5105762 59.708698 27.219576
5.5476518 59.736713 26.866371
5.5385609 59.714897 26.465893
5.5697527 59.736816 26.115017
5.8814588 59.930702 21.785666
5.2205453 59.638039 31.627247
5.4471006 59.73465 27.182081
5.4463568 59.721333 26.786354
5.4585533 59.72221 26.410496
5.5004191 59.755375 26.071741
5.3341269 59.710663 27.104069
5.3492208 59.714096 26.727196
5.3612199 59.714333 26.351753
5.4519958 59.800167 26.066776
5.1844006 59.639744 27.379427
5.2714829 59.721195 27.081902
5.2703309 59.706818 26.686892
5.2983785 59.724339 26.32972
5.3781424 59.798138 26.03289
4.9852719 59.615101 31.481213
5.1419516 59.645985 27.374235
5.2395453 59.739147 27.088858
5.211309 59.695679 26.663317
5.2173395 59.689625 26.282288
5.3239603 59.792866 26.015457
4.6782036 59.428169 34.523643
4.7445078 59.484825 34.111176
4.733892 59.441559 33.089352
4.8188386 59.489288 31.769861
4.9518847 59.605732 31.029526
5.0892982 59.634834 27.361666
5.1545291 59.693214 27.03953
5.1634526 59.690575 26.656918
5.1692123 59.684666 26.275881
5.2537727 59.764339 25.985321
4.6020141 59.437191 35.549259
4.5808053 59.397202 34.979584
4.6278052 59.432587 34.529644
4.6289687 59.417835 34.015873
4.6441283 59.418758 33.533188
4.6691008 59.430714 33.07383
4.8713288 59.578537 30.994221
4.8831005 59.577343 30.557751
4.8809786 59.561203 30.109777
5.1094265 59.670166 25.889194
4.5698724 59.471138 35.075382
4.5945272 59.48172 34.588219
4.6054425 59.477467 34.088432
4.6164465 59.473602 33.597977
4.6040235 59.44429 33.081192
4.6393466 59.467682 32.644623
4.6419096 59.455372 32.167534
4.7969337 59.581192 30.987692
4.8137383 59.585346 30.558022
4.8268013 59.585621 30.130053
4.8209243 59.565426 29.68404
4.5236697 59.482742 34.580425
4.5345893 59.47839 34.080704
4.5568504 59.471012 33.109138
4.5780573 59.478802 32.651176
4.5999908 59.487633 32.201969
4.5936255 59.465672 31.719854
4.6716447 59.521912 30.905643
4.7279015 59.56918 30.5306
4.7196341 59.532211 29.637335
4.4650497 59.476955 34.571388
4.4990139 59.498196 34.107876
4.491303 59.473858 33.588554
4.4976883 59.465321 33.100269
4.5139441 59.467896 32.635319
4.5404835 59.482002 32.193214
4.5290823 59.454739 31.704239
4.5622659 59.476597 31.286392
4.5868983 59.489288 30.863085
4.417697 59.477589 34.57642
4.4329033 59.478569 34.083916
4.4576764 59.490341 33.61496
4.4545507 59.471722 33.112209
4.4754643 59.479767 32.654175
4.4681768 59.457123 32.162987
4.4904485 59.46714 31.722713
4.3203964 59.456661 35.037239
4.3687601 59.478264 34.072426
4.3981004 59.495125 33.610695
4.404366 59.486881 33.122162
4.4061718 59.47401 32.635818
4.4035439 59.456543 32.151737
4.4305625 59.471828 31.718443
4.3088574 59.488678 33.579971
4.31036 59.474869 33.084579
4.3311973 59.482594 32.626732
4.3334899 59.470188 32.149704
4.3265991 59.447968 31.667969
4.364368 59.474991 31.257219
4.1943741 59.474518 34.027687
4.2050133 59.470146 33.537655
4.2490005 59.502792 33.106602
4.2319646 59.468483 32.592209
4.2534866 59.476898 32.143429
4.2613149 59.470493 31.682522
4.274817 59.470573 31.237366
4.299211 59.482838 30.814436
4.1433606 59.470219 33.524204
4.1540689 59.466339 33.043457
4.179502 59.478935 32.592957
4.1961217 59.482079 32.137127
4.1843867 59.454288 31.648544
4.2073951 59.464947 31.217348
4.0754943 59.452396 33.974476
4.1135221 59.478863 33.527718
4.1097322 59.459526 33.025532
4.1252031 59.461658 32.560997
4.1365075 59.459454 32.098362
4.1339421 59.442257 31.623865
4.1516123 59.447525 31.185926
4.1953917 59.467949 30.34219
4.0145798 59.447636 33.964317
4.0430222 59.463799 33.503284
4.0531402 59.46003 33.022587
4.0588965 59.451721 32.543964
4.0699587 59.449501 32.081451
4.0914698 59.458988 31.641655
4.0845866 59.437534 31.169262
3.958565 59.456142 33.496326
3.9734907 59.457516 33.022854
4.0032401 59.47546 32.579506
4.0146317 59.473431 32.116749
3.992722 59.435032 31.614456
4.0152068 59.445686 31.183498
3.9119055 59.470161 33.044014
3.9390519 59.470383 32.116726
3.9464014 59.464008 31.656002
3.9496319 59.45335 31.197313
3.9537082 59.443859 30.747522
3.8535349 59.466576 33.058846
3.8644373 59.463837 32.587147
3.8759034 59.461964 32.124451
3.9026515 59.477142 31.691402
3.8864362 59.445305 31.205029
3.9003694 59.446846 30.76882
3.9419074 59.465553 29.935148
3.7734578 59.434891 33.528156
3.8025675 59.452515 33.075954
3.7799551 59.413441 32.554852
3.8247054 59.44873 32.141422
3.8124909 59.421604 31.652933
3.8301156 59.427505 31.215
3.8389595 59.423969 30.771992
3.7188408 59.432644 34.054504
3.742882 59.444927 33.585972
3.7485349 59.437202 33.097847
3.7306602 59.403862 32.583706
3.7754169 59.439606 32.170177
3.7680693 59.418316 31.688467
3.7808464 59.419346 31.243483
3.6370068 59.419621 33.563068
3.6568956 59.42733 33.096603
3.6726024 59.430664 32.631954
3.669723 59.41378 32.14822
3.6818545 59.413647 31.694536
3.6850634 59.403927 31.235889
3.7039225 59.411617 30.806551
3.5003419 59.402393 33.498692
3.5344317 59.424927 33.054134
3.531302 59.406582 32.561649
3.54287 59.404728 32.099522
3.550303 59.398556 31.63936
3.5682797 59.404247 31.201832
3.5774922 59.400497 30.759218
3.4116912 59.423512 32.984989
3.4418449 59.441021 32.542381
3.4441335 59.427914 32.066349
3.4517889 59.421017 31.60639
3.4504542 59.404438 31.141602
3.4646297 59.405254 30.706247
3.4799533 59.40757 30.279415
