# .PCD v0.7 - Point Cloud Data file format
VERSION 0.7
FIELDS x y z
SIZE 4 4 4
TYPE F F F
COUNT 1 1 1
WIDTH 1613
HEIGHT 1
VIEWPOINT 0 0 0 1 0 0 0
POINTS 1613
DATA ascii
12.602022 51.190113 24.08634
12.650223 51.217602 23.176212
12.66389 51.2192 22.718651
12.633441 51.168888 22.232889
12.658409 51.184055 21.791243
12.680465 51.195881 21.350641
12.669949 51.169445 20.891163
12.668222 51.153481 20.441446
12.69339 51.169273 20.012556
12.715792 51.181892 19.584562
12.723386 51.177185 19.150167
12.734197 51.17635 18.720667
12.717055 51.129421 17.848124
12.731706 51.133362 17.429396
12.759216 51.139366 16.598087
12.772138 51.141495 16.185417
12.763912 51.118912 15.764631
12.777838 51.12236 15.357029
12.824247 51.088428 12.536124
12.824664 51.07655 12.13817
12.84172 51.084152 11.747673
12.843364 51.061592 10.9601
12.879117 51.007038 7.8721437
12.877439 50.993221 7.4898
12.899448 51.006969 7.1126485
12.893343 50.98806 6.7312589
12.344074 51.382717 38.863312
12.317658 51.330704 38.172531
12.457111 51.326828 32.841801
12.499143 51.324356 31.193047
12.476258 51.280033 30.618357
12.4759 51.26273 30.073996
12.525715 51.305271 29.585825
12.495663 51.253059 29.024397
12.521701 51.267677 28.523632
12.544147 51.278183 28.024431
12.546365 51.264843 27.51161
12.516941 51.214157 26.975891
12.55084 51.23872 26.502272
12.553261 51.226116 26.005569
12.580473 51.243023 25.534752
12.564561 51.209015 25.03232
12.590922 51.210289 24.089317
12.616555 51.225834 23.633585
12.627504 51.22414 23.170252
12.629458 51.211945 22.704145
12.622359 51.18919 22.23555
12.623795 51.176636 21.777212
12.622121 51.160534 21.320557
12.641078 51.168869 20.881603
12.676335 51.182693 20.010981
12.674706 51.167065 19.56798
12.688212 51.169353 19.137579
12.700822 51.157253 18.276741
12.712084 51.157166 17.853401
12.702317 51.132446 17.421131
12.695869 51.111725 16.993757
12.73585 51.145599 16.59333
12.742563 51.14048 16.177647
12.746661 51.132366 15.763054
12.748156 51.121273 15.34959
12.755915 51.092255 14.124383
12.772261 51.098824 13.725933
12.794206 51.087139 12.529861
12.807185 51.065437 11.345629
12.813144 51.060204 10.954517
12.867969 51.028076 7.8718719
12.888277 51.02803 7.1122031
12.888652 51.016666 6.7317791
12.278499 51.338528 38.796322
12.266416 51.303703 38.125504
12.325167 51.334396 36.920135
12.440025 51.340912 32.839794
12.445912 51.3302 32.274704
12.431585 51.295605 31.695028
12.471353 51.32571 31.179842
12.469847 51.306824 30.627398
12.485723 51.308834 30.099243
12.475993 51.280563 29.551548
12.494864 51.28651 29.0383
12.510383 51.272495 28.006956
12.512501 51.259045 27.494358
12.544356 51.281059 27.013922
12.550426 51.272614 26.515049
12.536015 51.240036 26.003559
12.563205 51.256943 25.532742
12.552987 51.229656 25.035011
12.562093 51.225407 24.558037
12.562128 51.21056 24.078217
12.593461 51.23288 23.627108
12.569559 51.189983 23.137518
12.577151 51.184471 22.676273
12.605017 51.20303 22.233541
12.618201 51.20435 21.783506
12.604764 51.174347 21.318548
12.635559 51.196667 20.887579
12.639763 51.187706 20.441776
12.629055 51.16127 19.989809
12.645297 51.166714 19.558466
12.658745 51.168949 19.128227
12.651286 51.146656 18.688364
12.659121 51.142467 18.260698
12.670285 51.142281 17.837687
12.672279 51.11824 16.988487
12.675344 51.10878 16.569067
12.712731 51.139713 16.169443
12.729535 51.120895 14.935283
12.725857 51.103878 14.52419
12.725867 51.091255 14.117016
12.748433 51.105133 13.721327
12.730912 51.072094 13.311049
12.770302 51.093376 12.525509
12.770654 51.081444 12.12781
12.774941 51.074169 11.733226
12.783215 51.071602 11.341532
12.776411 51.05146 10.946507
12.836823 51.037815 8.2500982
12.252144 51.342392 38.779961
12.279172 51.354519 38.160728
12.402525 51.349541 33.392097
12.397449 51.307777 32.236893
12.419949 51.317123 31.697325
12.443738 51.328205 31.165276
12.420723 51.283661 30.590883
12.457937 51.311127 30.084967
12.448133 51.282749 29.537422
12.450556 51.269131 29.00841
12.43809 51.237984 28.471188
12.476756 51.267841 27.988119
12.467676 51.241081 27.46559
12.5105 51.276169 26.995533
12.505254 51.254292 26.487032
12.496325 51.228207 25.980778
12.534695 51.258411 25.519814
12.541483 51.251274 25.036339
12.550597 51.247032 24.559286
12.533409 51.211761 24.065756
12.553113 51.220341 23.605867
12.563896 51.218475 23.142923
12.554049 51.192322 22.668592
12.546758 51.169327 22.200552
12.583247 51.198219 21.767679
12.58153 51.182049 21.311104
12.574799 51.146164 20.407106
12.62361 51.189972 19.994101
12.627888 51.181301 19.555094
12.617249 51.15514 19.110174
12.641665 51.156986 18.257326
12.658892 51.16394 17.837738
12.66126 51.153481 17.412403
12.654778 51.13269 16.985115
12.65783 51.123207 16.565695
12.674505 51.116898 15.739594
12.682068 51.112942 15.32956
12.680866 51.098755 14.917682
12.702003 51.098225 14.110966
12.705732 51.090027 13.70758
12.713269 51.086353 13.307678
12.730968 51.094646 12.913467
12.727368 51.078026 12.512775
12.733976 51.073425 12.117672
12.738209 51.066086 11.723343
12.75913 51.078335 11.336074
12.733209 51.035809 10.935138
12.838191 51.015057 6.3445616
12.782212 50.938114 5.9583664
12.250204 51.374474 38.797001
12.262075 51.328503 36.876537
12.364754 51.320511 32.787483
12.370346 51.309441 32.222965
12.398056 51.325012 31.689207
12.409472 51.304192 30.593958
12.419766 51.299557 30.060719
12.436934 51.303299 29.54035
12.439385 51.289684 29.011265
12.43244 51.265064 28.4792
12.438075 51.255611 27.965055
12.451048 51.255058 27.463142
12.454844 51.243752 26.958059
12.479682 51.242115 25.978333
12.450121 51.191658 25.460062
12.490693 51.224636 25.005699
12.499636 51.220196 24.52911
12.516747 51.225574 24.063311
12.512445 51.191044 23.114151
12.525733 51.192268 22.65753
12.518395 51.169189 22.189648
12.554815 51.198021 21.756931
12.558947 51.188744 21.304588
12.571884 51.189991 20.861801
12.58303 51.175385 19.97633
12.599196 51.180744 19.545147
12.582506 51.147408 19.096722
12.6111 51.167618 18.678961
12.611778 51.141621 17.818171
12.607943 51.123844 17.389906
12.625819 51.131729 16.976152
12.634967 51.12941 16.560076
12.63534 51.116833 16.14196
12.651596 51.123024 15.73414
12.665331 51.126308 15.327119
12.639284 51.08289 14.903862
12.666587 51.102261 14.507331
12.666518 51.089523 14.100494
12.688983 51.10331 13.705139
12.671406 51.070145 13.295203
12.689034 51.078358 12.901331
12.685376 51.061657 12.500978
12.717214 51.086628 12.115232
12.721443 51.079269 11.720903
12.704256 51.046871 11.32113
12.716446 51.048943 10.9327
12.771912 50.958542 5.9568114
12.213804 51.364529 38.769817
12.188813 51.293999 37.438366
12.232041 51.306686 36.232777
12.353382 51.358574 33.370804
12.358211 51.346336 32.797905
12.353369 51.322762 32.221767
12.383531 51.323921 31.133652
12.376435 51.298306 30.576193
12.397399 51.306408 30.054071
12.392867 51.284264 29.512272
12.400613 51.276958 28.988859
12.404574 51.249149 27.948397
12.428533 51.261684 27.456867
12.449009 51.270222 26.966869
12.449224 51.254799 26.463676
12.468331 51.262001 25.981987
12.461444 51.238441 25.482742
12.485086 51.251316 25.013901
12.494083 51.246925 24.537157
12.488289 51.225105 24.053028
12.473326 51.192554 23.5665
12.472306 51.176693 23.095407
12.508761 51.205391 22.656334
12.495587 51.175369 22.184225
12.520229 51.190277 21.743284
12.506607 51.159977 21.278965
12.531232 51.175072 20.844641
12.541148 51.172855 20.403471
12.560087 51.181408 19.971304
12.589804 51.162113 18.24317
12.576581 51.133144 17.806704
12.590976 51.136856 17.388712
12.602731 51.137527 16.971699
12.593454 51.113491 16.546173
12.618369 51.129822 16.140768
12.622275 51.121471 15.726924
12.63597 51.124714 15.320068
12.640947 51.117764 14.911203
12.624712 51.085926 14.495094
12.655791 51.10981 14.101978
12.646972 51.086834 13.693575
12.660716 51.090439 13.296519
12.640615 51.054348 12.88802
12.674717 51.081966 12.502126
12.681279 51.077293 12.107278
12.691801 51.077316 11.715373
12.680946 51.052315 11.317854
12.69948 51.061825 10.931509
12.729031 50.941051 5.9521151
12.703255 50.899254 5.5721097
12.150652 51.34037 39.372314
12.158185 51.328796 38.718609
12.199509 51.358234 38.119263
12.201612 51.340714 37.477318
12.315251 51.326485 32.769623
12.320739 51.315315 32.205315
12.306062 51.280228 31.626434
12.345365 51.309956 31.112036
12.322096 51.265034 30.538298
12.364343 51.298641 30.038485
12.372806 51.275528 28.979015
12.39306 51.283371 28.473537
12.398662 51.273899 27.959467
12.411593 51.273335 27.457628
12.404226 51.248741 26.942614
12.421081 51.25317 26.45458
12.411994 51.226864 25.948786
12.450133 51.256912 25.488277
12.42834 51.215801 24.98177
12.431153 51.189217 24.02198
12.462112 51.211231 23.571722
12.455329 51.188545 23.096165
12.485948 51.210377 22.652782
12.484436 51.194199 22.189211
12.485624 51.181347 21.731586
12.513168 51.199844 21.296007
12.508302 51.180038 20.841404
12.50631 51.163757 20.39249
12.53113 51.179317 19.964397
12.51729 51.149227 19.514706
12.536482 51.158314 19.088945
12.546919 51.157131 18.66058
12.560647 51.159927 18.23691
12.559531 51.145267 17.807457
12.580008 51.156193 17.392807
12.585664 51.1497 16.972452
12.582522 51.132908 16.550102
12.58899 51.127529 16.13533
12.599025 51.126431 15.724665
12.599033 51.100803 14.900576
12.61997 51.100098 14.094698
12.623615 51.091805 13.691732
12.631064 51.088043 13.292253
12.636087 51.081486 12.893616
12.626091 51.057339 12.491179
12.645207 51.067451 12.101264
12.655681 51.067455 11.709614
12.66963 51.05938 10.92826
12.119191 51.309731 38.686207
12.140723 51.31543 38.061474
12.290403 51.343197 33.336365
12.289934 51.307037 32.188175
12.275143 51.271866 31.609509
12.298368 51.282444 31.078539
12.306968 51.275707 30.538372
12.27388 51.219303 29.962261
12.333709 51.274216 29.486225
12.35215 51.2798 28.973785
12.366871 51.281105 28.463152
12.361382 51.258457 27.938921
12.352034 51.231384 27.417067
12.383356 51.252995 26.937679
12.366597 51.217422 26.420155
12.368537 51.204315 25.924595
12.389546 51.214066 25.450142
12.407269 51.220036 24.977139
12.398522 51.179806 24.008413
12.417848 51.188076 23.549458
12.445638 51.20652 23.100616
12.458812 51.20771 22.644228
12.46307 51.198425 22.185043
12.470078 51.192528 21.731649
12.450491 51.155197 21.263496
12.480887 51.177258 20.833481
12.478832 51.160946 20.384729
12.467825 51.134144 19.933809
12.489681 51.14637 19.507265
12.514807 51.162544 19.085333
12.531225 51.168491 18.660639
12.520742 51.142712 18.222942
12.519526 51.127987 17.793816
12.545983 51.146049 17.382835
12.521018 51.103439 16.946426
12.542218 51.115448 16.537447
12.554738 51.117271 16.126101
12.570863 51.123413 15.718695
12.553552 51.090187 15.297447
12.576969 51.105064 14.897784
12.585525 51.102478 14.493135
12.572888 51.074993 14.081364
12.588939 51.08136 13.684005
12.608857 51.092331 13.289794
12.607564 51.078388 12.888818
12.62272 51.083855 12.495906
12.629216 51.079182 12.101313
12.608038 51.042034 11.698816
12.647789 51.076538 11.318649
12.647229 51.063721 10.926308
12.721507 50.99609 5.9564047
12.689285 50.946743 5.5752592
12.139471 51.3633 38.72887
12.265935 51.343357 33.321777
12.254788 51.312111 32.732014
12.254764 51.294453 32.162392
12.255639 51.278099 31.601015
12.294715 51.307735 31.086901
12.297997 51.294666 30.541067
12.297174 51.276886 29.997581
12.308494 51.273834 29.472643
12.326828 51.27935 28.96035
12.325035 51.260975 28.434179
12.352365 51.277576 27.941244
12.35961 51.27034 27.434549
12.37432 51.272175 26.939848
12.318434 51.189945 26.387758
12.365118 51.23024 25.931465
12.374846 51.226593 25.447309
12.392528 51.232567 24.974304
12.395535 51.221191 24.493555
12.406643 51.219601 24.023754
12.403006 51.200592 23.546621
12.407615 51.191532 23.080229
12.414839 51.185703 22.619846
12.407267 51.162415 22.152597
12.425786 51.170242 21.708057
12.447248 51.181664 21.268801
12.454011 51.175743 20.822659
12.463745 51.173447 20.381889
12.482491 51.181934 19.950123
12.462572 51.144691 19.496923
12.48161 51.153713 19.071486
12.497927 51.159595 18.647032
12.505487 51.155197 18.2201
12.500231 51.122551 17.363281
12.493466 51.101475 16.937065
12.520714 51.120682 16.531427
12.527036 51.115227 16.117067
12.524598 51.099503 15.700793
12.544263 51.109943 15.29753
12.549064 51.102905 14.889249
12.569984 51.114944 14.490289
12.569793 51.102142 14.083871
12.579592 51.101181 13.683749
12.57443 51.082649 13.279422
12.560505 51.053867 12.873852
12.581847 51.066669 12.483702
12.594564 51.069363 12.091701
12.598621 51.061909 11.698136
12.593984 51.044285 11.303297
12.60602 51.04631 10.915464
12.656021 51.033142 8.6066685
12.68292 51.029198 7.4661207
12.69652 51.009895 6.3301897
12.063028 51.3246 39.308441
12.123463 51.377068 38.726788
12.130545 51.365341 38.082294
12.112707 51.323841 37.41523
12.244731 51.350666 33.313812
12.238768 51.325603 32.729931
12.260726 51.316845 31.621601
12.273378 51.314785 31.079226
12.260609 51.282448 30.516897
12.291898 51.30312 30.006399
12.308685 51.306587 29.486689
12.294492 51.273144 28.942364
12.309012 51.274261 28.432098
12.308843 51.257977 27.913397
12.321465 51.257156 27.412157
12.308263 51.225643 26.892742
12.34154 51.249813 26.420172
12.304165 51.189781 25.890579
12.324953 51.199333 25.416584
12.359479 51.225395 24.958132
12.373806 51.227497 24.486856
12.344792 51.178093 23.985332
12.386981 51.213642 23.544546
12.397372 51.211437 23.082541
12.393008 51.191799 22.613462
12.414578 51.203129 22.16744
12.427335 51.204086 21.718433
12.431217 51.194607 21.266726
12.432076 51.181648 20.816593
12.412137 51.144112 20.35635
12.41288 51.131248 19.913576
12.452524 51.164631 19.4986
12.447587 51.145218 19.058405
12.463833 51.151016 18.634195
12.47133 51.14653 18.207508
12.476089 51.138885 17.782053
12.490288 51.142506 17.36455
12.489652 51.128643 16.941511
12.49244 51.118916 16.523001
12.511006 51.127922 16.114994
12.527052 51.134014 15.707753
12.497342 51.086109 15.280822
12.514446 51.093594 14.878646
12.535308 51.105568 14.479936
12.535069 51.09269 14.073771
12.52608 51.069561 13.666126
12.552136 51.087826 13.274843
12.544483 51.066399 12.871783
12.540651 51.049538 12.472279
12.56592 51.067013 12.085124
12.58259 51.074394 11.696067
12.571625 51.04929 11.299146
12.564607 51.028893 10.905405
12.620745 51.022896 8.600153
12.623319 51.014046 8.2180128
12.610804 50.98753 7.8338304
12.641117 51.011276 7.4591613
12.643505 51.002296 7.0797191
12.637243 50.983204 6.6997213
12.641704 50.976704 6.3223462
12.637526 50.96011 5.9444752
12.03094 51.320671 39.288109
12.08642 51.367149 38.700153
12.098269 51.361122 38.062363
12.093037 51.295563 36.153355
12.195385 51.307541 32.700245
12.189992 51.283337 32.125248
12.211791 51.29203 31.586967
12.240186 51.308834 31.061806
12.248708 51.301968 30.521786
12.259076 51.280819 29.453804
12.261033 51.266663 28.925825
12.259091 51.248024 28.400103
12.291739 51.270969 27.912767
12.287808 51.250298 27.396294
12.280111 51.225296 26.882109
12.285421 51.216019 26.385054
12.309638 51.229485 25.909355
12.319274 51.22567 25.425507
12.334086 51.213139 24.467751
12.339356 51.204533 23.993793
12.347096 51.199005 23.526062
12.340073 51.176018 23.051208
12.352968 51.176888 22.595608
12.368624 51.18116 22.14567
12.375422 51.174999 21.692911
12.385061 51.172329 21.245752
12.403533 51.180267 20.807991
12.425069 51.19194 20.375282
12.402156 51.150909 19.916788
12.417939 51.155945 19.486732
12.424953 51.150665 19.054119
12.441195 51.156422 18.629992
12.442655 51.144733 18.199881
12.453453 51.144207 17.778011
12.461571 51.140583 17.357252
12.454822 51.119434 16.93112
12.463695 51.116867 16.516033
12.482238 51.12582 16.108194
12.461325 51.088161 15.683056
12.480906 51.098484 15.280209
12.485641 51.091312 14.872346
12.500273 51.095901 14.471045
12.512461 51.09766 14.070484
12.497243 51.067116 13.660333
12.523278 51.085339 13.269218
12.534442 51.08606 12.873596
12.53694 51.076603 12.476346
12.537038 51.064377 12.080009
12.541061 51.056831 11.686786
12.555391 51.061474 11.298538
12.567429 51.063454 10.910791
12.611059 51.04248 8.6010313
12.587988 51.003464 8.2132225
12.59476 50.999538 7.8332281
12.60577 51.000614 7.4548912
12.60171 50.984032 7.0745735
12.58254 50.949757 6.6928248
12.606358 50.965923 6.3188591
12.047924 51.373829 39.333553
12.0577 51.266251 35.5144
12.167973 51.361668 34.440331
12.17447 51.332844 33.271523
12.173515 51.313732 32.693947
12.189038 51.314674 32.141968
12.205663 51.31715 31.597809
12.207603 51.302177 31.044531
12.205359 51.282391 30.493685
12.225789 51.290031 29.972582
12.247803 51.299751 29.458687
12.206354 51.233528 28.888224
12.253352 51.27356 28.410067
12.23113 51.230793 27.871052
12.2579 51.231098 26.876614
12.24644 51.201756 26.364855
12.302608 51.238121 25.425014
12.274855 51.189781 24.914738
12.294645 51.198395 24.448776
12.299808 51.189671 23.975132
12.318937 51.197742 23.51664
12.323418 51.188461 23.050718
12.31891 51.168594 22.582191
12.351962 51.193611 22.14518
12.335359 51.15958 21.675819
12.357368 51.157627 20.787546
12.367659 51.142151 19.904806
12.389338 51.154213 19.478743
12.384326 51.134651 19.038954
12.406488 51.147461 18.618738
12.413921 51.142864 18.192379
12.436788 51.156666 17.777519
12.420602 51.124222 17.343393
12.425972 51.117432 16.92411
12.44092 51.122074 16.512365
12.441034 51.109215 16.095327
12.463134 51.122463 15.691595
12.458078 51.10363 15.27679
12.481363 51.118408 14.877542
12.477407 51.101017 14.467793
12.483353 51.095406 14.06464
12.486832 51.086937 13.662432
12.48643 51.061497 12.860991
12.52028 51.089062 12.475854
12.501484 51.054531 12.072758
12.511781 51.05439 11.681958
12.507101 51.036636 11.287632
12.519071 51.038555 10.900312
12.549552 51.002205 8.5901661
12.532845 50.970657 8.2043571
12.545989 50.974236 7.8261905
12.55052 50.96772 7.4470639
12.578626 50.988911 7.0729456
12.572359 50.969761 6.6933827
12.583262 50.970791 6.3174047
11.99449 51.336327 39.282417
12.035355 51.365253 38.675041
12.145522 51.343887 33.841125
12.153152 51.31702 32.689495
12.147696 51.29277 32.114635
12.13254 51.257084 31.536833
12.165907 51.279987 31.017916
12.17949 51.279282 30.483997
12.16229 51.241783 29.924896
12.178604 51.244751 29.406286
12.205348 51.244141 28.380053
12.221371 51.247269 27.877556
12.217233 51.226391 27.361607
12.237079 51.234421 26.872963
12.259058 51.245148 26.390841
12.272063 51.245274 25.905365
12.276025 51.234722 25.416817
12.282206 51.226974 24.934875
12.307783 51.242546 24.473228
12.28448 51.199848 23.976479
12.303595 51.207958 23.517988
12.302297 51.191822 23.047678
12.32095 51.199619 22.596462
12.324942 51.190044 22.138067
12.331682 51.183861 21.685465
12.335389 51.174179 21.234394
12.324286 51.146973 20.776918
12.36337 51.17963 20.356583
12.364138 51.166767 19.913809
12.362911 51.138069 19.036629
12.379025 51.143749 18.612907
12.380376 51.131977 18.183203
12.385006 51.124187 17.75832
12.392992 51.120468 17.338051
12.416593 51.135353 16.928709
12.382649 51.082058 16.491468
12.431677 51.127235 16.09976
12.41688 51.096813 15.677881
12.424067 51.092525 15.269346
12.428726 51.085308 14.861816
12.424664 51.067841 14.452569
12.45538 51.091591 14.060625
12.452584 51.075745 13.655993
12.459805 51.071808 13.257524
12.464615 51.065075 12.859902
12.46702 51.055557 12.46316
12.479623 51.05814 12.071838
12.483586 51.050564 11.678955
12.491524 51.047729 11.288965
12.484475 51.02726 10.895652
12.533922 51.013493 8.5914955
12.497982 50.959328 8.2014971
12.511087 50.962917 7.8235903
12.534878 50.979084 7.448391
12.537211 50.970047 7.0697289
12.543805 50.966042 6.6926107
12.54178 50.951931 6.3148804
11.97113 51.333855 39.269718
12.018576 51.350662 38.01865
12.121201 51.341084 33.829643
12.119403 51.320839 33.243896
12.123649 51.273132 31.542913
12.135821 51.270618 31.001545
12.154607 51.276257 30.473366
12.148051 51.251606 29.925306
12.164336 51.254612 29.406696
12.198534 51.279308 28.911194
12.218303 51.286827 28.406601
12.21799 51.270409 27.888271
12.213892 51.249626 27.372171
12.194942 51.211216 26.848354
12.227896 51.235184 26.376465
12.212764 51.201691 25.866961
12.233375 51.211155 25.393347
12.245053 51.21006 24.916489
12.230667 51.177925 24.422804
12.281362 51.223755 23.985968
12.243076 51.163342 23.482668
12.28193 51.195236 23.043692
12.27735 51.175369 22.575319
12.263734 51.144852 22.10463
12.299478 51.173347 21.673412
12.29722 51.156616 21.218508
12.321369 51.171474 20.785297
12.313125 51.147831 20.333515
12.325615 51.148994 19.898884
12.287574 51.090103 19.435486
12.34213 51.141525 19.033354
12.346181 51.132927 18.602539
12.347449 51.121113 18.173079
12.351996 51.113285 17.74844
12.384178 51.138374 17.341784
12.389501 51.131622 16.922581
12.386064 51.114555 16.501389
12.386081 51.101669 16.084681
12.414208 51.122204 15.684291
12.415246 51.110672 15.272661
12.413721 51.096172 14.862204
12.422044 51.093414 14.458476
12.415462 51.073067 14.050305
12.412585 51.057178 13.646009
12.43222 51.067993 13.252893
12.436979 51.061256 12.855439
12.433059 51.044315 12.456528
12.43301 51.032005 12.060953
12.449499 51.039295 11.672832
12.457376 51.036446 11.283096
12.475608 51.045868 10.898029
12.495481 50.985725 8.2046642
12.515 50.996914 7.8278937
12.493799 50.960197 7.4438734
12.515389 50.973866 7.0689659
12.502628 50.947151 6.6887851
12.50701 50.940624 6.3123641
11.975936 51.308216 37.338593
12.099418 51.326057 33.237076
12.098214 51.306793 32.659924
12.103011 51.294998 32.096897
12.114038 51.290932 31.547642
12.152695 51.320354 31.034172
12.139691 51.287739 30.472424
12.138483 51.269539 29.929815
12.17095 51.292042 29.427258
12.178132 51.284302 28.904949
12.13786 51.219723 28.342926
12.159102 51.229252 27.846104
12.190998 51.236046 26.857416
12.196116 51.226681 26.360739
12.186494 51.199802 25.856314
12.229546 51.236202 25.401951
12.224287 51.214848 24.910845
12.226926 51.203102 24.431101
12.266212 51.235344 23.98502
12.239411 51.188644 23.490652
12.24369 51.179264 23.025198
12.233206 51.152367 22.552832
12.283446 51.198135 22.129059
12.278415 51.177986 21.668314
12.281989 51.168232 21.21756
12.312005 51.190132 20.78834
12.303777 51.166512 20.336477
12.310335 51.160633 19.897934
12.308062 51.144333 19.457035
12.332801 51.160305 19.036072
12.342865 51.158882 18.608763
12.332112 51.132774 18.172129
12.318507 51.103378 17.737219
12.356668 51.135632 17.33415
12.368024 51.136078 16.918369
12.370665 51.126247 16.500437
12.364545 51.106091 16.080635
12.386485 51.119328 15.677317
12.381313 51.100449 15.262926
12.379725 51.085903 14.852719
12.387982 51.083099 14.449243
12.399982 51.084793 14.049352
12.415786 51.091049 13.652832
12.404222 51.064941 13.246924
12.421458 51.073002 12.854486
12.398703 51.033779 12.448559
12.43005 51.058636 12.064506
12.440245 51.058506 11.674045
12.448121 51.055679 11.284225
12.422037 51.012768 10.885088
12.473402 50.989983 8.2023115
12.460817 50.963379 7.8190794
12.471684 50.964443 7.4416933
12.480382 50.962971 7.0645995
12.474034 50.943813 6.6857281
12.497727 50.960033 6.3123689
11.95697 51.355812 38.629509
11.948873 51.325787 37.966724
12.077425 51.366264 34.405502
12.083439 51.337143 33.23753
12.087447 51.324146 32.666187
12.076619 51.293472 32.085873
12.092851 51.295681 31.542427
12.110308 51.299561 31.006653
12.107815 51.279591 30.456312
12.117242 51.274189 29.92482
12.111962 51.251266 29.384706
12.135165 51.262817 28.878893
12.154733 51.270153 28.374746
12.126837 51.220596 27.831097
12.127927 51.206074 27.3209
12.169652 51.240513 26.852869
12.191465 51.251175 26.37105
12.176324 51.21764 25.86162
12.191262 51.220345 25.383308
12.191566 51.205647 24.897207
12.211185 51.214237 24.431557
12.204787 51.191792 23.949133
12.246644 51.227253 23.508968
12.22799 51.190403 23.025654
12.211738 51.156578 22.548979
12.2445 51.181488 22.112598
12.233548 51.154255 21.64802
12.266332 51.17939 21.218018
12.255135 51.152096 20.76086
12.276317 51.16357 20.329113
12.235365 51.101013 19.86009
12.27458 51.13419 19.446243
12.275337 51.121593 19.010851
12.297261 51.134312 18.591286
12.316534 51.143951 18.172586
12.302951 51.114548 17.737677
12.316852 51.117954 17.321241
12.328135 51.118324 16.905792
12.330711 51.10841 16.488188
12.330655 51.095451 16.071812
12.340261 51.094048 15.662723
12.359652 51.104332 15.260458
12.382767 51.119091 14.861711
12.360116 51.079594 14.444181
12.384512 51.095993 14.049812
12.387868 51.08749 13.648108
12.40126 51.090942 13.252399
12.393503 51.069386 12.8501
12.377015 51.037552 12.44668
12.389485 51.040077 12.055952
12.405934 51.047356 11.668
12.426408 51.059429 11.282602
12.412991 51.03146 10.887547
12.42608 50.963448 8.1957932
12.445529 50.974606 7.819541
12.462824 50.983242 7.443378
12.452252 50.959053 7.0627885
12.445907 50.939884 6.6840906
12.482473 50.971272 6.3128309
12.458902 50.93187 5.9331999
11.887367 51.303547 38.557667
11.917814 51.320347 37.947056
11.924712 51.289211 36.682213
12.038121 51.332542 33.787128
12.029541 51.286247 32.619335
12.03413 51.274185 32.056808
12.029177 51.250824 31.491053
12.088652 51.305431 31.000685
12.070177 51.266163 30.433849
12.116958 51.305786 29.940792
12.106404 51.27647 29.395084
12.102588 51.255474 28.862614
12.105722 51.243034 28.343006
12.126972 51.252571 27.846184
12.122658 51.231514 27.330683
12.125668 51.21944 26.827482
12.130633 51.209877 26.331259
12.13207 51.196232 25.836992
12.129997 51.178532 25.34474
12.164002 51.204266 24.88744
12.160849 51.185555 24.403461
12.194252 51.210804 23.953304
12.190255 51.191349 23.477341
12.205999 51.195671 23.020895
12.201313 51.175655 22.552917
12.193417 51.151928 22.086851
12.217348 51.166401 21.64765
12.209103 51.142498 21.189152
12.256598 51.185329 20.772463
12.230587 51.140427 20.309189
12.231071 51.127289 19.86738
12.234598 51.117893 19.430876
12.265158 51.140839 19.014149
12.257113 51.117825 18.576567
12.2763 51.127373 18.158195
12.286812 51.126656 17.737309
12.288595 51.115627 17.31419
12.318085 51.137669 16.908682
12.314544 51.10754 16.071444
12.324155 51.106136 15.662354
12.325079 51.094471 15.251307
12.335793 51.094509 14.847122
12.362601 51.113728 14.452094
12.324974 51.056488 14.030711
12.365564 51.092178 13.645148
12.366466 51.080811 13.244509
12.352422 51.051781 12.840039
12.3547 51.042168 12.443974
12.360876 51.037231 12.051078
12.364704 51.029564 11.65896
12.359881 51.0117 11.265571
12.377995 51.021042 10.881186
12.422914 50.990555 8.1982203
12.435971 50.994167 7.8204851
12.427607 50.972527 7.4393439
12.429876 50.963467 7.0612874
12.449266 50.974617 6.6868749
12.440766 50.952904 6.3086152
12.46876 50.97422 5.9363389
11.889462 51.357388 39.24155
11.892762 51.320667 37.93314
12.031003 51.336632 33.212574
12.003767 51.285828 32.606659
12.034382 51.305241 32.072964
12.050541 51.307369 31.529661
12.057354 51.298409 30.982841
12.022833 51.239754 30.39966
12.074745 51.285633 29.912489
12.058654 51.249638 29.361771
12.054649 51.228428 28.829744
12.057594 51.215778 28.310581
12.073174 51.218521 27.809053
12.096174 51.230358 27.319468
12.104656 51.224869 26.821421
12.131845 51.242035 26.34498
12.127772 51.221756 25.845636
12.125755 51.204109 25.35323
12.159798 51.229912 24.895775
12.162375 51.218063 24.416262
12.161616 51.202351 23.938616
12.174732 51.203419 23.476282
12.167439 51.180141 23.002289
12.162649 51.160004 22.534624
12.183695 51.170937 22.090021
12.190138 51.164494 21.638288
12.19356 51.154545 21.188093
12.229267 51.183323 20.76342
12.220935 51.159527 20.31204
12.215511 51.139328 19.86632
12.236888 51.151249 19.441063
12.243605 51.145748 19.00942
12.229546 51.115543 18.568333
12.266728 51.146584 18.160639
12.259141 51.12429 17.729399
12.279054 51.134872 17.316469
12.284237 51.127975 16.897842
12.280684 51.110752 16.477228
12.29281 51.112282 16.067287
12.296262 51.103554 15.655272
12.297148 51.091846 15.244391
12.320159 51.106525 14.846061
12.309829 51.081615 14.434472
12.309342 51.068485 14.02965
12.33747 51.089413 13.638902
12.325867 51.063198 13.233418
12.32427 51.048931 12.834132
12.339047 51.054157 12.442913
12.338939 51.041771 12.047764
12.349043 51.041546 11.657899
12.344221 51.023674 11.264509
12.343364 51.010555 10.874133
12.388019 50.979839 8.1929712
12.401042 50.983429 7.815495
12.399068 50.96933 7.4358368
12.414164 50.975414 7.0602255
12.427112 50.978977 6.684763
12.43148 50.972439 6.308516
12.38215 50.902596 5.9256444
11.852322 51.339417 39.207054
12.007218 51.335358 33.199123
11.990273 51.297012 32.604969
12.005483 51.280464 31.493971
12.043777 51.309605 30.98115
12.009252 51.250931 30.39797
12.06647 51.303284 29.916243
12.018119 51.228355 29.333202
12.057232 51.259186 28.843956
12.049365 51.233513 28.314117
12.059477 51.229698 27.80736
12.076947 51.234913 27.312696
12.074312 51.216068 26.804718
12.05689 51.1796 26.289091
12.097209 51.212765 25.829388
12.106328 51.20853 25.34676
12.100781 51.186813 24.856501
12.131494 51.208801 24.400705
12.130636 51.192997 23.92329
12.126466 51.173355 23.447796
12.17079 51.212029 23.01375
12.160283 51.185036 22.541542
12.146522 51.154282 22.071407
12.147016 51.140743 21.615843
12.167862 51.151699 21.178253
12.185853 51.159325 20.741768
12.201 51.163647 20.306429
12.189615 51.136326 19.856962
12.216869 51.155319 19.435614
12.217575 51.142658 19.000383
12.215447 51.126713 18.566631
12.240571 51.143406 18.151926
12.226897 51.113857 17.717428
12.228559 51.102711 17.29472
12.257905 51.124664 16.889622
12.260393 51.114658 16.472349
12.260255 51.101601 16.056305
12.24524 51.070904 15.635507
12.264451 51.081051 15.233907
12.287385 51.09568 14.835826
12.295547 51.092785 14.432768
12.282644 51.064903 14.022594
12.279627 51.048847 13.619057
12.311535 51.074364 13.231712
12.32242 51.07494 12.837273
12.29963 51.035576 12.431856
12.312004 51.038029 12.041552
12.328354 51.045246 11.654025
12.329811 51.034836 11.262804
12.341575 51.036694 10.876421
12.367085 50.983429 8.189868
12.373677 50.979446 7.8111687
12.378085 50.972904 7.4329057
12.373896 50.956234 7.0539737
12.386795 50.959778 6.6788573
12.403987 50.968403 6.3048816
12.406173 50.959332 5.9291887
11.843177 51.357574 39.21143
11.825595 51.31567 38.52676
11.99677 51.334358 32.626011
11.964873 51.278145 32.023178
11.964968 51.260918 31.463449
11.987216 51.27071 30.934204
12.016192 51.288818 30.41786
12.004 51.257343 29.865013
12.009141 51.247021 29.336384
12.015796 51.238712 28.815256
12.02408 51.232548 28.301468
12.050518 51.248451 27.810318
12.045992 51.227169 27.295267
12.08749 51.261524 26.827532
12.04797 51.198414 26.291824
12.082693 51.224892 25.82719
12.074942 51.200375 25.330242
12.103163 51.219284 24.868395
12.077209 51.17318 24.366169
12.093243 51.177704 23.902924
12.094676 51.16481 23.432205
12.110126 51.168877 22.976461
12.122513 51.169384 22.522114
12.114442 51.145462 22.056524
12.132328 51.152798 21.613644
12.159001 51.170761 21.180124
12.159364 51.157295 20.731588
12.144944 51.126236 20.276861
12.174846 51.148357 19.854761
12.172345 51.131783 19.414669
12.166956 51.111858 18.976177
12.20661 51.145885 18.568018
12.219707 51.148235 18.146219
12.19394 51.10424 17.704958
12.237888 51.143608 17.305882
12.224783 51.114918 16.877644
12.221107 51.097572 16.457443
12.233098 51.099003 16.047916
12.242554 51.097477 15.639325
12.23719 51.078358 15.225852
12.235407 51.06358 14.816566
12.286717 51.112099 14.433323
12.267626 51.076839 14.020391
12.27081 51.068169 13.619445
12.284014 51.071476 13.224495
12.263625 51.034893 12.818113
12.297067 51.062363 12.434328
12.284354 51.035027 12.034843
12.300653 51.042213 11.647486
12.283167 51.009327 11.250189
12.307474 51.026104 10.868226
12.351822 50.995274 8.1876631
12.345599 50.976139 7.8063464
12.36279 50.984737 7.4307003
12.345757 50.952881 7.0494986
12.365046 50.964001 6.6756034
12.356488 50.94223 6.2978668
12.377937 50.955933 5.9252329
11.802872 51.339916 39.178848
11.82974 51.331989 37.903782
11.815904 51.295242 37.244892
11.943049 51.336258 33.740768
11.940776 51.31543 33.156006
11.959144 51.302273 32.034889
11.943591 51.266048 31.458019
11.949984 51.256634 30.912066
11.984148 51.281033 30.401533
11.966544 51.242973 29.843456
11.993078 51.258499 29.33662
11.983534 51.230587 28.799589
12.002616 51.237453 28.296478
12.007162 51.226929 27.784794
12.024498 51.232006 27.290428
12.016224 51.206348 26.77775
12.026459 51.203175 26.287136
12.05557 51.2229 25.81773
12.07024 51.225353 25.340029
12.075957 51.217167 24.859241
12.066988 51.191448 24.371029
12.08306 51.196003 23.907707
12.084539 51.183132 23.436911
12.088531 51.173416 22.972317
12.100904 51.173893 22.518047
12.11023 51.170822 22.065222
12.110703 51.157242 21.609737
12.11396 51.147125 21.160017
12.125968 51.147606 20.71986
12.140985 51.151798 20.284922
12.135419 51.131424 19.839687
12.150674 51.136093 19.411163
12.169142 51.144695 18.987423
12.166954 51.128666 18.553917
12.185985 51.138111 18.13595
12.178272 51.115658 17.705202
12.185924 51.111664 17.286083
12.184861 51.09734 16.864857
12.205477 51.108986 16.457689
12.205266 51.095837 16.041977
12.220822 51.101578 15.63656
12.227748 51.097088 15.229024
12.238322 51.097015 14.825339
12.227893 51.071972 14.414255
12.227296 51.058723 14.009937
12.242853 51.064774 13.61451
12.256036 51.06805 13.219728
12.260611 51.061134 12.823204
12.256542 51.043991 12.425226
12.256337 51.031502 12.030586
12.260048 51.02372 11.639064
12.267725 51.020702 11.250437
12.298347 51.044983 10.870471
12.330087 50.999073 8.1865177
12.336666 50.995075 7.8079052
12.341063 50.988518 7.429729
12.349697 50.987 7.0531545
12.343334 50.967762 6.6748056
12.341217 50.953579 6.2981172
12.330504 50.929256 5.9211092
11.799131 51.344494 38.532791
11.912807 51.329044 33.722225
11.907772 51.269409 31.994034
11.944431 51.296482 31.474325
11.94565 51.280777 30.92256
11.969254 51.292393 30.400843
11.946327 51.247856 29.837317
11.972823 51.263348 29.330555
11.96326 51.23539 28.793598
11.982309 51.242218 28.290562
12.003223 51.251457 27.794407
11.987651 51.216789 27.269428
12.001367 51.217659 26.777061
11.983836 51.180984 26.261814
12.018378 51.207283 25.79764
12.032935 51.209614 25.320244
12.038545 51.201298 24.839764
12.046474 51.195919 24.365719
12.056826 51.193588 23.897932
12.052538 51.173771 23.422829
12.056455 51.16396 22.958469
12.074523 51.171291 22.508743
12.072207 51.154232 22.047619
12.084229 51.154522 21.60075
12.110828 51.172417 21.167467
12.099403 51.144772 20.711193
12.12616 51.163052 20.284233
12.108769 51.128479 19.831341
12.094281 51.097507 19.384235
12.142398 51.141655 18.979399
12.134192 51.118404 18.542469
12.171168 51.149345 18.135262
12.151416 51.112461 17.697668
12.152983 51.101189 17.275372
12.170063 51.108551 16.864168
12.160251 51.083839 16.441122
12.178263 51.092457 16.035103
12.199903 51.105473 15.632863
12.182251 51.07164 15.213704
12.18658 51.064125 14.807594
12.206935 51.075794 14.410809
12.212519 51.069904 14.00925
12.228074 51.075954 13.613822
12.216362 51.049568 13.209014
12.227118 51.050018 12.815251
12.25428 51.070045 12.429214
12.235306 51.035198 12.027647
12.232726 51.019928 11.634043
12.265557 51.046825 11.253914
12.277273 51.048641 10.867787
12.289808 50.979919 8.1802521
12.309139 50.991039 7.8046021
12.319924 50.992046 7.4278212
12.315733 50.975338 7.0490627
12.322189 50.971268 6.6730714
12.326495 50.964672 6.2974319
12.309362 50.932735 5.9195495
11.76087 51.347584 39.15427
11.768574 51.296421 37.214554
11.885179 51.288982 32.545834
11.878925 51.263798 31.972618
11.899713 51.271664 31.436125
11.932343 51.294083 30.91835
11.908151 51.247787 30.346947
11.932954 51.261093 29.833109
11.932558 51.244049 29.299475
11.97682 51.281254 28.815891
11.941668 51.222515 28.260221
11.956927 51.22496 27.759287
11.974104 51.229881 27.265221
11.97674 51.217388 26.76285
11.975781 51.200714 26.262535
12.004728 51.220299 25.793428
11.979994 51.175247 25.282623
11.996648 51.180283 24.812073
12.044051 51.222507 24.370745
12.033012 51.179768 23.414154
12.025387 51.156075 22.941105
12.060649 51.18412 22.504532
12.035131 51.13916 22.026499
12.04702 51.13932 21.579945
12.073482 51.157097 21.146978
12.091276 51.164551 20.71097
12.070891 51.126259 20.252657
12.11246 51.162449 19.838614
12.098021 51.131516 19.39127
12.134238 51.161438 18.978851
12.132011 51.145348 18.545427
12.132978 51.133183 18.117029
12.137216 51.125023 17.693455
12.150843 51.128193 17.277838
12.137616 51.099304 16.850182
12.133807 51.081776 16.430561
12.157848 51.097633 16.027796
12.161077 51.088669 15.616611
12.155612 51.069393 15.20364
12.166035 51.069172 14.800539
12.204855 51.102913 14.412109
12.204257 51.089645 14.007709
12.188772 51.058685 13.599245
12.201861 51.061878 13.2048
12.212589 51.062305 12.811035
12.195961 51.030186 12.40864
12.233255 51.062366 12.027935
12.236959 51.054573 11.636328
12.238332 51.044052 11.245534
12.231079 51.023319 10.853591
12.294113 51.01466 8.1802187
12.313438 51.025787 7.804307
12.294409 50.979706 7.0437117
12.320073 50.998413 6.670949
12.298686 50.96138 6.2912936
12.313662 50.967457 5.9179573
11.738192 51.349541 39.137218
11.735816 51.286045 37.185184
11.896697 51.314922 32.003101
11.865272 51.259357 31.409534
11.918818 51.307201 30.914415
11.873403 51.235115 30.320938
11.935395 51.293545 29.845516
11.929707 51.270061 29.306288
11.930803 51.254997 28.780157
11.922608 51.22887 28.251064
11.932352 51.224648 27.745052
11.960421 51.242752 27.261286
11.93544 51.196857 26.733913
11.984253 51.240337 26.278301
11.974243 51.212868 25.77495
11.977443 51.201511 25.288237
11.988494 51.199783 24.812836
11.990599 51.187397 24.334482
12.012135 51.198582 23.876163
12.013439 51.185497 23.40576
12.005774 51.161739 22.932789
12.006378 51.148079 22.470457
12.027009 51.158649 22.026794
12.033085 51.15181 21.576014
12.036155 51.141468 21.126772
12.053828 51.148796 20.691082
12.06867 51.152813 20.256542
12.06296 51.13224 19.811712
12.066176 51.122494 19.376097
12.07847 51.123741 18.949253
12.088032 51.121799 18.523569
12.11287 51.138264 18.109592
12.11105 51.122841 17.682678
12.106494 51.104233 17.257208
12.123457 51.111488 16.846249
12.131792 51.108486 16.432978
12.131453 51.095173 16.017681
12.14686 51.100777 15.612678
12.135247 51.074131 15.196784
12.127175 51.051804 14.785243
12.147387 51.063351 14.388871
12.159028 51.064709 13.990406
12.168262 51.063251 13.592724
12.181315 51.066406 13.198361
12.167076 51.037048 12.795001
12.194099 51.056976 12.409381
12.200081 51.051849 12.017248
12.191175 51.02903 11.621566
12.205045 51.033401 11.235359
12.204043 51.020103 10.845669
12.29901 51.014038 7.04318
12.305439 51.009937 6.6670146
12.3033 50.995697 6.2902422
11.726516 51.324589 37.827545
11.833976 51.303986 33.085255
11.851514 51.289864 31.965557
11.851306 51.272213 31.406406
11.85213 51.256035 30.855368
11.864711 51.254341 30.32333
11.862698 51.235126 29.782476
11.89957 51.26329 29.287041
11.911354 51.261177 28.771729
11.897694 51.228401 28.237488
11.907361 51.224083 27.731625
11.913397 51.21553 27.227707
11.92134 51.20945 26.730787
11.964573 51.246216 26.270247
11.926656 51.184978 25.742733
11.968893 51.220806 25.289881
11.963065 51.198677 24.80032
11.97642 51.199867 24.331356
11.963825 51.169865 23.845797
11.976383 51.170357 23.384783
11.98582 51.16721 22.92528
11.980625 51.146545 22.458721
12.001185 51.157043 22.015215
12.007199 51.150124 21.564592
12.016047 51.146732 21.119579
12.027817 51.146957 20.679979
12.042595 51.150906 20.2456
12.04274 51.137356 19.80476
12.039991 51.120434 19.365479
12.076038 51.150215 18.953457
12.055756 51.112427 18.509691
12.074513 51.121613 18.092455
12.078618 51.113293 17.669291
12.067957 51.087353 17.24073
12.07271 51.079987 16.823586
12.105222 51.105961 16.423504
12.09874 51.085281 16.005283
12.114076 51.090809 15.600529
12.120801 51.086094 15.193659
12.137321 51.093163 14.793481
12.139083 51.082642 14.388503
12.138361 51.069218 13.984608
12.141367 51.060314 13.58442
12.141944 51.048569 13.185219
12.152562 51.048874 12.791877
12.148342 51.031521 12.39458
12.179276 51.056171 12.011872
12.182898 51.048271 11.620606
12.165336 51.015167 11.223916
12.183171 51.024315 10.84055
12.252131 51.022713 8.170372
11.789382 51.226841 31.354044
11.837307 51.267948 30.853975
11.839287 51.253368 30.3109
11.874526 51.279392 29.808313
11.841835 51.223091 29.242668
11.880331 51.253418 28.754438
11.882859 51.240253 28.236095
11.870707 51.209473 27.709635
11.882107 51.20742 27.21109
11.900988 51.214588 26.724398
11.927543 51.231194 26.249159
11.906247 51.190025 25.736496
11.937238 51.21228 25.274176
11.931331 51.190041 24.784845
11.938944 51.184299 24.311495
11.943296 51.174747 23.839867
11.96724 51.188988 23.387854
11.970966 51.178936 22.923887
11.983058 51.179104 22.470245
11.957399 51.133869 21.992695
11.98072 51.147812 21.554909
11.989516 51.144356 21.110054
11.983658 51.12336 20.658653
12.015961 51.148415 20.236393
12.004251 51.12059 19.788061
12.025127 51.132072 19.364088
12.037358 51.133244 18.937407
12.065632 51.140427 18.094566
12.051715 51.110455 17.66106
12.059123 51.106182 17.242678
12.076003 51.11335 16.831963
12.078192 51.10297 16.415768
12.083861 51.096844 16.003893
12.08697 51.087719 15.593124
12.081401 51.068275 15.180574
12.097844 51.075268 14.78073
12.099539 51.064663 14.376087
12.111114 51.065945 13.977874
12.120283 51.064407 13.580443
12.127058 51.060062 13.183829
12.118992 51.038036 12.78323
12.120973 51.02808 12.388522
12.139354 51.037762 12.001484
12.149189 51.037281 11.612723
12.150446 51.026611 11.222528
12.17457 51.043262 10.841156
12.224469 51.018936 8.1661987
12.17939 50.883263 5.5236764
11.675929 51.360859 39.107422
11.771525 51.26746 32.474468
11.796074 51.27977 31.936453
11.827094 51.300148 31.411642
11.801642 51.251984 30.832573
11.808795 51.243717 30.295307
11.843927 51.269665 29.79294
11.837961 51.245831 29.254375
11.844164 51.236973 28.734207
11.873681 51.256599 28.242283
11.867023 51.232479 27.720896
11.86752 51.21722 27.212051
11.869864 51.204369 26.71036
11.885244 51.207481 26.2255
11.886098 51.193138 25.732607
11.90026 51.195065 25.25605
11.916751 51.199944 24.785805
11.935671 51.20789 24.32169
11.923042 51.177822 23.836287
11.941249 51.185162 23.37989
11.92773 51.154301 22.902929
11.928177 51.14045 22.441071
11.931275 51.129917 21.985201
11.971964 51.164848 21.560015
11.957458 51.133312 21.09881
11.992528 51.161652 20.67556
11.983758 51.137257 20.225632
11.995601 51.137798 19.792847
11.98687 51.11367 19.350063
12.010905 51.129078 18.931034
12.002458 51.105495 18.494925
12.01513 51.107407 18.074511
12.019134 51.09898 17.651756
12.026483 51.094658 17.233622
12.031199 51.087254 16.816641
12.039365 51.084072 16.404032
12.044961 51.077881 15.992489
12.054108 51.076023 15.585059
12.066869 51.078564 15.18153
12.064879 51.063492 14.773165
12.072688 51.060226 14.37153
12.096582 51.076286 13.978829
12.074788 51.037704 13.568456
12.100112 51.05558 13.179777
12.0858 51.026093 12.776925
12.112695 51.04594 12.391811
12.112329 51.033237 11.997939
12.109604 51.017776 11.605019
12.123371 51.022064 11.219323
12.128586 51.016182 10.83214
12.190851 51.006771 8.1629753
12.216439 51.025417 7.7889714
12.220749 51.018757 7.4112287
11.635262 51.296745 37.762295
11.766372 51.342293 34.224937
11.762976 51.284088 32.479713
11.75635 51.258465 31.907213
11.761021 51.246838 31.354443
11.756269 51.223946 30.79846
11.789663 51.247711 30.289223
11.830046 51.280136 29.792374
11.802629 51.230263 29.232319
11.797901 51.208191 28.701847
11.838032 51.240814 28.220816
11.820332 51.203342 27.689426
11.84254 51.214504 27.201332
11.861324 51.221661 26.714788
11.854551 51.197968 26.210157
11.866426 51.197048 25.727188
11.869339 51.18541 25.241165
11.87447 51.176609 24.761759
11.893221 51.184429 24.298029
11.908823 51.188568 23.835711
11.915591 51.18214 23.370392
11.913462 51.165089 22.902355
11.908131 51.144299 22.43619
11.92274 51.147724 21.98885
11.911166 51.119648 21.526262
11.948914 51.151218 21.102299
11.937143 51.123138 20.64707
11.934067 51.105663 20.201607
11.969343 51.134518 19.784613
11.990161 51.146027 19.36072
11.984508 51.125744 18.923122
11.981966 51.10931 18.490757
12.000576 51.118423 18.073929
11.986533 51.088341 17.640911
12.011881 51.105717 17.233036
12.010526 51.091064 16.812801
12.012581 51.080593 16.397099
12.036375 51.096306 15.994992
12.033305 51.07983 15.581465
12.046022 51.082375 15.178019
12.031715 51.052574 14.764056
12.051763 51.064037 14.368184
12.057087 51.057911 13.967549
12.066169 51.056347 13.570455
12.060449 51.037109 13.16917
12.064726 51.029907 12.773915
12.079103 51.034847 12.384215
12.072423 51.014641 11.988347
12.088416 51.021606 11.602262
12.089591 51.010902 11.212491
12.101034 51.012512 10.827558
12.169348 51.010681 8.160985
12.175773 51.006565 7.7831492
12.194899 51.005882 7.0310884
11.617269 51.341747 39.057781
11.747633 51.310032 33.045818
11.735032 51.276905 32.459114
11.743849 51.270161 31.904032
11.758932 51.271267 31.362587
11.780505 51.280483 30.834415
11.766456 51.246483 30.275002
11.790752 51.259399 29.761959
11.779217 51.228874 29.21839
11.801323 51.239475 28.714558
11.78733 51.206348 28.181061
11.796624 51.201717 27.675943
11.818729 51.212811 27.187996
11.826401 51.206524 26.691605
11.847158 51.216274 26.211893
11.85346 51.20863 25.723999
11.850747 51.190201 25.233206
11.855815 51.181358 24.753878
11.868851 51.182304 24.285606
11.861664 51.158897 23.805286
11.87394 51.159187 23.344894
11.877376 51.148907 22.881632
11.912182 51.176682 22.445911
11.886386 51.131302 21.968758
11.892096 51.12413 21.518927
11.906465 51.127533 21.078773
11.941355 51.155804 20.655838
11.944196 51.145481 20.214043
11.950033 51.138878 19.777592
11.941192 51.114677 19.335051
11.941321 51.101398 18.901606
11.938643 51.084835 18.469648
11.96908 51.108246 18.060226
11.954953 51.078079 17.627459
11.998277 51.117138 17.229839
11.984804 51.087933 16.803095
11.986791 51.077412 16.387558
12.004426 51.085773 15.982525
12.025682 51.098549 15.581273
12.020024 51.079063 15.168973
12.030211 51.078674 14.766538
12.031794 51.06802 14.362229
12.030902 51.054466 13.959006
12.046107 51.06028 13.564667
12.034144 51.033581 13.160964
12.050798 51.041237 12.770716
12.046444 51.023781 12.374013
12.064687 51.033432 11.987397
12.068138 51.025425 11.596896
12.069274 51.014694 11.207211
12.080673 51.016289 10.822363
12.110526 50.968819 8.148037
12.142344 50.995022 7.7760267
12.140167 50.980717 7.3976707
12.174137 51.00951 7.0267477
12.180445 51.005352 6.6512752
12.171807 50.983425 6.27424
11.589962 51.337639 39.034248
11.590636 51.318039 38.377155
11.708921 51.365364 35.379795
11.704535 51.341232 34.770313
11.721817 51.28986 32.455261
11.725427 51.276733 31.894447
11.735235 51.271389 31.34741
11.730439 51.248432 30.79143
11.74789 51.252819 30.265635
11.740209 51.226761 29.719995
11.771264 51.248093 29.219912
11.761081 51.219372 28.684219
11.773998 51.218964 28.177212
11.772389 51.20105 27.661798
11.799889 51.2187 27.179071
11.802012 51.205658 26.677757
11.817159 51.208591 26.193275
11.8178 51.194061 25.700764
11.820554 51.182247 25.215048
11.847997 51.200527 24.754723
11.832819 51.167255 24.263294
11.86522 51.191792 23.815054
11.843369 51.150726 23.327667
11.846717 51.14032 22.864639
11.86417 51.147114 22.416241
11.867101 51.136448 21.960688
11.872773 51.129215 21.510937
11.881277 51.125523 21.066795
11.904399 51.139591 20.636045
11.901263 51.12204 20.190666
11.912868 51.122395 19.758442
11.933517 51.133751 19.334949
11.933659 51.120461 18.901424
11.930994 51.103882 18.469387
11.937502 51.098457 18.045879
11.941318 51.089874 17.623615
11.97859 51.121666 17.222654
11.946966 51.07058 16.786232
11.960991 51.074532 16.377371
11.97857 51.082829 15.972502
11.993672 51.088207 15.568409
11.994072 51.075977 15.159283
11.998076 51.068153 14.754176
12.00575 51.0648 14.352875
12.029489 51.080791 13.960505
12.013789 51.049507 13.553061
12.038976 51.067341 13.16463
12.012155 51.022858 12.757201
12.026424 51.027706 12.367838
12.01966 51.007397 11.972313
12.054321 51.036762 11.593054
12.055448 51.025997 11.20337
12.06055 51.020042 10.816528
12.071177 50.949516 8.1386356
12.102938 50.97567 7.7669678
12.107096 50.968906 7.3901768
12.109096 50.959599 7.013855
12.134508 50.978222 6.6422095
12.151428 50.986729 6.2694402
11.55479 51.288754 37.701759
11.669997 51.296455 33.56403
11.697466 51.311993 33.016361
11.684762 51.278599 32.429943
11.703832 51.28429 31.886616
11.68753 51.246967 31.311342
11.719346 51.268646 30.794926
11.726279 51.260124 30.258022
11.676059 51.182076 29.668905
11.728242 51.229149 29.190964
11.760982 51.252655 28.698021
11.741548 51.212757 28.159454
