# .PCD v0.7 - Point Cloud Data file format
VERSION 0.7
FIELDS x y z
SIZE 4 4 4
TYPE F F F
COUNT 1 1 1
WIDTH 1610
HEIGHT 1
VIEWPOINT 0 0 0 1 0 0 0
POINTS 1610
DATA ascii
9.1061258 53.189812 3.0447328
9.4966097 53.500008 9.8280106
9.519268 53.494297 9.6615667
9.5128059 53.486462 9.4855118
9.5121937 53.479092 9.3122272
9.5104351 53.471664 9.139287
9.0400829 53.200062 3.3788302
9.0435181 53.19347 3.2183976
9.0530958 53.187191 3.0567269
9.4446802 53.49765 9.8447189
9.453352 53.490906 9.6733217
9.4679136 53.484615 9.5044308
9.4603004 53.476727 9.328701
9.4585533 53.469299 9.1556759
9.4697723 53.46283 8.9872236
8.9882994 53.197556 3.3917818
8.9773817 53.190193 3.2331219
8.9797983 53.18354 3.0725629
9.3871527 53.49456 9.8518276
9.3748121 53.486263 9.6730862
9.3893099 53.47998 9.5044575
9.4027166 53.473633 9.3358183
9.4079924 53.466713 9.1649895
9.4121542 53.459732 8.9943466
9.4010677 53.451691 8.8198566
8.9085875 53.193253 3.4012146
8.9335299 53.18782 3.2381904
8.9215851 53.180397 3.0794811
8.9372749 53.174427 2.9165223
9.3146763 53.48978 9.8398886
9.3162355 53.482517 9.666213
9.3236561 53.475716 9.4952154
9.3299561 53.468857 9.324378
9.3351393 53.461937 9.1537142
9.3462629 53.455467 8.9853468
9.3351002 53.447426 8.8109474
8.8548679 53.189766 3.3937256
8.8582287 53.183178 3.2333848
8.8534021 53.17614 3.0738399
8.854722 53.169415 2.913162
8.8621645 53.162991 2.7511029
8.8542795 53.155758 2.591239
9.2665844 53.486324 9.8252783
9.2820482 53.480087 9.6563911
9.2753763 53.472244 9.480423
9.2815838 53.465374 9.3094912
9.2655478 53.456921 9.1321869
9.2694836 53.449944 8.9618769
8.802949 53.185966 3.3762667
8.8133726 53.179749 3.2148967
8.8012705 53.172318 3.0562067
8.8024817 53.165581 2.8954391
8.8026667 53.158779 2.7344794
8.7875414 53.151173 2.5759075
9.2194586 53.482918 9.8104372
9.2208414 53.475639 9.6365871
9.2210712 53.468304 9.4630537
9.2271814 53.46143 9.2921143
9.2392178 53.455002 9.1235237
9.2289972 53.446999 8.9486885
8.7308483 53.181072 3.3611517
8.7411919 53.174858 3.1999407
8.7361765 53.167809 3.0404058
8.7444601 53.161449 2.8786023
8.7445536 53.15464 2.7176411
9.1606636 53.47905 9.8009987
9.1690016 53.472282 9.62957
9.169199 53.464947 9.4559517
9.1612186 53.457043 9.2804127
9.166152 53.450108 9.1097298
9.1558609 53.442108 8.935071
8.6775503 53.177505 3.351146
8.6806774 53.170902 3.1907914
8.6756201 53.163849 3.0312586
8.6767054 53.157112 2.8705733
8.6767635 53.150303 2.709698
8.6757936 53.143429 2.5486453
9.0816555 53.473869 9.7887421
9.1038847 53.46814 9.6224079
9.0969896 53.460289 9.446538
9.0818882 53.451878 9.268919
9.0937614 53.445454 9.1006565
9.0833807 53.437454 8.9261723
8.6777315 53.183804 3.4996932
8.6100368 53.173367 3.3474422
8.6202774 53.167145 3.1862206
8.6080017 53.159714 3.0277297
8.6090355 53.152973 2.8671308
8.6233339 53.146908 2.703917
8.6080227 53.139294 2.5453768
9.0391111 53.471519 9.7924395
9.0192785 53.462685 9.6114101
9.0332842 53.456375 9.4428902
9.0321417 53.448982 9.2698622
9.0368996 53.442047 9.0993481
9.0193777 53.433537 8.9227848
8.6037674 53.179459 3.5000205
8.5360174 53.169022 3.34795
8.5533543 53.163189 3.1859493
8.5553236 53.156509 3.0254672
8.5562696 53.149765 2.8647828
8.5633335 53.143318 2.7026956
8.9721546 53.467335 9.7869024
8.9592533 53.459015 9.6083813
8.9521599 53.451168 9.4328547
8.9720097 53.445309 9.2668314
8.9978418 53.439888 9.1028137
8.9591379 53.429855 8.9197588
8.5275459 53.174904 3.4986658
8.5027933 53.166794 3.3415763
8.484231 53.159027 3.1839993
8.4861565 53.152351 3.0236042
8.4942112 53.145981 2.8618784
8.4940796 53.13916 2.7010052
8.9042311 53.462978 9.7786551
8.9123049 53.456207 9.6074734
8.9052286 53.448353 9.431778
8.9040079 53.44096 9.2588348
8.9086866 53.434021 9.0884037
8.9051991 53.426521 8.9160891
8.4519291 53.170273 3.494648
8.4200134 53.161785 3.3386128
8.4229498 53.155178 3.1784298
8.4248667 53.148502 3.0180328
8.4114609 53.141006 2.8596973
8.4184847 53.134571 2.697865
8.4244623 53.128056 2.5356836
8.8294125 53.458176 9.7693968
8.8374624 53.451408 9.598381
8.8373814 53.444073 9.4251871
8.8361549 53.436684 9.2523279
8.854907 53.430759 9.0862989
8.8232307 53.421242 8.9056015
8.3843136 53.166145 3.4912856
8.3452501 53.157276 3.33622
8.3553686 53.151058 3.1752486
8.3501444 53.144009 3.0159838
8.3582058 53.137642 2.854424
8.3652277 53.131203 2.692502
8.3569431 53.123955 2.5328448
8.7661686 53.454422 9.7688751
8.7602463 53.446629 9.59303
8.7741785 53.440323 9.4246626
8.772974 53.432934 9.2518044
8.7706289 53.425491 9.0792952
8.7600965 53.417496 8.9050779
8.3291187 53.162834 3.4899814
8.2829094 53.153576 3.3357046
8.293047 53.147358 3.174732
8.2806892 53.139935 3.0165145
8.3030701 53.134319 2.8527725
8.2886877 53.12677 2.6944251
8.7048798 53.450897 9.7710142
8.7199574 53.444649 9.6024132
8.7129183 53.436798 9.4268036
8.7047043 53.428902 9.2516994
8.7234716 53.422985 9.0857563
8.7059317 53.414478 8.9092913
8.2469177 53.158173 3.4944201
8.2150764 53.1497 3.3386514
8.2252321 53.14349 3.1777678
8.2200499 53.136444 3.0185888
8.2210054 53.129711 2.8582489
8.2352114 53.12365 2.695281
8.2269716 53.116409 2.5357091
8.2248402 53.10947 2.374754
8.6321173 53.446369 9.7654428
8.6401157 53.43961 9.5945969
8.6399879 53.432278 9.4215727
8.6457396 53.4254 9.2511292
8.6503782 53.418465 9.0808668
8.632762 53.409966 8.9045744
8.1790838 53.154182 3.4946899
8.1543694 53.146099 3.3381376
8.1644726 53.139885 3.1772542
8.1663923 53.133213 3.0170298
8.1530037 53.125729 2.8588707
8.1742992 53.120037 2.6947696
8.1660109 53.112793 2.5351989
8.5717163 53.442722 9.7633915
8.572649 53.43544 9.5901308
8.5724344 53.428108 9.4171925
8.5781002 53.42123 9.2468348
8.582654 53.414295 9.0766573
8.5649548 53.405788 8.9004536
8.1376667 53.151558 3.4903934
8.0842285 53.141918 3.3370831
8.0871124 53.135319 3.1772466
8.0889797 53.128654 3.0171967
8.0826836 53.121548 2.8580799
8.0967808 53.115486 2.6952839
8.0955706 53.108612 2.5345807
8.5180655 53.439747 9.7679186
8.5190048 53.432465 9.594574
8.5047836 53.424103 9.416893
8.5034065 53.416721 9.2443771
8.5149612 53.410297 9.0765305
8.4901981 53.401291 8.8983364
8.0696993 53.147667 3.4931934
8.0162687 53.138031 3.3399651
8.0191536 53.131439 3.1802168
8.0138731 53.124397 3.0213017
8.029007 53.11842 2.8589568
8.0288239 53.111614 2.6985173
8.0204926 53.104382 2.5392082
8.0253811 53.097805 2.3771222
8.4490786 53.435677 9.7678852
8.4570398 53.428913 9.5970402
8.4428692 53.420555 9.4193563
8.4555759 53.414192 9.2513304
8.4531355 53.406754 9.0789948
8.4425135 53.398758 8.9049482
7.9951067 53.143436 3.4971726
7.9632173 53.134964 3.3414936
7.9518309 53.127609 3.1835778
7.9751849 53.122086 3.0205631
7.9617815 53.114605 2.8624918
7.9687796 53.108177 2.7009189
7.9747372 53.101673 2.5389969
8.3799753 53.424152 9.5919399
8.3728161 53.416317 9.4167576
8.38554 53.409954 9.2488136
8.3690567 53.401508 9.0722427
8.351388 53.393021 8.8963785
7.9690976 53.141727 3.4929941
7.8799486 53.130154 3.3438716
7.8972216 53.124336 3.1823754
7.8848705 53.116924 3.0245066
7.8929429 53.11058 2.8633814
7.892849 53.10379 2.7031143
7.8988538 53.097298 2.541364
7.9038148 53.090729 2.379277
8.3210411 53.427853 9.7614212
8.3149862 53.420063 9.5858335
8.3217649 53.413246 9.4153919
8.3414669 53.407391 9.2496014
8.3319874 53.399441 9.0750237
8.3072596 53.390438 8.8968382
7.9020534 53.137657 3.4902389
7.8343444 53.127243 3.3386068
7.8300996 53.12027 3.1798196
7.8248506 53.113235 3.0209923
7.8185978 53.106144 2.8621368
7.832727 53.100094 2.6995974
7.8458014 53.093964 2.5365357
7.8364782 53.086666 2.377152
8.2676973 53.417294 9.5862932
8.2603655 53.409443 9.4111156
8.2659025 53.402565 9.2409258
8.2703314 53.39563 9.0709162
8.2243357 53.385113 8.8866119
7.8293548 53.133358 3.4900012
7.7830262 53.124104 3.3359261
7.7715173 53.116737 3.1780186
7.7733054 53.110077 3.018142
7.7740741 53.103344 2.8580647
7.7738218 53.096546 2.697799
7.7796655 53.090042 2.5360458
8.1617899 53.388943 9.0641556
8.0543108 53.331676 7.8611655
8.0568323 53.324852 7.6964769
8.0583019 53.31797 7.5319233
8.0658579 53.311512 7.3688183
8.072382 53.304993 7.2056999
8.0492725 53.296532 7.0380712
8.0608644 53.290371 6.8763533
8.0571156 53.283215 6.7125788
8.046504 53.268749 6.3856783
7.7679157 53.130081 3.4981959
7.7143755 53.120438 3.3449721
7.7099624 53.113453 3.1861868
7.711688 53.106789 3.0263135
7.7123952 53.100052 2.8662388
7.7049532 53.09288 2.7071955
7.7178612 53.086742 2.5442276
7.7083793 53.079441 2.3849306
7.7049885 53.072433 2.2241752
7.9778147 53.313557 7.5397592
7.9781728 53.306629 7.3756156
7.9774857 53.299644 7.2116313
7.9757552 53.29261 7.0478201
7.9801402 53.285984 6.8852415
7.9691739 53.278378 6.720767
7.9929953 53.273018 6.5610442
7.9799623 53.265301 6.3969178
7.9730644 53.257996 6.2339015
7.6864166 53.125874 3.5123899
7.6328626 53.116238 3.359386
7.6427288 53.110027 3.1989505
7.6301408 53.102612 3.0412514
7.6379666 53.09626 2.880312
7.6447573 53.089832 2.7190094
7.6505084 53.083328 2.5573561
7.6338911 53.075665 2.3995283
7.6375813 53.069023 2.2374718
7.9200068 53.303646 7.3862138
7.9122138 53.296192 7.2210054
7.9176631 53.289631 7.0584197
7.9220853 53.283009 6.8958454
7.932641 53.276791 6.7342606
7.9350138 53.27005 6.57166
7.9291897 53.262791 6.4083171
7.9223323 53.255482 6.2452097
7.6649156 53.124882 3.5189307
7.5827432 53.113686 3.3689058
7.5926399 53.107475 3.2083924
7.5872221 53.10043 3.0495622
7.5808005 53.093327 2.8907025
7.5947547 53.087269 2.7281961
7.5934157 53.080399 2.5677581
7.5910511 53.07346 2.4071543
7.5876594 53.066456 2.2463982
7.8442321 53.299183 7.3863435
7.8579412 53.293159 7.2249846
7.8563366 53.286133 7.061172
7.8536906 53.279049 6.8975439
7.8571677 53.272377 6.7350793
7.8524518 53.265182 6.5717721
7.8610449 53.258854 6.4102731
7.5840101 53.120323 3.5239458
7.5190854 53.103329 3.2129679
7.5280538 53.097054 3.0522387
7.5217175 53.089954 2.8933766
7.5215049 53.083164 2.7332885
7.5416284 53.077404 2.5691361
7.546452 53.070827 2.407063
7.5360274 53.063461 2.2476001
7.7848978 53.295258 7.3763132
7.7843556 53.288292 7.2124991
7.7899208 53.281742 7.0499916
7.7801471 53.274197 6.8854022
7.8051314 53.268921 6.7259874
7.807621 53.262188 6.563468
7.8019142 53.25494 6.4002118
7.80235 53.248093 6.2378912
7.5254726 53.116451 3.5140562
7.4648938 53.10643 3.3617406
7.4606113 53.099464 3.203125
7.4696126 53.093189 3.0423856
7.4633102 53.086094 2.8835258
7.4773874 53.080044 2.7210062
7.4761686 53.073181 2.5605645
7.466814 53.065887 2.4013457
7.4706535 53.05925 2.2392001
7.7407994 53.299206 7.5309825
7.7413168 53.292286 7.3668327
7.7479315 53.285786 7.2040572
7.746367 53.278755 7.0401554
7.7437601 53.271671 6.8764396
7.7401133 53.264534 6.712923
7.7425976 53.257805 6.5504856
7.7512279 53.251472 6.3888788
7.7444906 53.244167 6.2257757
7.5033927 53.114479 3.4982221
7.4069963 53.102516 3.3498998
7.4098625 53.095928 3.1903243
7.4117126 53.089275 3.030535
7.4125452 53.08255 2.870544
7.4194851 53.076126 2.7091429
7.4040251 53.068535 2.5513158
7.4231315 53.062691 2.3866994
7.4127474 53.055332 2.2273357
7.691999 53.303379 7.6975861
7.6936455 53.296516 7.5331144
7.6942425 53.289593 7.3687901
7.6937928 53.282616 7.204627
7.7065978 53.276527 7.0428901
7.6969171 53.26897 6.8778734
7.6861839 53.261364 6.7132297
7.7030706 53.255554 6.5524364
7.4506979 53.111313 3.4967849
7.3400326 53.098576 3.3501341
7.3358154 53.091618 3.191606
7.3520312 53.085728 3.0298913
7.3529258 53.079006 2.8698993
7.3456693 53.07185 2.7109399
7.3516498 53.065361 2.5493603
7.3565884 53.058796 2.3874443
7.6351943 53.307465 7.8731632
7.6522522 53.30162 7.7114253
7.6469126 53.294273 7.5453053
7.6476402 53.287354 7.3808079
7.6473193 53.280376 7.2164707
7.6531024 53.273819 7.0534377
7.66501 53.267662 6.8914614
7.6400914 53.259125 6.7245474
7.3710194 53.107101 3.5083776
7.2819428 53.095539 3.359304
7.2849889 53.088966 3.1998153
7.2870193 53.082325 3.040112
7.2880325 53.075615 2.8802066
7.2951565 53.069206 2.7188945
7.3012414 53.062721 2.5572319
7.2991705 53.055801 2.3966222
7.6006527 53.313244 8.057868
7.6259856 53.307945 7.8974247
7.5933709 53.298714 7.7247157
7.6023755 53.292328 7.5613852
7.6103454 53.285885 7.3980279
7.6172805 53.279377 7.2346559
7.6231823 53.272808 7.0712824
7.6208944 53.265713 6.9068689
7.3215871 53.104706 3.5206428
7.2325768 53.09314 3.3713994
7.2285509 53.086185 3.2127781
7.2378178 53.079929 3.0520399
7.2317715 53.072845 2.8931732
7.2247205 53.065704 2.7342896
7.2451601 53.059963 2.5702119
6.303638 53.272335 8.8985538
6.1669569 53.257072 8.7283974
5.8864536 53.239052 8.6935644
5.8362617 53.235573 8.6812706
5.8012843 53.233448 8.6797857
5.7225409 53.228653 8.6762705
5.6459289 53.224335 8.6810284
5.5976758 53.222012 8.693306
5.5238838 53.217548 8.6907196
5.4719377 53.214428 8.6893711
5.4138412 53.211079 8.691185
5.3546448 53.208057 8.7022858
5.2851462 53.204166 8.7072592
5.2255907 53.20039 8.7010288
5.1909256 53.197536 8.6819277
5.1545472 53.194534 8.6616745
5.1132102 53.191803 8.6547747
5.0850353 53.190563 8.6646862
5.0475035 53.188789 8.6750956
4.9842806 53.184788 8.6686916
4.6758976 53.086266 6.7710271
4.6860499 53.080032 6.6096706
4.6593242 53.071438 6.4438925
4.6961308 53.066917 6.2857981
4.68887 53.059589 6.1227965
4.6590261 53.050861 5.9582558
4.6712604 53.044781 5.7975593
4.6752963 53.038189 5.6361942
4.5432076 53.050186 6.1036839
4.5491967 53.043747 5.9431648
4.5613637 53.037685 5.7830663
4.5509562 53.030231 5.6214724
4.5539141 53.023605 5.4608283
4.5414767 53.016048 5.2996521
4.5639925 53.010597 5.1395674
4.56392 53.003784 4.9787335
4.4844651 53.046623 6.1013551
4.4832816 53.039734 5.9402442
4.4954581 53.033676 5.7802291
4.4922504 53.026669 5.6191387
4.4952202 53.020042 5.4584932
4.4971809 53.013355 5.2978005
4.4909377 53.006176 5.1369209
4.4980707 52.999798 4.9763274
4.482615 52.992085 4.8156109
4.4248786 53.036419 5.943316
4.4082913 53.028584 5.7812891
4.4122515 53.02203 5.6209645
4.4223962 53.01585 5.4609113
4.4315343 53.009605 5.3006377
4.4252777 53.00243 5.1398444
4.4252052 52.995628 4.9792724
4.4220319 52.981842 4.6581111
4.3737712 53.040348 6.1072941
4.3653336 53.033001 5.9455066
4.3774409 53.026939 5.7854996
4.366971 53.019485 5.6239939
4.3770609 53.013298 5.4637704
4.3645635 53.005737 5.3025947
4.3654423 52.998993 5.1420469
4.3725052 52.992615 4.9815464
4.3641715 52.985321 4.8208966
4.3302002 53.037701 6.1054769
4.3072891 53.029442 5.9423399
4.3120999 53.02293 5.7818289
4.3159013 53.016357 5.6212473
4.3258848 53.010159 5.4609361
4.3204741 53.003025 5.299921
4.3284392 52.996696 5.1393552
4.3210068 52.989445 4.9784584
4.3125648 52.982143 4.8177266
4.2729244 53.040783 6.2580686
4.279654 53.034374 6.0972962
4.270999 53.027004 5.9352593
4.2613225 53.019585 5.773489
4.2721987 53.013439 5.6132288
4.2892604 53.007668 5.4530606
4.2765412 53.00008 5.2915521
4.284389 52.993736 5.1308069
4.2768378 52.986473 4.9697423
4.2336898 53.038422 6.2569914
4.233223 53.031548 6.0952864
4.2389231 53.025066 5.9342432
4.2292323 53.017632 5.7721272
4.2257109 53.01059 5.6106982
4.2355595 53.004372 5.4500279
4.2372036 52.997646 5.2889042
4.1914825 53.050037 6.590167
4.1859684 53.042816 6.4272342
4.1794233 53.035542 6.2645288
4.1862135 53.029121 6.1034079
4.1848049 53.022186 5.941608
4.1751885 53.014751 5.7794008
4.1933122 53.009037 5.6191163
4.1888523 53.00193 5.4574533
4.1761842 52.994335 5.2956824
4.1426339 53.054504 6.763731
4.1382236 53.047333 6.600493
4.1471272 53.041031 6.4391708
4.1478372 53.034203 6.2769647
4.1618881 53.028225 6.1161771
4.1318178 53.019485 5.9515839
4.1510201 53.013832 5.7912941
4.147646 53.006775 5.6293387
4.0981202 53.059196 6.9365492
4.1019549 53.052536 6.7739625
4.0975924 53.045361 6.6104641
4.1137166 53.039505 6.4497385
4.1072965 53.032215 6.2864199
4.099844 53.024868 6.1233401
4.1057315 53.018375 5.9616966
4.0708632 53.071896 7.2745061
4.0768247 53.065342 7.1113844
4.0674362 53.057785 6.9460344
4.071321 53.051117 6.783102
4.0670056 53.043926 6.6192555
4.0688267 53.037144 6.4564772
4.0839777 53.031212 6.2952876
4.0765691 53.023853 6.1317711
4.0418115 53.09174 7.7837625
4.0367727 53.084385 7.6170969
4.0377994 53.077461 7.452117
4.0377736 53.070484 7.2872849
4.043849 53.063923 7.1238194
4.0417314 53.056828 6.9592361
4.0385685 53.049683 6.7948403
4.0486999 53.043411 6.632534
4.0434618 53.036152 6.4683766
4.0173168 53.105526 8.1435585
4.0217948 53.098763 7.9775281
4.0109739 53.090969 7.8084884
4.0133104 53.084095 7.6428576
4.0217242 53.077641 7.4787464
4.0148125 53.070175 7.3120098
4.021132 53.063606 7.1480322
4.0192561 53.056507 6.9829264
3.9971178 53.119778 8.5083151
3.9898336 53.112129 8.3377838
3.9885337 53.104923 8.1694126
4.0003605 53.098644 8.004611
3.9969068 53.091328 7.8366084
3.9923706 53.083961 7.6688967
4.0010242 53.077503 7.5042777
3.9626591 53.118519 8.526619
3.9696858 53.111855 8.3593988
3.9827359 53.105621 8.1939983
3.9805222 53.098347 8.0252037
3.9629872 53.090046 7.8535395
3.8762896 53.120781 8.700407
3.962249 53.119671 8.5544119
10.821999 53.461098 7.0623784
10.836308 53.445721 6.6792254
10.848429 53.430218 6.2961411
10.854177 53.529522 8.6338272
10.832783 53.511448 8.2367172
10.860167 53.496845 7.8535895
10.832431 53.56216 9.4351292
10.841193 53.546093 9.0433521
10.808614 53.611992 10.645391
10.811189 53.561687 9.4534826
10.783977 53.6619 11.858566
10.794302 53.645557 11.458207
10.802275 53.629101 11.058389
10.795329 53.611603 10.654734
10.811157 53.733974 13.523267
10.825068 53.717571 13.116437
10.824146 53.700096 12.704923
10.579181 53.562576 9.7977419
10.795257 53.75177 13.965777
10.799439 53.734505 13.552072
10.433147 53.55418 9.8028908
10.175872 53.538071 9.7807436
10.114532 53.534645 9.7853136
10.01696 53.528187 9.7687464
9.8984632 53.520489 9.7519579
9.8407793 53.517429 9.760026
9.7790794 53.513729 9.7586555
9.6539555 53.505421 9.7366781
9.5447445 53.498554 9.7266769
9.5226755 53.49799 9.7440205
9.4029751 53.490051 9.7232542
9.3619537 53.487869 9.7288895
9.2323685 53.479519 9.7122288
9.1762905 53.476486 9.7186451
8.9978371 53.465427 9.7060394
7.0975995 53.346272 9.5388556
5.375195 53.252399 9.7211342
5.2707086 53.245697 9.7083645
5.1359539 53.236713 9.683898
5.0928364 53.235104 9.7059135
4.9426246 53.225121 9.6793995
4.694953 53.208824 9.6395607
10.817142 53.440849 6.5908046
10.820913 53.507317 8.1556463
10.783674 53.47789 7.5124121
10.788748 53.451248 6.8759875
10.784582 53.560295 9.4577246
10.79844 53.616116 10.756978
11.197431 53.200085 0.3737497
11.203517 53.193169 0.20192941
11.20138 53.185856 0.03213083
11.198514 53.206161 0.51583374
11.212749 53.199615 0.3413201
11.20459 53.192028 0.17343612
11.189502 53.211731 0.65992731
11.315605 53.427105 5.5716944
11.312352 53.419949 5.4072227
11.278936 53.41098 5.2419381
11.18987 53.322826 3.2836661
11.2011 53.31649 3.1183584
11.204018 53.309689 2.9536414
11.205873 53.302818 2.788718
11.295689 53.433632 5.7536616
11.322647 53.428303 5.5902181
11.31947 53.421116 5.4248724
11.278861 53.411674 5.258441
11.117724 53.31921 3.2987101
11.136259 53.313271 3.132612
11.131988 53.306087 2.9688754
11.133904 53.299221 2.8040416
11.134757 53.292286 2.6390135
11.282395 53.433834 5.7769041
11.055197 53.316341 3.3181255
11.052095 53.309242 3.1546931
11.040708 53.301689 2.9921789
11.042756 53.294846 2.8276958
11.050971 53.288311 2.6618767
10.985297 53.312645 3.3282008
10.989517 53.305943 3.1639786
10.992682 53.299168 2.9995339
10.987556 53.291939 2.835928
10.981384 53.284649 2.6722982
10.9886 53.278042 2.5062134
10.965899 53.269878 2.3450181
10.963786 53.262768 2.1799984
11.227111 53.530937 8.1477108
11.225945 53.523624 7.9765825
11.223661 53.516258 7.805728
11.234654 53.509811 7.638104
11.251776 53.50378 7.4718218
11.267841 53.497681 7.3053365
10.913918 53.308411 3.3276081
10.925407 53.302105 3.1625955
10.928594 53.29533 2.9981501
10.916264 53.28772 2.8355944
10.917345 53.280811 2.6709156
10.851454 53.304653 3.3258495
10.855725 53.297955 3.1617122
10.844474 53.290417 2.9992812
10.861103 53.284348 2.8327832
10.811661 53.274796 2.6759815
10.657865 53.197159 1.0563581
11.080739 53.507908 7.8076367
11.077444 53.5005 7.6372409
11.073039 53.493042 7.4671469
11.089149 53.486969 7.3012691
11.082562 53.479397 7.1315594
11.089321 53.472717 6.9644465
10.606497 53.215393 1.5586423
10.599412 53.208038 1.3948249
10.605527 53.201298 1.2271042
10.603409 53.194141 1.0609667
10.600197 53.186909 0.89460188
10.60298 53.179928 0.72585714
10.611712 53.173191 0.55449086
10.619285 53.166359 0.38259879
11.010142 53.518536 8.1569757
11.016342 53.511734 7.9877515
11.014271 53.504387 7.8170662
11.011087 53.496986 7.646668
11.021188 53.490498 7.4793534
11.015809 53.482986 7.3093982
11.030964 53.476852 7.1434259
11.023406 53.469231 6.9738803
10.628438 53.265041 2.7009146
10.592069 53.24931 2.3799548
10.590349 53.242287 2.2164011
10.601943 53.235912 2.049747
10.598088 53.228745 1.8857374
10.58601 53.221153 1.7232542
10.587197 53.214199 1.5573651
10.587297 53.207172 1.3912083
10.593438 53.200409 1.2228913
10.591343 53.193226 1.0561538
10.60236 53.18663 0.88503599
10.954432 53.515469 8.1622229
10.953537 53.508179 7.9912634
10.958703 53.501324 7.8221421
10.977147 53.495384 7.6560931
10.958566 53.486954 7.4828649
10.974858 53.480885 7.3168263
10.975672 53.473793 7.1481581
10.656878 53.294029 3.3460088
10.625227 53.285404 3.186306
10.643192 53.279446 3.0205591
10.631185 53.271873 2.8584228
10.589282 53.262733 2.7009506
10.582457 53.255444 2.5382543
10.603399 53.249573 2.3703499
10.608847 53.242874 2.2045429
10.60603 53.235737 2.039891
10.60215 53.228531 1.8751047
10.898555 53.526581 8.5025234
10.899898 53.519398 8.3309717
10.900116 53.512157 8.159667
10.906381 53.505356 7.9902697
10.918723 53.498985 7.8225369
10.922809 53.492058 7.6532698
10.932994 53.485558 7.4855218
10.927705 53.478031 7.3151345
10.580537 53.289417 3.3433826
10.563356 53.281574 3.1821218
10.566844 53.274845 3.0182843
10.569281 53.268044 2.8542359
10.556232 53.260418 2.6922524
10.556572 53.253483 2.5279939
10.577454 53.247589 2.3596494
10.866313 53.539494 8.8524876
10.84858 53.530895 8.6740913
10.858158 53.524261 8.5040388
10.866633 53.517567 8.3340483
10.859704 53.509819 8.1606674
10.865957 53.503002 7.9910107
10.871116 53.496128 7.821455
10.875178 53.489197 7.6520143
10.517564 53.28553 3.3392901
10.493115 53.277298 3.1789086
10.511023 53.271339 3.0132358
10.498972 53.263771 2.8511944
10.507534 53.257278 2.6859
10.493407 53.249584 2.5239089
10.507045 53.243317 2.3568642
10.815559 53.544083 9.0316181
10.834511 53.538063 8.8629656
10.809687 53.528946 8.6822348
10.833527 53.523304 8.5157375
10.827751 53.515594 8.3416815
10.835129 53.508827 8.1715078
10.841406 53.501995 8.0014229
10.839413 53.494617 7.8298769
10.449244 53.281624 3.342211
10.43924 53.274174 3.1801682
10.428209 53.266666 3.018249
10.437808 53.260254 2.8533273
10.431917 53.253002 2.6903002
10.439393 53.246437 2.524822
10.445796 53.239796 2.3589985
10.782617 53.557693 9.399003
10.782654 53.550247 9.2230806
10.788607 53.543259 9.0496674
10.78632 53.535702 8.874362
10.782869 53.528095 8.6994295
10.79964 53.521935 8.5306072
10.801051 53.514713 8.3580294
10.794187 53.506939 8.1839581
10.793335 53.499607 8.0119677
10.372529 53.277462 3.3508334
10.355311 53.26963 3.1898284
10.365972 53.263294 3.0252969
10.375568 53.256878 2.8603802
10.36968 53.24963 2.6973503
10.377156 53.243065 2.5318761
10.383558 53.236423 2.366056
10.30127 53.273304 3.3518739
10.291255 53.265865 3.1900868
10.294655 53.25914 3.0265114
10.304221 53.252728 2.8616819
10.298306 53.24548 2.6987388
10.305751 53.238918 2.5333514
10.304931 53.231907 2.3689206
10.303051 53.224831 2.2043295
10.238913 53.269234 3.3425636
10.221568 53.261398 3.1816576
10.217649 53.254288 3.0191278
10.234328 53.248253 2.8534176
10.257132 53.242512 2.6860285
10.609014 53.554157 9.5572901
10.617042 53.547264 9.3832779
10.623926 53.54031 9.2094259
10.629666 53.533295 9.0357475
10.634268 53.526222 8.8622589
10.637731 53.519089 8.6889734
10.170035 53.264751 3.3326616
10.159834 53.257305 3.1709764
10.155823 53.250187 3.0084493
10.186825 53.244911 2.8406193
10.538928 53.549782 9.5516253
10.546916 53.542892 9.377696
10.546688 53.535427 9.2016897
10.552375 53.528416 9.0281801
10.564019 53.521854 8.8569279
10.581662 53.515728 8.6876888
10.091761 53.260067 3.3310869
10.088768 53.253017 3.1686964
10.084742 53.245903 3.0062568
10.10851 53.240246 2.8395612
10.462752 53.53783 9.3753805
10.483697 53.53191 9.2063475
10.475233 53.52388 9.0285311
10.486861 53.517326 8.8574543
10.49738 53.510704 8.686409
10.029372 53.25658 3.3356035
10.026394 53.249527 3.1732121
10.029593 53.242798 3.0098057
10.053361 53.237141 2.8430316
10.414613 53.535378 9.3845959
10.407318 53.527409 9.2064333
10.420067 53.520912 9.0352554
10.410428 53.512836 8.8578825
10.428023 53.506721 8.6889982
9.974452 53.253494 3.3392549
9.9642534 53.246052 3.1776531
9.9458208 53.238171 3.0171385
9.998415 53.234043 2.8464324
10.336621 53.537922 9.5533485
10.351604 53.531551 9.381918
10.330153 53.522552 9.1992769
10.342842 53.51606 9.0282669
10.36151 53.51001 8.8593473
10.364889 53.502888 8.6863194
9.8960686 53.248829 3.3382571
9.8786411 53.241005 3.1777093
9.8818274 53.234287 3.0145648
9.9271774 53.229778 2.8448999
10.26249 53.532894 9.5378504
10.263282 53.525494 9.3619385
10.277029 53.519062 9.1908274
10.26136 53.510529 9.0111237
10.279925 53.504482 8.8424435
10.297408 53.498367 8.6736279
9.812252 53.243549 3.330291
9.8236351 53.237286 3.1664824
9.8195505 53.230175 3.0042186
9.8576298 53.225281 2.8355758
10.209708 53.52206 9.3554335
10.209309 53.514599 9.1797676
10.22897 53.50861 9.0108843
10.212106 53.500023 8.8315516
10.222437 53.493404 8.6608343
9.7577057 53.239937 3.3209462
9.7474155 53.232502 3.1597078
9.75772 53.226166 2.9956698
9.7813597 53.220509 2.8291252
10.137693 53.525249 9.5310965
10.124395 53.516823 9.3505507
10.145169 53.510902 9.1818323
10.14364 53.503391 9.0065145
10.155124 53.496838 8.8356781
10.165501 53.490219 8.6648769
9.6804504 53.235531 3.3245592
9.6918344 53.229271 3.160831
9.6949615 53.222549 2.9976816
9.7114363 53.216515 2.832201
10.067549 53.521332 9.5363245
10.068387 53.513939 9.3604975
10.068055 53.506489 9.1850014
10.073631 53.499496 9.012002
10.07099 53.491936 8.8371286
10.088483 53.485832 8.6685677
9.6195517 53.232254 3.3319714
9.6165743 53.225224 3.1700168
9.6197681 53.21851 3.0070429
9.6507006 53.213249 2.8396297
10.008297 53.510448 9.3617792
10.000891 53.502487 9.1840487
10.006434 53.495495 9.0111351
10.017928 53.488949 8.840476
10.028318 53.482338 8.6698523
9.5516872 53.22834 3.3340442
9.5486975 53.22131 3.1721771
9.5446806 53.214218 3.0102606
9.5756025 53.208961 2.8430226
9.9411583 53.50618 9.3545151
9.9407368 53.49873 9.1791058
9.9532928 53.492241 9.0083361
9.943491 53.484173 8.8314028
9.9537983 53.477566 8.6609459
9.4866018 53.217445 3.1674304
9.4897308 53.210735 3.0045428
9.5133944 53.205093 2.8382657
9.8874226 53.510479 9.5309334
9.8740931 53.502056 9.3504744
9.8807077 53.495117 9.1773796
9.8861876 53.488121 9.0044632
9.8692846 53.479549 8.8255568
9.8937511 53.473949 8.6592188
9.4438858 53.221642 3.3260608
9.4336233 53.214214 3.1649098
9.4295425 53.207115 3.0029097
9.460391 53.201851 2.8355665
9.8175201 53.506699 9.5389843
9.8180313 53.491863 9.1878319
9.8236074 53.484871 9.0149183
9.8138895 53.47681 8.8380661
9.8384609 53.471218 8.6716595
9.3773422 53.218182 3.3370271
9.359972 53.210377 3.1768396
9.3631926 53.203674 3.0140405
9.3869486 53.19804 2.8478613
9.7545681 53.496159 9.3777103
9.7543316 53.48872 9.2023001
9.7599974 53.481731 9.0293922
9.7574511 53.474182 8.8546028
9.7679348 53.467587 8.6841612
9.3166981 53.215202 3.3510983
9.3138227 53.208176 3.189142
9.3099165 53.201088 3.0271361
9.2977886 53.193554 2.8661423
9.7013807 53.493652 9.3926153
9.7011642 53.48621 9.2171202
9.6997843 53.478714 9.0419703
9.7184811 53.472679 8.8734121
9.6935501 53.463562 8.6927633
9.2639561 53.212578 3.362565
9.2466726 53.204769 3.2022619
9.249979 53.198071 3.0393827
9.2450495 53.190918 2.877336
9.6496258 53.4986 9.5815897
9.6432066 53.483246 9.2278519
9.6417618 53.475746 9.052702
9.6603947 53.469711 8.8841572
9.6424904 53.46109 8.7054892
9.2182751 53.210258 3.371484
9.1721106 53.20089 3.2144594
9.1825638 53.194576 3.0508049
9.1775808 53.187428 2.8888423
9.5916615 53.488247 9.4178286
9.5983686 53.481308 9.2445097
9.60394 53.474304 9.0713634
9.5871401 53.465729 8.8921413
9.5620403 53.456604 8.7116289
9.1423788 53.206352 3.3848913
9.1065521 53.190674 3.0645342
9.1087027 53.18391 2.9017091
9.5409126 53.478634 9.2613926
9.5252266 53.4701 9.0817366
9.543726 53.464062 8.9132519
9.5256853 53.455433 8.7345772
9.0974035 53.204365 3.4006288
9.0542536 53.188282 3.0808752
9.0563431 53.181511 2.9179902
9.1292019 53.178432 2.7437756
9.4975758 53.477615 9.2977676
9.4748526 53.468575 9.1158009
9.4862881 53.462025 8.9452028
9.4611588 53.452896 8.7645569
9.0472565 53.202793 3.4333761
8.9897099 53.185936 3.1153972
8.991807 53.179173 2.9526589
9.4080667 53.466496 9.1597691
9.4053097 53.458931 8.9849758
9.4084911 53.45182 8.8125658
8.9941263 53.201473 3.4762013
8.9386091 53.177826 2.9950039
9.3511362 53.46225 9.1388388
9.3483047 53.454685 8.9640484
9.3301344 53.44606 8.7856255
8.9131689 53.19593 3.4581316
8.8698683 53.179848 3.1385484
8.8790646 53.173454 2.9746904
9.3056011 53.466019 9.2912788
9.2967787 53.457989 9.1138849
9.2938519 53.450417 8.9390965
9.2826786 53.442291 8.7626925
8.8340778 53.190338 3.4362266
8.8194113 53.175808 3.1133986
8.8141375 53.168644 2.9515278
9.2400141 53.461544 9.2769327
9.2381954 53.454021 9.1017847
9.235219 53.446445 8.9269981
9.2452774 53.439823 8.7565536
8.7519026 53.171371 3.1026289
8.7465897 53.164207 2.9408486
8.7546062 53.157734 2.7767658
8.7830782 53.152298 2.6086476
8.7746191 53.14492 2.4462252
8.7722807 53.137848 2.2824175
8.7760334 53.131069 2.1169789
9.1813917 53.458176 9.2790899
9.1724606 53.450146 9.1017866
9.1623449 53.442066 8.9250154
9.1936188 53.436954 8.7607012
8.6917877 53.167915 3.1047335
8.6936197 53.161129 2.9419024
8.7015877 53.154648 2.777735
8.6869831 53.146976 2.6168818
8.6928511 53.140354 2.4522698
8.7048044 53.134018 2.2859278
8.7085247 53.127239 2.1205769
8.6913691 53.112396 1.7939361
9.1216221 53.447674 9.1142464
9.1114426 53.439587 8.9373856
9.1000862 53.43145 8.7610683
8.6534443 53.179703 3.4366364
8.6186628 53.157223 2.954035
8.6265717 53.150745 2.7900503
8.6190815 53.143452 2.6281428
8.6248837 53.136826 2.4636247
8.6296186 53.130127 2.2987723
8.6404266 53.123711 2.132122
8.6216116 53.115791 1.971248
8.623147 53.108871 1.8056463
9.054903 53.444126 9.1234436
9.0659008 53.437557 8.9529066
9.054512 53.429413 8.776413
8.5570612 53.154057 2.9650993
8.5577402 53.147202 2.8022501
8.5502062 53.139908 2.6404264
8.5559635 53.133286 2.4760025
8.5606546 53.126587 2.3112438
8.5642757 53.119812 2.1461635
8.5668249 53.112961 1.980775
8.5611753 53.105686 1.8167356
9.0167036 53.442497 9.138176
9.0064812 53.434399 8.9611349
9.0021725 53.426758 8.7866373
8.4978743 53.144009 2.810246
8.4974966 53.137085 2.6472108
8.5103903 53.130829 2.4814105
8.5007505 53.123394 2.3192465
8.5043583 53.116619 2.15417
8.4997625 53.109413 1.9903389
8.5012321 53.102489 1.8247439
8.924983 53.429432 8.9572945
8.92066 53.421799 8.7830515
8.4384489 53.140602 2.8125739
8.4309244 53.133308 2.6507461
8.4366884 53.12669 2.4863279
8.4342365 53.119629 2.3229549
8.4307346 53.112499 2.1594317
8.4333115 53.105656 1.9942192
8.4419327 53.099091 1.8270715
8.8734713 53.433716 9.1302404
8.8703194 53.426132 8.9555397
8.8589211 53.417995 8.779211
8.4110994 53.166157 3.4543147
8.3697262 53.13644 2.8099532
8.3622141 53.12915 2.6482129
8.3608322 53.122166 2.4851749
8.3655519 53.115479 2.3205919
8.3692045 53.108711 2.1556869
8.3717852 53.101868 1.9904726
8.3804092 53.095303 1.8233219
8.8029375 53.421921 8.9499512
8.8057432 53.414795 8.7777071
8.3177185 53.133179 2.8053982
8.3030615 53.125515 2.644783
8.3088675 53.1189 2.4804466
8.3136082 53.112209 2.3157749
8.3030005 53.104725 2.1537218
8.3198805 53.098595 1.9854794
8.7504511 53.418919 8.9521093
8.7391367 53.410786 8.7757816
8.2455921 53.129021 2.8076806
8.2524996 53.122482 2.6436052
8.2583456 53.115868 2.4791818
8.2631254 53.109173 2.3144231
8.2525558 53.101688 2.1522825
8.6871672 53.42234 9.1211662
8.6911316 53.415272 8.9486322
8.6939688 53.408142 8.7763014
8.1851168 53.125313 2.8043268
8.1848269 53.118401 2.6414623
8.1906509 53.111786 2.477124
8.1954098 53.105099 2.3124509
8.1848183 53.09761 2.1503992
8.6193562 53.41069 8.9403849
8.6150141 53.403061 8.7662296
8.1252718 53.121616 2.8004134
8.1320887 53.115074 2.6363354
8.1306858 53.108086 2.4732108
8.1282349 53.101028 2.3099246
8.1318741 53.094261 2.145016
8.141572 53.087772 1.9782389
8.5672808 53.407722 8.9428768
8.5487833 53.399086 8.7646465
8.06674 53.118183 2.8008304
8.0664053 53.111267 2.6379671
8.0721855 53.104652 2.4736283
8.0697508 53.097595 2.3103421
8.0805464 53.09119 2.14396
8.0617323 53.083279 1.9833363
8.4931545 53.395943 8.7678947
8.0202188 53.108494 2.636755
8.0117235 53.101139 2.4748445
8.009347 53.094086 2.3115575
7.9987812 53.086605 2.1495957
8.0157042 53.080486 1.9814316
8.4385328 53.40007 8.9414492
8.4272022 53.391945 8.7652988
7.9478636 53.104305 2.6386197
7.9537244 53.097694 2.4742792
7.9442215 53.090279 2.3123806
7.9551086 53.083881 2.1460829
7.9435134 53.076336 1.9839857
8.3939657 53.404831 9.1159801
8.3837194 53.396744 8.9392881
8.3935738 53.390121 8.7691193
7.8825612 53.100418 2.6378109
7.8883452 53.093807 2.4735565
7.8930645 53.087116 2.3089678
7.889576 53.079994 2.1455338
8.3470144 53.395111 8.9518003
8.3355217 53.386963 8.7753963
7.8136168 53.096664 2.6451967
7.8193083 53.09005 2.4810338
7.8310847 53.083725 2.3151493
7.8274961 53.076591 2.1517162
8.2701998 53.383644 8.7879391
7.8172283 53.1315 3.4630475
7.753232 53.093704 2.6593671
7.7517085 53.08672 2.4965067
7.7491388 53.079666 2.333483
7.7455211 53.072544 2.1703091
8.2364721 53.389927 8.9833593
7.7729769 53.12944 3.4760315
7.6875339 53.090492 2.6750283
7.6931987 53.083881 2.5109694
7.6978006 53.077194 2.3465736
7.6941972 53.070068 2.1833122
7.7133193 53.126186 3.482302
7.627111 53.080299 2.5184834
7.6318464 53.073624 2.3541746
7.6426549 53.06723 2.1880856
7.9185429 53.27607 6.7368259
7.9358048 53.270172 6.5734782
7.9376211 53.263283 6.4082322
7.9311762 53.255882 6.2423334
7.9525452 53.250233 6.0791783
7.9295669 53.241817 5.9123597
7.9416413 53.235588 5.7484126
7.5771899 53.076813 2.5056238
7.574872 53.069775 2.3425958
7.5786471 53.063026 2.1779544
7.8491616 53.263958 6.5474391
7.8221426 53.255253 6.3793874
7.8373246 53.249241 6.2162886
7.8586974 53.243614 6.0535278
7.8429441 53.235664 5.8877044
7.8478065 53.229004 5.7236423
7.8444071 53.22184 5.5591664
7.8471956 53.215061 5.3950787
7.519855 53.072498 2.4835639
7.5175576 53.06546 2.3205349
7.5142126 53.058353 2.157357
7.7795172 53.266212 6.6976404
7.7895827 53.259861 6.5336337
7.7769809 53.252071 6.3671651
7.7777452 53.245144 6.2024903
7.7919025 53.239063 6.0391006
7.7905869 53.232014 5.8744135
7.788229 53.224907 5.7098265
7.7848301 53.217743 5.5453515
7.7876186 53.21096 5.381258
7.4530916 53.068043 2.4713495
7.4651074 53.061733 2.3056169
7.7089729 53.255085 6.5331402
7.725234 53.249142 6.3700504
7.7116089 53.241302 6.2039022
7.7185802 53.234776 6.0399947
7.7245159 53.228184 5.8760004
7.7221909 53.221081 5.7114997
7.7260523 53.214367 5.5474558
7.7361045 53.208023 5.3836203
7.4021206 53.065067 2.4720981
7.414165 53.058758 2.3062801
7.6581011 53.252735 6.5484419
7.6600308 53.245872 6.383708
7.6681309 53.23941 6.2197351
7.6751952 53.23288 6.0556612
7.6667776 53.225388 5.8904471
7.6573114 53.21785 5.7255058
7.6757097 53.212021 5.5622582
7.6641626 53.204369 5.3975515
7.3295951 53.054604 2.3259747
7.6049948 53.250324 6.5655284
7.6142154 53.243923 6.4015064
7.6223989 53.237457 6.2373705
7.6223254 53.230476 6.0725112
7.6139832 53.222984 5.9072013
7.6262708 53.216782 5.743506
7.6302967 53.21006 5.5792117
7.618825 53.202404 5.414319
7.2854452 53.052555 2.3390808
7.567853 53.248852 6.5824451
7.5627065 53.241524 6.4165678
7.5637207 53.2346 6.2516389
7.5636892 53.227619 6.0867815
7.5626125 53.220581 5.9220066
7.5821724 53.214821 5.7586932
7.564559 53.206776 5.5931273
7.5748177 53.200436 5.4291534
7.3067732 53.102161 3.4812038
7.2205782 53.049377 2.3544223
7.5240154 53.260838 6.9267178
7.5209956 53.253616 6.7603278
7.509707 53.245876 6.5932484
7.5261974 53.239929 6.4297934
7.5416594 53.23391 6.2660489
7.5344267 53.22646 6.1001234
7.5261402 53.218956 5.9344549
7.5384822 53.212742 5.7704353
7.1716537 53.053783 2.5266762
6.4336762 53.27285 8.7295303
5.7202425 53.231064 8.7364483
5.6695971 53.22831 8.7418928
4.4385581 53.012733 5.3647385
4.4173875 53.00452 5.2002654
4.4242768 52.997997 5.0365334
4.4228492 52.990974 4.8726459
4.434927 52.984737 4.7085333
4.4314122 52.977585 4.5444913
4.4195867 52.969959 4.3807678
4.3754573 53.001701 5.1921172
4.3605428 52.993877 5.028038
4.359139 52.986858 4.8642354
4.3566947 52.979782 4.7004371
4.3459368 52.972221 4.5368629
4.341413 52.965027 4.373198
4.3721852 52.959835 4.2076716
4.3084249 53.004681 5.3558836
4.2942653 52.989967 5.0280285
4.292901 52.982956 4.8643117
4.2904963 52.975883 4.7005997
4.2870512 52.96875 4.5369043
4.2898369 52.961975 4.3729448
4.2843084 52.954716 4.2092342
4.2995343 52.948627 4.0441732
4.2371716 52.986794 5.032608
4.2358403 52.979786 4.8688912
4.2480202 52.973564 4.7049427
4.237329 52.966003 4.5412774
4.247417 52.959641 4.3769393
4.2419147 52.952377 4.2130532
4.2499027 52.945873 4.0482888
4.2110949 52.992542 5.2047472
4.1890154 52.984287 5.0405102
4.1731758 52.976421 4.8767605
4.1854119 52.970207 4.7129059
4.203877 52.964336 4.5485168
4.1994653 52.957134 4.3845005
4.1794682 52.949043 4.2212768
4.2020497 52.943367 4.0556779
4.1591358 52.982857 5.0483599
4.1288252 52.974125 4.8843017
4.1338773 52.967484 4.7203889
4.1524401 52.961617 4.5559211
4.1408453 52.953999 4.3921003
4.1573029 52.947979 4.227005
4.1290822 52.939423 4.064198
4.1055989 53.000919 5.5495386
4.1004024 52.993652 5.3851209
4.1014423 52.986763 5.2209969
4.1014376 52.979816 5.0568514
4.085825 52.971947 4.892736
4.1128588 52.966579 4.7283287
4.1024389 52.959019 4.5642114
4.1128106 52.952656 4.3994522
4.1075783 52.945389 4.2351217
4.0558219 52.998482 5.5613117
4.0507574 52.991219 5.3968029
4.05193 52.984333 5.2325916
4.0593414 52.977821 5.0684309
4.0657077 52.971241 4.9040856
4.0637426 52.964165 4.7396693
4.0680132 52.957447 4.5750785
4.0712342 52.950665 4.4103408
4.0242987 53.011269 5.9073172
4.0102887 52.99646 5.5770636
4.0126324 52.989639 5.4126296
4.0066438 52.982315 5.2479925
4.0141783 52.975803 5.0836644
4.0352354 52.970081 4.919136
4.0261049 52.96257 4.7544646
4.0304933 52.955853 4.5896173
3.9797494 53.009438 5.9261346
3.9843159 53.002731 5.7613821
3.9732654 52.995075 5.5958676
3.9830158 52.988689 5.4314389
3.9844332 52.981796 5.2666225
3.9920871 52.975269 5.1018686
3.9841199 52.967819 4.9369264
3.9751046 52.960312 4.7721581
3.9615936 53.023434 6.2820044
3.9538333 53.01593 6.1155758
3.9522889 53.008827 5.9499393
3.9424045 53.001217 5.7839522
3.9606013 52.995335 5.6196899
3.9413199 52.987171 5.4536619
3.9209816 52.978962 5.2881174
3.9506049 52.973751 5.1237607
3.9236903 53.022423 6.3109584
3.9160407 53.014915 6.1442575
3.9218872 53.008259 5.9789085
3.9193959 53.001091 5.8130193
3.9158471 52.993862 5.6472378
3.9331043 52.987904 5.4824357
3.9201572 52.980114 5.3164468
3.8950827 53.043385 6.8459845
3.8980358 53.036503 6.6793256
3.8926508 53.029099 6.5118833
3.8861921 53.021637 6.3446689
3.8932199 53.015038 6.178997
3.8919096 53.007919 6.0126667
3.8968222 53.001194 5.8469052
3.8933918 52.993954 5.6806855
3.8889017 52.986656 5.5145831
3.869864 53.050018 7.0378265
3.8739717 53.043186 6.8707147
3.8697419 53.035824 6.7027082
3.8717048 53.028873 6.535749
3.8798757 53.02232 6.3695898
3.8724275 53.014786 6.2020001
3.8711894 53.007652 6.0352368
3.8413453 53.070038 7.5503917
3.8415387 53.062893 7.3814044
3.8333917 53.055218 7.2113948
3.845911 53.048912 7.0450182
3.8501074 53.042065 6.8774724
3.8459628 53.034691 6.7090306
3.8407359 53.02726 6.5408015
3.8489826 53.020699 6.3742943
3.8252945 53.090641 8.0594292
3.8144925 53.082676 7.8863869
3.8170071 53.075642 7.7166815
3.825659 53.069031 7.5484595
3.8332303 53.062355 7.3802118
3.8324718 53.055134 7.2107749
3.8233645 53.047386 7.0404215
3.8276799 53.040531 6.8724341
9.4209032 53.49337 9.7767563
9.0706758 53.472126 9.762845
8.6892576 53.448296 9.7313337
8.3533478 53.427803 9.7152796
7.2509451 53.359474 9.6370659
11.298098 53.514317 7.6561904
11.308998 53.500881 7.3236332
11.302032 53.493359 7.1556754
11.315632 53.487206 6.991375
11.328192 53.480984 6.8269148
11.318013 53.473297 6.6595197
11.32123 53.466488 6.4941959
11.324503 53.452694 6.1637182
11.236224 53.510967 7.6632962
11.240031 53.497059 7.3294644
11.240323 53.490021 7.1627836
11.24676 53.483398 6.9973826
11.259364 53.477184 6.8330154
11.256468 53.469971 6.6666346
11.259739 53.463165 6.5013123
11.261957 53.456299 6.3360424
11.27761 53.450283 6.1721811
11.277732 53.443295 6.0068789
11.284052 53.436695 5.8421645
11.282075 53.429585 5.6769671
11.279047 53.422417 5.5118847
11.282229 53.41563 5.347167
11.291627 53.409218 5.1825643
11.300029 53.395752 4.852809
11.299031 53.38871 4.6878557
11.30841 53.375275 4.3574376
11.311525 53.368458 4.1920228
11.313588 53.361572 4.0264874
11.321847 53.355022 3.8602967
11.172506 53.382221 4.7108874
11.180072 53.354691 4.0499945
11.188396 53.348152 3.8839035
11.173937 53.340336 3.7194147
11.034785 53.587383 9.7489405
11.065322 53.516926 8.0421505
11.062957 53.509628 7.8730173
11.066668 53.502762 7.7056441
11.076484 53.496319 7.5397868
11.092435 53.490292 7.3751974
11.085738 53.482769 7.206789
11.085162 53.475666 7.0398483
11.083515 53.46851 6.8730912
11.08802 53.461765 6.7074823
11.098696 53.455421 6.5427728
11.101096 53.448551 6.3771615
11.102445 53.441624 6.2116127
11.102737 53.434635 6.0461378
11.116467 53.428486 5.8817816
11.121911 53.421822 5.7167482
11.119061 53.41465 5.551311
11.115159 53.407421 5.3859987
11.117463 53.40057 5.2209921
11.125974 53.394089 5.0560412
11.118933 53.386684 4.8909183
11.125352 53.380074 4.7257824
11.015086 53.528633 8.3886862
11.015045 53.521442 8.2188396
11.013895 53.514194 8.0492563
11.018806 53.507381 7.8815079
11.022633 53.500511 7.7138762
11.02538 53.493584 7.5463758
11.034241 53.487076 7.3803186
11.04204 53.480507 7.2142453
11.041576 53.4734 7.0470443
11.047251 53.466709 6.8810649
11.04465 53.459488 6.7141566
11.055429 53.45314 6.5491886
11.050703 53.445808 6.3825383
11.052147 53.438877 6.216815
11.059775 53.432339 6.0517697
11.057405 53.418179 5.7205696
10.908936 53.587337 9.9232101
10.963098 53.539883 8.7268372
10.972457 53.533298 8.5582294
10.973597 53.526154 8.3878765
10.980763 53.519447 8.2194977
10.986843 53.512684 8.0512104
10.991837 53.505856 7.8830276
10.988576 53.498486 7.7134948
10.991393 53.491547 7.5456471
10.993131 53.48455 7.377944
10.931509 53.560097 9.24827
10.923026 53.552147 9.0723286
10.927543 53.545162 8.9010525
10.923833 53.537617 8.7280045
10.853321 53.315044 3.5686779
10.775111 53.310715 3.5753968
10.770455 53.310619 3.5796039
10.657403 53.573017 9.9354362
10.605104 53.570053 9.9382229
10.631185 53.302662 3.5857096
10.540351 53.566128 9.9357138
10.475002 53.562244 9.935071
10.551241 53.52372 8.9188118
10.370411 53.246155 2.6142657
10.369156 53.239082 2.4488864
10.373995 53.2323 2.2819564
10.377751 53.225441 2.1147084
10.380423 53.218506 1.9471561
10.382003 53.211494 1.779313
10.382489 53.204403 1.6111919
10.381881 53.197239 1.4428071
10.387265 53.190338 1.2722634
10.391521 53.183353 1.1013123
10.401711 53.176613 0.92788804
10.382524 53.16848 0.76257288
10.410829 53.558765 9.9422998
10.35639 53.245274 2.6129704
10.355076 53.238171 2.4469862
10.352695 53.230995 2.280844
10.356393 53.224113 2.1130812
10.351866 53.216797 1.9465758
10.324892 53.208363 1.7848939
10.353822 53.202652 1.6097544
10.374461 53.196491 1.4354835
10.365563 53.188881 1.2680682
10.362663 53.181534 1.0985974
10.372782 53.17477 0.92475283
10.339428 53.16597 0.76332486
10.347086 53.555271 9.9485664
10.316012 53.243004 2.6155925
10.314714 53.235889 2.4493487
10.326656 53.229431 2.2801745
10.323204 53.222172 2.1134546
10.325814 53.215195 1.9450444
10.270346 53.205338 1.7894992
10.27975 53.55101 9.9417009
10.194027 53.200798 1.7885336
10.21842 53.547005 9.9325151
10.128806 53.196564 1.7793999
10.150469 53.542648 9.924346
10.058077 53.192226 1.7755041
10.050612 53.226692 2.6000543
10.038531 53.197823 1.9348869
9.9830542 53.187984 1.7798506
10.022927 53.535233 9.9268303
9.9315348 53.220142 2.6112418
9.9302597 53.213066 2.4458637
9.9279251 53.205921 2.2803276
9.9387922 53.199425 2.1116827
9.9343119 53.192131 1.9456975
9.9216537 53.184425 1.7812482
9.9363508 53.178036 1.6099049
9.9357319 53.170876 1.4416064
9.9552469 53.16465 1.2673231
9.939599 53.529739 9.9131632
9.8773918 53.216648 2.604095
9.8832817 53.209934 2.4373174
9.8738146 53.202419 2.2730081
9.8846951 53.195919 2.1042712
9.8944721 53.189331 1.9350579
9.8604784 53.180565 1.7753291
9.8964958 53.175213 1.598747
9.8958673 53.168041 1.4301908
9.887064 53.160458 1.2633004
9.880867 53.525799 9.9018755
9.8167181 53.212593 2.5928431
9.8297091 53.206242 2.4247406
9.8344669 53.199444 2.2575419
9.8381433 53.19257 2.0900276
9.8549719 53.186325 1.9190551
9.7995863 53.176498 1.7640902
9.7767582 53.209946 2.5859652
9.7968836 53.203949 2.4162774
9.7864809 53.182217 1.917449
9.7453403 53.173092 1.7592549
9.7492447 53.518188 9.9055519
9.7394161 53.207985 2.5916872
9.6798601 53.169701 1.7703147
9.6718187 53.514206 9.9193182
9.6220284 53.167088 1.7891902
9.6081104 53.511288 9.9390945
9.5621147 53.164391 1.8089527
9.5341368 53.507317 9.9483709
9.510603 53.197102 2.6534431
9.5167465 53.190411 2.4867716
9.4861307 53.181828 2.3266606
9.5044203 53.175716 2.1568377
9.5358248 53.170219 1.9832604
9.4736662 53.160065 1.8299863
9.5383511 53.156132 1.6469611
9.4765148 53.504414 9.9600964
9.4154549 53.192242 2.6712031
9.4144535 53.1852 2.5062571
9.405261 53.177727 2.3425231
9.3879023 53.169834 2.1802723
9.4193401 53.164371 2.0074089
9.4069767 53.156696 1.8433541
9.3935709 53.148964 1.6793621
9.421628 53.143223 1.5046221
9.4101801 53.500954 9.9707747
9.3766556 53.190365 2.6809061
9.3684654 53.182941 2.5169816
9.3735075 53.176186 2.3503332
9.3703442 53.168991 2.1848166
9.3874693 53.162792 2.0145438
9.3537283 53.154049 1.8550129
9.3544817 53.147003 1.6875007
9.3443069 53.497555 9.982254
9.3105125 53.187111 2.6962135
9.3237581 53.180798 2.5285468
9.3002415 53.172577 2.3671739
9.3469734 53.167904 2.1917002
9.3426991 53.160622 2.0256133
9.308938 53.151867 1.8658791
9.2671013 53.142735 1.7084274
9.2868023 53.494461 9.989315
9.2353201 53.491245 9.9851036
9.1942759 53.488327 9.9732838
9.1472206 53.484928 9.9586191
9.0745277 53.480026 9.9440432
9.0235119 53.476925 9.9419222
8.9670811 53.473541 9.9406128
8.9350471 53.471962 9.9479475
8.8601885 53.467087 9.937047
8.7714672 53.461235 9.9224701
8.7291117 53.459045 9.9296989
8.6608515 53.454998 9.9292498
8.5951424 53.450989 9.926095
8.5348167 53.447346 9.9240475
8.453311 53.442295 9.9183226
8.3912725 53.43874 9.9207802
8.3211765 53.434486 9.9179344
8.2563257 53.430397 9.9116793
8.2092266 53.427647 9.9123192
8.131094 53.415756 9.7403278
8.1526556 53.410042 9.5753269
8.1451406 53.402214 9.4008255
8.1434822 53.394844 9.2290754
8.080411 53.375923 8.8700552
8.1105614 53.37093 8.7100315
8.0619526 53.360382 8.528616
8.0475016 53.352295 8.3577251
8.0507374 53.33844 8.0259752
8.0666618 53.276928 6.5507517
8.0611744 53.262798 6.224658
8.0748367 53.256779 6.0633659
8.0803032 53.25024 5.9012938
8.0560141 53.241867 5.7374182
8.0738096 53.236095 5.5762506
8.10497 53.231113 5.4152021
8.0847969 53.223026 5.2522216
8.0707912 53.215324 5.0898237
8.0988998 53.210121 4.9277439
8.1044207 53.203568 4.7652378
8.0945463 53.196114 4.6029258
8.0980244 53.189434 4.4402833
8.04986 53.152298 3.6301711
8.0215921 53.387306 9.2208796
8.0045776 53.378899 9.0459185
7.9938517 53.252434 6.0735836
7.9777269 53.244564 5.9102035
7.9964919 53.238869 5.7494645
7.9855042 53.231339 5.5869083
8.002244 53.225502 5.4257088
8.0035944 53.218723 5.2637691
7.9967408 53.21146 5.1017141
8.0032463 53.20499 4.9398265
8.0087328 53.198452 4.7777638
7.9988279 53.191017 4.6158824
8.0022783 53.184353 4.4536815
7.9683509 53.14809 3.6443331
7.9288049 53.339188 8.2134848
7.928802 53.24902 6.0835862
7.9342566 53.242496 5.9218745
7.924325 53.235023 5.7592015
