# .PCD v0.7 - Point Cloud Data file format
VERSION 0.7
FIELDS x y z
SIZE 4 4 4
TYPE F F F
COUNT 1 1 1
WIDTH 1612
HEIGHT 1
VIEWPOINT 0 0 0 1 0 0 0
POINTS 1612
DATA ascii
9.9304571 59.731003 23.426556
9.9304714 59.724098 23.079979
9.9399815 59.718063 22.745518
9.9405479 59.711357 22.406942
9.9445944 59.705009 22.074921
9.9522381 59.699028 21.749268
9.9446297 59.691856 21.414639
9.9342976 59.684532 21.08148
9.8961172 59.780617 26.03116
9.8999252 59.773411 25.656757
9.906435 59.766529 25.289743
9.9098072 59.759468 24.92416
9.9100618 59.752232 24.560055
9.9132624 59.745331 24.203123
9.9377775 59.740322 23.86993
9.904542 59.730507 23.488077
9.904892 59.723618 23.141058
9.9085445 59.717079 22.80081
9.9156246 59.710903 22.46715
9.9137402 59.704048 22.129477
9.9279547 59.698601 21.808596
9.9269838 59.691959 21.478567
9.9297018 59.685688 21.154835
9.9298363 59.679272 20.832302
9.851429 59.842392 29.280573
9.8497391 59.833797 28.854805
9.8610106 59.826485 28.450195
9.8573513 59.817955 28.034458
9.8215656 59.798759 27.190086
9.8239174 59.791119 26.798841
9.8228207 59.783283 26.409246
9.8592873 59.778812 26.063393
9.8810978 59.773151 25.706446
9.8821049 59.765778 25.333004
9.8978043 59.759754 24.978512
9.8865032 59.751511 24.602322
9.8961239 59.74514 24.250538
9.9028053 59.738598 23.900034
9.8515301 59.727253 23.501297
9.8705187 59.72192 23.170431
9.8806467 59.715912 22.835175
9.8818274 59.709229 22.495789
9.8927307 59.703426 22.168163
9.9192991 59.692402 21.526331
9.9097166 59.685101 21.19195
9.9165678 59.679218 20.873795
9.74438 59.990059 37.048664
9.7837744 59.982738 36.550049
9.7714815 59.928883 33.88789
9.7861929 59.920303 33.408451
9.7807865 59.910011 32.90974
9.8071394 59.902843 32.462311
9.7416821 59.800861 27.561735
9.7533979 59.793938 27.175161
9.7617226 59.786816 26.790054
9.7724915 59.78001 26.412535
9.8092556 59.775555 26.066444
9.8289833 59.719299 23.177193
9.6259441 59.936829 34.771549
9.6698017 59.930702 34.31794
9.6623669 59.881145 31.855581
9.686965 59.796913 27.545786
9.6930895 59.78949 27.152933
9.7015162 59.782375 26.76782
9.7123852 59.775578 26.390291
9.548008 59.930866 34.732018
9.6168833 59.927124 34.314777
9.6117887 59.79134 27.516605
9.6292572 59.784924 27.136353
9.6260872 59.776798 26.739044
9.6426468 59.7705 26.367779
9.5848904 59.925808 34.35527
9.5299091 59.785511 27.496784
9.5815325 59.782108 27.154091
9.6014395 59.776001 26.78124
9.5890493 59.767174 26.379318
9.6319571 59.712288 23.481754
9.5308752 59.922577 34.372921
9.5480375 59.780754 27.197557
9.5621958 59.774139 26.818384
9.5788755 59.767838 26.446659
9.6099291 59.762878 26.094227
9.5803518 59.709358 23.506634
9.4816637 59.919724 34.393734
9.4868097 59.776836 27.204908
9.5182028 59.771732 26.844244
9.5116215 59.763405 26.448093
9.5718288 59.760979 26.125843
9.5058813 59.704357 23.503693
9.4318151 59.916435 34.39476
9.4311504 59.773018 27.198706
9.4451656 59.766396 26.819607
9.4617052 59.760086 26.447956
9.504343 59.756138 26.107609
9.4070082 59.696903 23.458961
9.3695211 59.911591 34.359188
9.3783369 59.769093 27.177628
9.3981018 59.762974 26.804651
9.4030075 59.75565 26.420782
9.3293848 59.690895 23.415932
9.3101921 59.907257 34.339314
9.3078566 59.763771 27.145376
9.3217783 59.757145 26.766388
9.332407 59.750328 26.388784
9.2950401 59.68866 23.418108
9.2388792 59.902111 34.31852
9.2304583 59.758137 27.120461
9.2558842 59.752522 26.753931
9.2548866 59.744694 26.364275
9.2170563 59.683029 23.395323
9.1930857 59.899494 34.339699
9.1920166 59.756092 27.14576
9.206008 59.74947 26.766771
9.2108831 59.742149 26.383106
9.1676092 59.679989 23.407507
9.1377783 59.896542 34.375717
9.1400738 59.753319 27.179689
9.1542511 59.746708 26.800575
9.1534891 59.738888 26.410711
9.1358061 59.678856 23.456476
9.0486031 59.890614 34.375393
9.0701151 59.749104 27.201073
9.0671721 59.740986 26.803549
9.0956078 59.735714 26.444254
9.049612 59.673229 23.461338
8.9520607 59.883465 34.338184
9.0297832 59.805416 30.161863
8.9910402 59.743587 27.187668
8.9824467 59.734978 26.78414
8.9935045 59.728191 26.406834
8.9594831 59.66679 23.438353
8.8797293 59.878159 34.312782
8.8915787 59.735882 27.132296
8.9059734 59.729294 26.753738
8.9170713 59.722515 26.376562
8.877265 59.660645 23.403776
8.7879429 59.803768 30.884762
8.828618 59.731411 27.117727
8.8426838 59.717049 26.349854
8.809166 59.655727 23.383753
8.7322693 59.867748 34.281437
8.7524061 59.726208 27.110304
8.7611961 59.719128 26.725746
8.7397404 59.651108 23.383238
8.655798 59.862938 34.294807
8.6837626 59.722061 27.130886
8.6869316 59.714485 26.740194
8.6982651 59.707729 26.3633
8.6786575 59.647572 23.409283
8.6011238 59.860249 34.342026
8.6098557 59.79364 30.969807
8.6452923 59.720634 27.187416
8.6545753 59.713581 26.80253
8.6546707 59.70583 26.413078
8.6190357 59.64423 23.440214
8.5470152 59.857437 34.381165
8.5907669 59.776058 30.150932
8.5793123 59.716602 27.204824
8.5772371 59.708549 26.807642
8.5832329 59.701313 26.42441
8.5400791 59.633209 23.149977
6.7096152 59.507431 22.934872
6.7268043 59.495369 22.272154
6.725071 59.488583 21.937386
6.7259898 59.47559 21.282209
6.605515 59.556919 25.765474
6.6093912 59.549778 25.39423
6.6159654 59.542965 25.030396
6.6313386 59.536999 24.679596
6.6317329 59.529831 24.318569
6.6411128 59.523518 23.970383
6.64148 59.516518 23.61792
6.6510882 59.510384 23.277952
6.6578684 59.504082 22.939224
6.6556511 59.497105 22.596418
6.6754527 59.492039 22.276213
6.6676621 59.484745 21.936092
6.6633315 59.477818 21.602652
6.6752224 59.472294 21.285828
6.4655976 59.710384 33.934151
6.4774055 59.691605 32.952312
6.533637 59.59856 28.094948
6.5352502 59.59058 27.689133
6.5445738 59.583401 27.297653
6.556139 59.576523 26.913952
6.5585389 59.568947 26.525602
6.5574875 59.561172 26.138927
6.5705657 59.554729 25.771975
6.5804687 59.548103 25.40638
6.581284 59.540783 25.036335
6.5848532 59.533794 24.67367
6.5973144 59.527653 24.323933
6.60078 59.520828 23.969812
6.6073165 59.514347 23.622707
6.6109347 59.507698 23.276947
6.6116519 59.500885 22.932573
6.6280451 59.495457 22.60568
6.6293392 59.488842 22.269262
6.6215982 59.481548 21.929001
6.6298943 59.475658 21.605677
6.6229339 59.468575 21.273388
6.4224472 59.760529 36.59473
6.3801923 59.723969 34.90049
6.3879466 59.714314 34.390022
6.4360032 59.708672 33.946823
6.4646535 59.70134 33.483292
6.4529777 59.690369 32.971603
6.4776692 59.682987 32.518837
6.4563122 59.671467 32.011814
6.4299765 59.659672 31.507486
6.451807 59.652493 31.07453
6.5116448 59.589321 27.704525
6.503952 59.580631 27.293896
6.521204 59.574249 26.91625
6.5178151 59.566162 26.521561
6.5225267 59.558887 26.140814
6.5414529 59.552948 25.779633
6.3479543 59.722725 34.945423
6.3560071 59.713081 34.434578
6.3523755 59.654121 31.487402
6.405942 59.649872 31.095778
6.4131775 59.641483 30.650595
6.4324274 59.634331 30.227507
6.2681713 59.717964 34.972313
6.2816725 59.708824 34.468616
6.2810144 59.650036 31.520082
6.3297029 59.645325 31.121412
6.1934524 59.713463 34.995327
6.2370548 59.707195 34.535446
6.2551174 59.650017 31.605486
6.2778654 59.642891 31.171942
6.2965827 59.635525 30.739962
6.1900434 59.714783 35.072762
6.1990409 59.705185 34.561237
6.2429857 59.650402 31.665199
6.2605972 59.642788 31.224344
6.182056 59.715019 35.111374
6.1758351 59.703972 34.577633
6.2070427 59.648052 31.666956
6.2533689 59.633999 30.807358
6.1178265 59.710308 35.088848
6.1510649 59.703049 34.613789
6.1396284 59.643162 31.646118
6.2095361 59.640392 31.274271
6.2172732 59.632015 30.827904
6.2316279 59.624378 30.396908
6.0705943 59.707668 35.113655
6.0840254 59.698509 34.609192
6.1263757 59.63438 31.249481
6.1393104 59.626488 30.810181
6.1481495 59.618355 30.372629
5.9514828 59.698189 35.034622
5.979651 59.690453 34.552597
6.0214176 59.626339 31.195473
6.0342612 59.618446 30.756552
6.0371785 59.551041 27.363781
5.8090858 59.69651 35.424896
5.8366323 59.688568 34.934395
5.8993058 59.684151 34.504013
5.8237462 59.618427 31.456959
5.9353328 59.619545 31.14131
5.7456474 59.691147 35.366863
5.7974701 59.685547 34.913311
5.8150682 59.67683 34.417179
5.7779379 59.614822 31.428587
5.7801876 59.537666 27.548531
5.710289 59.688679 35.360867
5.7469783 59.681637 34.885185
5.7940784 59.675751 34.43288
5.713706 59.609741 31.387489
5.8140674 59.60984 31.058161
5.8206382 59.601406 30.613054
5.7341886 59.534344 27.535103
5.6484594 59.684402 35.352158
5.6848783 59.677345 34.876598
5.7317162 59.671444 34.424427
5.6760883 59.607777 31.414324
5.7658181 59.606895 31.071119
5.7722754 59.598454 30.62595
5.6963711 59.532333 27.560148
5.6204414 59.683819 35.416313
5.6374311 59.674881 34.910965
5.6594601 59.666603 34.42218
5.6245623 59.604877 31.440454
5.7090721 59.603512 31.090317
5.7209601 59.595566 30.65188
5.6571684 59.530483 27.597771
5.5188351 59.676353 35.380054
5.5505214 59.668835 34.897118
5.5975103 59.662945 34.444992
5.5535374 59.600327 31.448658
5.6275172 59.597988 31.084833
5.6448035 59.590538 30.653326
5.5533776 59.522999 27.567951
5.4621978 59.672581 35.379337
5.4790463 59.663635 34.874279
5.5059223 59.655834 34.393089
5.4758172 59.594593 31.419762
5.5655456 59.593716 31.076681
5.5506525 59.583317 30.604387
5.4854374 59.5182 27.553499
5.3579597 59.663345 35.263096
5.3789239 59.654835 34.766075
5.4649553 59.652714 34.372925
5.4178228 59.589924 31.378548
5.4488177 59.583645 30.960091
5.4545469 59.575172 30.515812
5.4134011 59.512371 27.50083
5.4975247 59.437809 23.478222
5.3049054 59.659218 35.232601
5.3108587 59.649269 34.713543
5.3476648 59.584248 31.327291
5.3730669 59.577461 30.90214
5.340806 59.506569 27.451395
5.1243649 59.653915 35.567913
5.1981106 59.650364 35.144054
5.238265 59.643723 34.676849
5.1563601 59.576973 31.599497
5.2611642 59.500465 27.410484
5.0555315 59.648594 35.530048
5.1486397 59.646919 35.135864
5.159059 59.637424 34.624603
5.0804124 59.571068 31.556129
5.1929545 59.572266 31.24136
5.2068911 59.555485 30.352722
5.008719 59.645111 35.511368
5.0818777 59.641525 35.08765
5.0818081 59.63105 34.562031
5.1461844 59.559792 30.771124
5.0640106 59.651623 35.653858
5.0105371 59.548347 30.64859
5.0891023 59.546638 30.301157
4.9520555 59.477001 27.262428
5.0490685 59.477688 26.973761
5.0520167 59.470154 26.585815
5.0845261 59.407223 23.319004
4.941267 59.469673 26.93063
4.9440055 59.462135 26.543165
4.960649 59.455917 26.175665
4.9682918 59.449009 25.803434
4.9747252 59.399174 23.280813
4.8022847 59.458828 26.849253
4.8160176 59.452282 26.475016
4.8264775 59.445549 26.102175
4.8685961 59.441666 25.766958
4.8676176 59.391289 23.241796
4.9294505 59.389656 22.95376
4.9487967 59.364586 21.63105
4.828979 59.348206 21.208153
4.7483664 59.432327 25.698889
4.7990675 59.379662 22.886497
4.8151612 59.374256 22.56159
4.834806 59.369213 22.243017
4.8332319 59.362465 21.909641
4.8351684 59.356083 21.582825
4.7053823 59.372742 22.851397
4.7334318 59.368355 22.537693
4.6971102 59.35865 22.171608
4.7136183 59.353436 21.854908
4.7275915 59.348072 21.53916
4.6238475 59.353493 22.156853
4.6353202 59.341351 21.509212
4.6339765 59.334797 21.184656
4.5447979 59.354645 22.47806
4.549253 59.341785 21.817705
4.5554776 59.32935 21.172834
4.4647188 59.355915 22.808495
4.4726934 59.33662 21.81356
4.4740729 59.330227 21.488012
4.386991 59.350307 22.785952
4.4024353 59.344883 22.462208
4.3943791 59.330986 21.791681
4.3955679 59.324585 21.466354
4.4003921 59.31855 21.147409
4.3276572 59.35273 23.105284
4.3361421 59.339943 22.435123
4.3362317 59.333309 22.102016
4.3397932 59.327042 21.775505
4.3406935 59.320621 21.450254
4.3389478 59.314053 21.126301
4.261404 59.34137 22.755751
4.2860341 59.323521 21.777822
4.2743597 59.316059 21.442188
4.2850475 59.310516 21.128466
4.1971092 59.344158 23.109972
4.1871676 59.323193 22.090788
4.2039418 59.311535 21.449785
4.208456 59.305485 21.130985
4.1014709 59.35828 24.137342
4.1149912 59.345455 23.44849
4.1174197 59.338791 23.106068
4.1230907 59.332481 22.770491
4.113699 59.324986 22.425442
4.1137638 59.318359 22.092627
4.1483579 59.314674 21.792578
4.1556473 59.308781 21.472412
4.1729164 59.303772 21.163557
4.0378237 59.35421 24.145004
4.0452905 59.34087 23.45055
4.0658894 59.335747 23.124788
4.0594091 59.328407 22.778152
4.0684376 59.322456 22.449245
4.0624218 59.315315 22.110899
4.0660162 59.309052 21.784538
4.0731964 59.303154 21.464598
4.0778003 59.297108 21.145798
3.9997668 59.324642 22.787855
3.9964178 59.317654 22.448177
3.996418 59.31102 22.115288
4.0123091 59.305782 21.799475
4.0051484 59.292274 21.145321
3.9476895 59.308289 22.14043
3.9511912 59.302017 21.813993
3.9582789 59.296112 21.493982
3.9565151 59.289539 21.170017
3.8630393 59.31612 22.815594
3.8598583 59.309143 22.47591
3.8636477 59.296261 21.81673
3.8583794 59.289333 21.486525
3.8692207 59.283806 21.173054
3.7597327 59.295567 22.128067
3.7511606 59.288292 21.791513
3.7522635 59.281898 21.466854
3.7569938 59.275871 21.148586
3.6386347 59.306602 23.08547
3.6415548 59.293373 22.411688
3.6766787 59.283123 21.780214
3.6655443 59.275711 21.445223
3.6829431 59.270729 21.137293
3.5301595 59.355789 25.915432
3.533673 59.341225 25.172762
3.5452442 59.334934 24.818569
3.5474622 59.32082 24.102684
3.5619135 59.315033 23.764084
3.5554979 59.307549 23.409822
3.5702701 59.301945 23.079346
3.5701523 59.295158 22.739044
3.5916846 59.290264 22.421734
3.5860415 59.283161 22.084049
3.5837834 59.276417 21.75312
3.6161575 59.272617 21.454599
3.6274514 59.267128 21.14135
3.4805684 59.309448 23.754707
3.486032 59.302979 23.411879
3.5128269 59.298397 23.092552
3.5066168 59.291092 22.74671
3.5158617 59.285168 22.418625
3.5039537 59.27755 22.075764
3.5263169 59.272861 21.766027
3.5275578 59.266479 21.441597
3.5386784 59.260983 21.128651
3.4444962 59.287579 22.777277
3.4354827 59.280121 22.432926
3.454345 59.275074 22.116821
3.4644899 59.269363 21.796385
3.4471655 59.261436 21.456347
3.4707875 59.256977 21.153765
3.3538442 59.323746 24.894453
3.356817 59.316792 24.535543
3.3626478 59.310173 24.183897
3.365495 59.303383 23.833651
3.3773913 59.297447 23.496094
3.4046147 59.292885 23.176394
3.3806343 59.284065 22.813654
3.3841002 59.277645 22.479958
3.3971102 59.272099 22.158245
3.3827889 59.264343 21.816561
3.3966954 59.259007 21.502497
3.4080997 59.253525 21.189423
3.2522256 59.377964 27.954353
3.2591102 59.370529 27.558271
3.2624443 59.362892 27.163832
3.2679071 59.355556 26.777351
3.2756402 59.348522 26.398676
3.2743084 59.340797 26.015409
3.3042519 59.335907 25.670181
3.2964013 59.327812 25.289988
3.3086216 59.321556 24.935263
3.3119295 59.314617 24.576002
3.3121598 59.307503 24.218231
3.3093305 59.30022 23.862
3.3274739 59.294807 23.529861
3.3368466 59.288719 23.193216
3.3312812 59.281448 22.846842
3.3350234 59.275043 22.512854
3.3360105 59.268482 22.180182
3.346617 59.262794 21.859392
3.3422124 59.255924 21.529324
3.3538415 59.250454 21.21603
3.1149242 59.526035 35.843479
3.1258097 59.49538 34.268574
3.1289818 59.485512 33.762856
3.1222012 59.474888 33.252159
3.1356547 59.46637 32.779713
3.1445835 59.457584 32.309177
3.1335893 59.447102 31.819506
3.1593373 59.440212 31.388077
3.1653926 59.431637 30.937405
3.1566525 59.421841 30.47497
3.2003264 59.358822 27.166365
3.2172067 59.352489 26.792334
3.2194297 59.344963 26.407263
3.2469192 59.33976 26.05447
3.2540927 59.332867 25.684544
3.2348025 59.323769 25.292179
3.2471197 59.317516 24.937384
3.2623062 59.311596 24.589737
3.2567847 59.303986 24.225983
3.2660205 59.297722 23.881008
3.2723625 59.291298 23.537329
3.2818637 59.285217 23.200539
3.2885764 59.278976 22.864985
3.2864094 59.272064 22.525297
3.3059843 59.267052 22.20841
3.2921448 59.259312 21.866131
3.3002868 59.253479 21.546289
3.3058569 59.247501 21.227587
3.1112866 59.495647 34.330471
3.123503 59.476616 33.334526
3.1265857 59.457436 32.361561
3.131366 59.448406 31.892454
3.1316705 59.439121 31.425396
3.1170652 59.428612 30.94664
3.1347756 59.421253 30.518261
3.153846 59.41415 30.098293
3.158345 59.405846 29.666443
3.1588435 59.397312 29.236471
3.1717052 59.39003 28.828205
3.1937654 59.336246 26.055187
3.2125168 59.330357 25.697218
3.2049651 59.322273 25.316547
3.2174666 59.316025 24.961327
3.2092829 59.308083 24.589895
3.2413228 59.249439 21.539951
9.6689939 60.032265 39.418163
9.7431202 60.011692 38.138767
9.765727 59.986935 36.820877
9.311039 60.006939 39.339577
8.969635 59.98328 39.289318
8.5924835 59.956116 39.182354
8.2363729 59.916977 38.404247
7.8242445 59.899834 38.916821
7.8553767 59.889141 38.276379
7.4873734 59.876183 38.851913
7.0773706 59.859028 39.356777
7.1362996 59.810646 36.732082
6.7253413 59.833538 39.25
6.7916389 59.812641 37.980431
6.4180984 59.812202 39.202728
6.4078946 59.797459 38.496765
6.0699968 59.7868 39.08733
6.0864367 59.774712 38.425774
5.7315645 59.762394 38.989788
5.7626939 59.751793 38.354076
5.4448404 59.729465 38.292278
5.11057 59.718979 38.879406
4.4547849 59.671585 38.685337
4.0582337 59.65456 39.151855
4.1117749 59.646259 38.556828
3.7439413 59.632355 39.084404
3.7828033 59.622597 38.465164
3.8133283 59.585678 36.51038
3.4255924 59.609814 39.0135
3.4535272 59.598976 38.376415
3.0863247 59.584694 38.882854
2.8050139 59.565323 38.847832
2.8423042 59.555519 38.231407
2.5218658 59.545818 38.812126
2.1763346 59.533642 39.351978
2.2227528 59.524685 38.747765
1.911683 59.502254 38.658203
1.5759677 59.490643 39.193756
1.5951899 59.478909 38.540794
1.3101679 59.47213 39.150093
11.038857 59.812077 23.803421
11.037912 59.805046 23.453745
11.040054 59.798363 23.111101
11.049973 59.759583 21.131649
10.865673 59.801136 23.831163
10.870847 59.794621 23.486969
10.860585 59.780087 22.79166
10.863269 59.773598 22.45715
10.863224 59.766956 22.123955
10.866611 59.760677 21.797377
10.873545 59.754757 21.477228
10.877933 59.748692 21.158215
10.867309 59.741455 20.830296
10.666896 59.806404 24.757799
10.68438 59.793617 24.057848
10.673882 59.785706 23.695673
10.684222 59.779655 23.357635
10.679762 59.77243 23.009752
10.684502 59.76606 22.674316
10.686502 59.759537 22.340166
10.67966 59.752346 22.002035
10.694649 59.747051 21.686357
10.694777 59.740582 21.361324
10.679864 59.732941 21.027418
10.699725 59.728237 20.725203
10.630323 59.782986 23.704294
10.622604 59.775402 23.349384
10.623932 59.768673 23.007172
10.634539 59.762802 22.677263
10.630301 59.755756 22.337732
10.641633 59.750092 22.015602
10.631932 59.742737 21.678839
10.644221 59.737286 21.364273
10.641596 59.730663 21.040533
10.648882 59.724922 20.728149
10.592822 59.76038 22.694651
10.485735 59.739227 21.989719
10.499664 59.727383 21.348846
10.502809 59.721241 21.030113
10.509686 59.715473 20.717571
10.428993 59.775883 24.018393
10.429547 59.768929 23.667633
10.439157 59.762833 23.32951
10.433938 59.75555 22.98156
10.437951 59.749134 22.646044
10.445321 59.743073 22.317188
10.437777 59.735832 21.978926
10.439788 59.729462 21.652628
10.439178 59.722946 21.327595
10.44219 59.716797 21.008936
10.4552 59.711536 20.701464
10.363906 59.764393 23.658487
10.36751 59.757782 23.314844
10.362246 59.750504 22.967041
10.372274 59.744598 22.637114
10.379633 59.738533 22.308331
10.372078 59.731297 21.970142
10.386406 59.725956 21.654366
10.373457 59.718414 21.318962
10.388919 59.713295 21.010523
10.200314 59.959106 33.976418
10.199024 59.948959 33.471348
10.212914 59.940437 32.997322
10.318768 59.761711 23.674273
10.328414 59.755611 23.336079
10.323233 59.748333 22.988056
10.32728 59.741917 22.652466
10.328589 59.735344 22.318169
10.321047 59.728104 21.979904
10.335387 59.722763 21.664053
10.347238 59.717274 21.349171
10.337923 59.710098 21.020063
10.189734 59.949558 33.532463
10.188078 59.929867 32.54966
10.305913 59.734436 22.348148
10.294308 59.720306 21.677622
10.29991 59.714298 21.357441
10.30297 59.708145 21.038408
10.303501 59.701847 20.72056
8.3396959 59.782047 31.28783
8.3229036 59.745018 29.485212
8.3860264 59.74226 29.1366
8.3564157 59.722908 28.263996
8.2423601 59.765694 30.791311
8.3369379 59.765511 30.466949
8.23493 59.730148 29.031912
8.2567205 59.723755 28.638447
8.2586851 59.715679 28.226706
8.2459583 59.706409 27.803804
8.2514973 59.698906 27.408659
8.325942 59.697647 27.097586
8.3271971 59.659805 25.194107
8.321022 59.651985 24.822039
8.3350039 59.646 24.475121
8.3306513 59.631504 23.762081
8.3358631 59.625019 23.419191
8.1682453 59.760773 30.791243
8.2157841 59.756237 30.405178
8.1913462 59.745178 29.931536
8.2209234 59.739231 29.534594
8.1772766 59.726723 29.052118
8.1830635 59.718868 28.638704
8.2014503 59.71228 28.246655
8.2053976 59.704498 27.84305
8.2112646 59.69701 27.447571
8.2303267 59.690807 27.07276
8.2484865 59.65448 25.188997
8.2655592 59.648674 24.840784
8.2680454 59.641693 24.482012
8.273366 59.635044 24.130514
8.2816505 59.628731 23.786119
8.2811289 59.621746 23.437374
8.038537 59.788086 32.594246
8.0409851 59.778755 32.11776
8.0592804 59.77108 31.671595
8.0631447 59.762203 31.213125
8.0782528 59.754524 30.777441
8.094573 59.747097 30.350306
8.0911674 59.737988 29.904383
8.1048756 59.730591 29.487484
8.1040878 59.722 29.058853
8.1101713 59.714165 28.645376
8.11796 59.706608 28.240177
8.122118 59.698845 27.836639
8.1392336 59.692356 27.454048
8.125185 59.683197 27.041115
8.146637 59.677311 26.674204
8.1762266 59.672237 26.32091
8.163064 59.663486 25.925627
8.1921701 59.65855 25.580883
8.1665716 59.648926 25.183071
8.1748219 59.635155 24.464512
8.1919947 59.629528 24.124804
7.9244699 59.779385 32.537468
7.9571671 59.772923 32.104095
7.9451423 59.76239 31.615675
7.9489727 59.753521 31.15764
7.9847574 59.747776 30.750101
7.9959817 59.739876 30.316288
8.0032091 59.731747 29.884226
8.0064631 59.723392 29.453981
8.0111208 59.715298 29.032284
8.0119352 59.706989 28.612396
8.0252399 59.699932 28.214001
8.0459528 59.693657 27.830086
8.0301876 59.684223 27.409046
8.0439472 59.677547 27.028227
8.0487814 59.670185 26.642559
8.0615091 59.663628 26.270918
8.0710278 59.656879 25.900663
8.0659218 59.648952 25.519718
8.0920248 59.643848 25.176523
8.0863113 59.636059 24.804667
8.0890512 59.629101 24.446249
8.0946198 59.622475 24.095106
7.8056159 59.830715 35.50967
7.8453565 59.773415 32.501312
7.8678627 59.765995 32.053879
7.8556571 59.755459 31.565781
7.8952456 59.749939 31.156961
7.8845425 59.739864 30.68696
7.9059415 59.732925 30.267305
7.9235215 59.725761 29.849154
7.9319925 59.717888 29.425833
7.9312487 59.709309 28.997597
7.9427605 59.701973 28.591112
7.9451857 59.693935 28.179705
7.9548521 59.686676 27.783033
7.9554739 59.678719 27.381552
7.9636254 59.671547 26.994524
7.9739709 59.664677 26.615328
7.9753728 59.657124 26.231413
7.9904432 59.650871 25.867563
7.9966865 59.643944 25.498955
8.0055151 59.637333 25.137833
8.0139618 59.623589 24.419834
7.7216706 59.824448 35.474804
7.7827616 59.759682 32.020668
7.8162026 59.753445 31.596241
7.7944221 59.74218 31.103285
7.8248563 59.735947 30.689102
7.8358722 59.728043 30.255661
7.8481607 59.720394 29.830774
7.8565645 59.712517 29.407581
7.8504033 59.703445 28.972811
7.872592 59.697086 28.57972
7.8695583 59.68856 28.161842
7.8791595 59.681297 27.765303
7.8741994 59.672844 27.357555
7.887804 59.666168 26.97706
7.9092822 59.66029 26.610533
7.9050636 59.652237 26.220421
7.9201102 59.645988 25.856634
7.9377623 59.640057 25.500217
7.940866 59.625664 24.767387
7.6920686 59.763012 32.489925
7.7196741 59.756077 32.049797
7.7228546 59.746986 31.582966
7.7472715 59.740044 31.153135
7.7366896 59.72998 30.683254
7.7529655 59.722565 30.256872
7.7600727 59.714436 29.825321
7.7738209 59.707058 29.40906
7.7784443 59.698967 28.987753
7.8007879 59.692619 28.594679
7.7924895 59.683613 28.170258
7.8131533 59.677345 27.786736
7.8194265 59.669891 27.391726
7.8277483 59.662731 27.0047
7.8382611 59.655872 26.625509
7.845468 59.648827 26.247797
7.8380413 59.640594 25.859348
7.8500438 59.634171 25.497013
7.858954 59.627571 25.136034
7.8705783 59.621296 24.782379
7.8559146 59.612835 24.40661
7.8731723 59.607224 24.067463
7.6199265 59.758781 32.517811
7.6377239 59.750908 32.063416
7.6554298 59.733944 31.152914
7.665638 59.725815 30.710932
7.6769562 59.717934 30.277634
7.6895399 59.710304 29.85289
7.6982393 59.702454 29.429836
7.7030759 59.694382 29.008533
7.6879139 59.68462 28.569208
7.7175336 59.679054 28.191048
7.7110419 59.670334 27.775152
7.7228193 59.66338 27.386892
7.7533774 59.658211 27.02552
7.7473073 59.649876 26.627508
7.7602162 59.643337 26.256214
7.7642484 59.636112 25.880173
7.7707233 59.6292 25.51178
7.7740288 59.622112 25.144875
7.7857547 59.615845 24.79137
7.7944999 59.609409 24.439169
7.800281 59.602802 24.088314
7.8090124 59.596531 23.744572
7.8089542 59.589592 23.396475
7.8238916 59.584011 23.066582
7.8181348 59.576752 22.72127
7.5576091 59.736187 31.591375
7.5924873 59.730221 31.175755
7.597755 59.721622 30.726717
7.6092534 59.713753 30.29336
7.6272693 59.706619 29.875368
7.614994 59.696835 29.42522
7.6145372 59.688282 28.997368
7.6424561 59.682438 28.61113
7.650701 59.674923 28.206467
7.6607838 59.667694 27.809944
7.6563244 59.659271 27.402182
7.6870346 59.65411 27.040754
7.6699548 59.644794 26.630112
7.6885691 59.63876 26.265104
7.7040553 59.632538 25.901348
7.6993117 59.624638 25.520672
7.7084785 59.618057 25.159773
7.714571 59.611298 24.80027
7.7408881 59.606377 24.46566
7.735177 59.598774 24.103012
7.7322645 59.591503 23.747759
7.7322812 59.584568 23.399733
7.7472863 59.578995 23.069918
7.7536087 59.572754 22.735685
7.757195 59.56636 22.402723
7.4241223 59.805485 35.514156
7.4751878 59.739628 32.038769
7.4938745 59.731998 31.593418
7.4981709 59.723164 31.135763
7.5291591 59.716969 30.721699
7.5355563 59.708626 30.281471
7.5378733 59.700043 29.843124
7.5361328 59.691235 29.406721
7.5410376 59.68317 28.985676
7.5582471 59.676353 28.586277
7.5827374 59.670315 28.201447
7.5601315 59.660137 27.76605
7.5775514 59.65369 27.38434
7.5916309 59.647045 27.004004
7.5800419 59.638226 26.599985
7.6210923 59.634178 26.260082
7.614007 59.625973 25.871761
7.6149092 59.618572 25.497438
7.612565 59.610992 25.124743
7.6359 59.60574 24.783384
7.6331325 59.598309 24.419603
7.6389642 59.591709 24.069035
7.6595964 59.579533 23.389067
7.6686831 59.573456 23.053745
7.6690192 59.566711 22.714155
7.6665502 59.559811 22.375984
7.6673632 59.553261 22.044632
7.3079767 59.796158 35.432995
7.3572712 59.730259 31.961349
7.3899832 59.714741 31.073433
7.3794937 59.7047 30.604366
7.4426517 59.701645 30.240599
7.4239416 59.691132 29.775305
7.4378824 59.683773 29.359631
7.4320426 59.67474 28.92557
7.4437089 59.667431 28.520012
7.4571495 59.660408 28.12261
7.4615865 59.652683 27.720272
7.4624186 59.64476 27.319662
7.4929271 59.639595 26.958883
7.4868579 59.631275 26.561489
7.505363 59.62524 26.197014
7.5150819 59.618526 25.82766
7.5216155 59.611629 25.459753
7.5307226 59.605053 25.099337
7.5367579 59.598301 24.740324
7.5455551 59.591877 24.388615
7.563097 59.586292 24.049833
7.5661025 59.572609 23.353071
7.5691948 59.566029 23.012465
7.5798211 59.546864 22.015162
7.2133951 59.78907 35.392246
7.2626791 59.723206 31.922277
7.2912331 59.716522 31.491814
7.2851315 59.706734 31.020872
7.3003511 59.699097 30.586819
7.3219681 59.692192 30.16819
7.3345242 59.684578 29.744272
7.3379097 59.676258 29.315321
7.3480186 59.668686 28.901598
7.3490009 59.660408 28.48296
7.362422 59.653385 28.085819
7.3668432 59.645668 27.683748
7.3951602 59.640209 27.315437
7.4036813 59.63308 26.929224
7.408802 59.625759 26.54458
7.427403 59.619732 26.180168
7.4259009 59.61203 25.798615
7.4358449 59.598068 25.064713
7.4622669 59.585907 24.366261
7.4623103 59.578815 24.010265
7.4593377 59.571556 23.655811
7.1266017 59.782616 35.357456
7.1432729 59.773579 34.848415
7.2087531 59.710533 31.465986
7.217947 59.702183 31.016193
7.2280893 59.694069 30.575214
7.239336 59.686203 30.142923
7.2675762 59.680042 29.739588
7.2604671 59.670753 29.297173
7.275898 59.66367 28.890247
7.2930374 59.656864 28.491484
7.3012009 59.649361 28.087673
7.3057399 59.641647 27.685537
7.3231688 59.635212 27.304346
7.3206439 59.627098 26.905527
7.3480315 59.621754 26.546164
7.3483758 59.606544 25.781664
7.3663154 59.600655 25.426231
7.3788919 59.579929 24.344017
7.0440297 59.77668 35.334621
7.0700212 59.768566 34.840752
7.1400795 59.705978 31.466219
7.1390243 59.696671 31.002514
7.1645241 59.689995 30.5825
7.1861916 59.683094 30.163937
7.177825 59.673553 29.712891
7.2128205 59.66814 29.324669
7.1964169 59.658142 28.877533
7.2188191 59.651821 28.485577
7.2160878 59.643333 28.068819
7.2313905 59.6366 27.679893
7.25425 59.630653 27.305244
7.2683167 59.624023 26.925507
7.267909 59.616207 26.534662
7.2865129 59.610184 26.170387
7.2793651 59.60199 25.782839
7.3029766 59.596596 25.433542
7.3007164 59.589031 25.061346
7.3067794 59.582287 24.702682
7.3097906 59.575371 24.345474
7.079505 59.702377 31.487238
7.0989671 59.694988 31.051432
7.0731497 59.683517 30.561827
7.1050191 59.677574 30.157324
7.1489816 59.672867 29.774481
7.1367188 59.663101 29.325188
7.1575613 59.656506 28.924881
7.1640801 59.648727 28.512785
7.1668701 59.640739 28.102436
7.1768627 59.633518 27.706841
7.1723433 59.625114 27.300024
7.1918454 59.618973 26.926838
7.2081103 59.612644 26.554947
7.215539 59.605629 26.1782
7.2140312 59.597931 25.79685
7.2376599 59.592541 25.447567
7.2411556 59.585476 25.081364
7.2415047 59.578236 24.716703
7.2329168 59.570313 24.347776
7.2679214 59.566246 24.02693
7.2591696 59.558487 23.666756
7.2741671 59.546013 22.990644
7.2744894 59.539284 22.651787
6.9408135 59.771252 35.406139
7.005827 59.706875 31.958378
7.0092521 59.697823 31.492603
7.0389285 59.691391 31.070856
7.0544424 59.683769 30.636629
7.0711451 59.676395 30.210966
7.0682201 59.667347 29.76652
7.0875831 59.660488 29.357855
7.0819483 59.65147 28.923981
7.0937905 59.64418 28.518629
7.1019893 59.636681 28.114889
7.1120181 59.629463 27.719297
7.1185265 59.622047 27.325302
7.1492133 59.616898 26.96468
7.1377935 59.608101 26.56114
7.1620631 59.602577 26.203093
7.1719799 59.595879 25.833885
7.1787128 59.588997 25.46612
7.1822805 59.581936 25.099848
7.1827016 59.574699 24.735117
7.1858039 59.567787 24.377834
7.2034092 59.562214 24.039421
7.2005744 59.554962 23.684959
7.2157049 59.542492 23.008711
6.859808 59.765854 35.404922
6.8768425 59.75684 34.895851
6.898489 59.74847 34.403622
6.9498291 59.694427 31.520128
6.9491806 59.685143 31.056231
6.9647498 59.677528 30.622196
6.9866991 59.670643 30.203598
6.9786429 59.661121 29.75247
6.9927711 59.653786 29.337263
7.0137782 59.647205 28.937038
7.0258384 59.639931 28.531624
7.0180278 59.630974 28.108181
7.0226941 59.623276 27.706247
7.0402336 59.616848 27.325281
7.0489049 59.609737 26.939348
7.0653229 59.603416 26.567539
7.0729094 59.596416 26.190866
7.0828676 59.589725 25.821869
7.1010237 59.583851 25.466463
7.0875244 59.575298 25.082251
7.1167884 59.570572 24.747471
7.1200833 59.563667 24.39012
7.1203446 59.556595 24.034264
7.1355014 59.543964 23.349806
7.1379962 59.517292 22.002657
6.7896008 59.761776 35.434216
6.7882705 59.750946 34.895008
6.7959375 59.741203 34.380527
6.8082285 59.732105 33.882977
6.8535843 59.669441 30.586729
6.8756194 59.662571 30.168449
6.8938427 59.655476 29.751678
6.8977227 59.647194 29.322989
6.9189363 59.640629 28.922897
6.9151249 59.631905 28.49778
6.9236269 59.624432 28.094311
6.9285069 59.616749 27.692513
6.9242983 59.608372 27.286028
6.9385352 59.601761 26.906849
6.9605899 59.595951 26.54166
6.9682937 59.588963 26.165262
6.9727182 59.581787 25.7904
6.9852538 59.575424 25.42927
6.9832563 59.567883 25.057486
7.0068479 59.562668 24.717052
7.0163922 59.549221 24.010353
7.0196271 59.542496 23.662045
7.0258493 59.53611 23.320826
6.7101383 59.756752 35.446674
6.7140656 59.746414 34.914833
6.7270632 59.737171 34.407604
6.739944 59.728107 33.909821
6.757741 59.719704 33.428692
6.7611074 59.710091 32.934975
6.8148394 59.650318 29.755939
6.824379 59.642544 29.333935
6.8733902 59.589989 26.532875
6.9129567 59.548923 24.339989
6.1326241 59.721813 35.616962
4.8340364 59.631382 35.404175
4.9068341 59.58712 32.94006
5.0281734 59.500092 28.167912
5.0337691 59.484482 27.365755
4.7793474 59.627087 35.370754
4.7781005 59.605896 34.311226
4.8227429 59.599991 33.866116
4.8193994 59.589615 33.356472
4.92237 59.507885 28.911446
4.9414244 59.493053 28.103542
4.7389665 59.61338 34.817383
4.7543802 59.604465 34.318546
4.7456527 59.593399 33.79224
4.7756553 59.586266 33.33419
4.8704343 59.512367 29.309462
4.8798108 59.504761 28.896391
4.8800926 59.496452 28.478394
4.8981943 59.489883 28.088472
4.9019642 59.482136 27.686993
4.9131198 59.475166 27.300074
4.7050633 59.611378 34.829803
4.720284 59.602448 34.330845
4.7355223 59.593704 33.841228
4.7617769 59.576344 32.88237
4.8291578 59.509712 29.313627
4.8383389 59.50209 28.90049
4.8545198 59.495228 28.50227
4.8347101 59.485226 28.06624
4.8599205 59.479424 27.690887
4.8654041 59.471947 27.297483
4.6540709 59.619198 35.392105
4.6460881 59.607788 34.84597
4.6566286 59.598396 34.339535
4.6719251 59.589657 33.849926
4.7166824 59.583931 33.41338
4.7032213 59.572773 32.898323
4.7661004 59.505699 29.322351
4.7700086 59.497597 28.902534
4.7808285 59.49025 28.497768
4.7880211 59.482693 28.094616
4.7861595 59.474442 27.686649
4.8025856 59.467953 27.306217
4.5895424 59.615376 35.415199
4.5866113 59.604446 34.876423
4.5927134 59.594608 34.362392
4.6131325 59.586353 33.880035
4.6289425 59.577831 33.399494
4.6352444 59.568565 32.913597
4.6617393 59.561401 32.46571
4.6999249 59.501602 29.337151
4.7200065 59.494968 28.937325
4.7365227 59.488129 28.538919
4.7278743 59.479122 28.115782
4.7425971 59.472359 27.727144
4.7374363 59.463917 27.320702
4.519074 59.610283 35.394329
4.501843 59.597958 34.833229
4.5459862 59.591835 34.378876
4.5520573 59.582184 33.874245
4.5629945 59.573193 33.386395
4.5741782 59.5644 32.907799
4.5857706 59.555813 32.438354
4.6323786 59.488373 28.8981
4.6594119 59.482498 28.513256
4.6614513 59.474468 28.10342
4.6598001 59.466228 27.695389
4.6709394 59.459259 27.308475
4.4447579 59.603752 35.314064
4.4410872 59.592785 34.775822
4.4560447 59.583839 34.277145
4.4855256 59.576488 33.809887
4.4910617 59.566994 33.315022
4.5164695 59.559586 32.85849
4.5621643 59.490986 29.263258
4.5711098 59.483356 28.850437
4.5709577 59.475021 28.432703
4.6028943 59.461643 27.654766
4.6027422 59.453671 27.255152
4.6100888 59.446484 26.87001
4.3610415 59.596382 35.22316
4.3946886 59.589092 34.745129
4.399817 59.579201 34.231617
4.4047828 59.569489 33.72768
4.4146376 59.56044 33.240524
4.4296842 59.552059 32.769855
4.4402685 59.543423 32.301052
4.500504 59.477524 28.79294
4.5107193 59.470146 28.388674
4.5281339 59.463543 27.999107
4.5148478 59.454281 27.578615
4.5306954 59.447765 27.198679
4.2600441 59.58794 35.135906
4.3074999 59.582024 34.680752
4.3267221 59.573517 34.189804
4.3218679 59.562866 33.671356
4.316833 59.552395 33.162632
4.3512368 59.545887 32.72134
4.3616376 59.537239 32.252769
4.387691 59.530239 31.814564
4.4358778 59.464394 28.349237
4.2102628 59.584934 35.150734
4.2342 59.576706 34.658089
4.2438116 59.567268 34.152447
4.2340016 59.556149 33.6269
4.2483411 59.54755 33.147614
4.2581053 59.538685 32.670246
4.3361349 59.465008 28.712263
4.3605404 59.442722 27.51244
4.1477871 59.580124 35.117512
4.1286578 59.567703 34.557903
4.1470919 59.559162 34.067757
4.1850195 59.552685 33.616215
4.1991687 59.544071 33.136917
4.2235441 59.53661 32.68121
4.2038088 59.525112 32.169857
4.1122646 59.577492 35.103683
4.1022201 59.565971 34.559002
4.1395836 59.559273 34.098309
4.1289806 59.548103 33.573009
4.1670523 59.541809 33.130333
4.1664348 59.531971 32.638466
4.1710567 59.522804 32.163155
4.2211642 59.464695 29.079529
4.2448578 59.458458 28.687614
4.2489491 59.450554 28.277266
4.2601752 59.443417 27.881733
4.2624264 59.435589 27.481312
4.255599 59.427067 27.076258
4.0328569 59.570953 35.040142
4.0698171 59.564049 34.570389
4.0686955 59.553612 34.050354
4.0867376 59.545227 33.569366
4.085494 59.535164 33.068409
4.1140018 59.528126 32.620251
4.13836 59.511414 31.700195
4.1689897 59.452541 28.643335
4.1834559 59.445595 28.246481
4.2057338 59.423538 27.065222
3.9723585 59.566795 35.032928
4.0045562 59.559425 34.555717
3.9985743 59.548519 34.028351
4.006815 59.539192 33.53281
4.0396585 59.532413 33.083008
4.03864 59.522549 32.591381
4.0578351 59.514786 32.137768
3.8970041 59.56123 35.004574
3.9195955 59.552925 34.51263
3.9470575 59.54528 34.037289
3.94574 59.535023 33.52697
3.959043 59.526363 33.048073
3.9924886 59.519802 32.607166
3.9969022 59.510624 32.131916
3.9967933 59.50119 31.658749
3.8609736 59.559326 35.029057
3.8884625 59.551491 34.544319
3.8680596 59.539188 33.994797
3.8858616 59.530792 33.514091
3.9088645 59.523067 33.049789
3.9126484 59.513672 32.565559
3.9167838 59.504482 32.090611
3.9415715 59.497414 31.653191
3.9572322 59.489628 31.210283
3.8019335 59.555012 35.009224
3.819618 59.546234 34.509705
3.8036218 59.534374 33.967812
3.8308072 59.526897 33.501934
3.8437827 59.518219 33.023148
3.8422942 59.508331 32.531883
3.8805768 59.492985 31.634167
3.7705002 59.553314 35.028847
3.7500038 59.540813 34.469589
3.7768509 59.533127 33.994469
3.7991738 59.525177 33.521019
3.8022814 59.515553 33.027519
3.8154855 59.507069 32.557819
3.8592067 59.501648 32.140041
3.8919587 59.433624 28.616898
3.905854 59.418503 27.811651
3.7409258 59.552135 35.068195
3.7348509 59.541031 34.530983
3.7475386 59.531956 34.03323
3.7456996 59.521664 33.52285
3.7585189 59.512974 33.04388
3.7766719 59.504959 32.581272
3.7854638 59.49622 32.113285
3.8049529 59.488651 31.66852
3.815217 59.480366 31.218395
3.6746716 59.547688 35.065536
3.6590152 59.535648 34.513485
3.6571212 59.525169 33.993752
3.6890218 59.518147 33.535023
3.696981 59.508984 33.048729
3.7250378 59.501919 32.600536
3.7189281 59.491756 32.110989
3.7282865 59.483234 31.652111
3.5990949 59.542068 35.035233
3.6260936 59.534199 34.55043
3.6051202 59.521858 34.000851
3.6321557 59.514366 33.534737
3.6547821 59.506611 33.070248
3.6383514 59.495296 32.556995
3.6569061 59.487492 32.10355
3.7267497 59.406616 27.811527
3.5334442 59.537006 34.999985
3.5315299 59.526333 34.470684
3.5725722 59.520031 34.017643
3.5558791 59.50832 33.485348
3.5879436 59.501488 33.035675
3.5860777 59.491573 32.544235
3.5844865 59.481861 32.062199
3.603513 59.47427 31.617792
3.5021353 59.535553 35.031315
3.514775 59.526283 34.523983
3.503221 59.514862 33.989204
3.5301661 59.507362 33.522934
3.5379732 59.498188 33.036514
3.5460737 59.48922 32.559364
3.55463 59.480461 32.091366
3.5587568 59.471451 31.625343
3.5533886 59.461712 31.154346
3.4437871 59.53167 35.030777
3.4809325 59.465702 31.596077
10.302484 59.775829 24.437273
10.307541 59.755577 23.403902
10.316226 59.735947 22.389709
10.334981 59.727409 21.898708
10.323615 59.716518 21.389862
10.336508 59.707645 20.901657
10.359234 59.689846 19.932657
10.335986 59.678307 19.430918
10.370709 59.671406 18.968769
10.347235 59.659988 18.473942
10.36546 59.651897 18.007128
10.369858 59.64278 17.534895
10.371561 59.633511 17.063919
10.376213 59.624519 16.597223
10.395164 59.616676 16.140402
10.383283 59.606518 15.670211
10.380078 59.59708 15.207078
10.385653 59.588352 14.75054
9.6556158 60.033703 39.534977
9.5128222 60.022861 39.466438
9.4440842 60.018845 39.493786
9.3043537 60.008205 39.425335
9.1672716 59.99802 39.370747
8.1112642 59.931141 39.531879
7.9600935 59.919563 39.454475
7.8915076 59.915478 39.477802
6.5473914 59.828266 39.578247
6.2944865 59.810211 39.514503
6.163909 59.80114 39.494278
5.9825745 59.787247 39.401001
5.845428 59.77747 39.367081
4.5291157 59.693001 39.512672
4.3996243 59.684223 39.503315
4.2513762 59.673737 39.470905
3.9366853 59.650528 39.354359
2.7536252 59.576347 39.57238
2.4491944 59.55505 39.517498
2.3144796 59.546066 39.515388
2.1342256 59.532444 39.43214
1.9607048 59.519585 39.36467
1.8343363 59.511574 39.383568
10.067612 59.852562 29.070889
10.069757 59.836132 28.239016
9.9818258 59.918995 32.690971
9.9759197 59.908901 32.204041
9.9863329 59.90049 31.747202
10.003038 59.892807 31.305992
9.9889431 59.882435 30.832344
9.9044018 59.986328 36.328396
9.9237776 59.92588 33.229977
9.9179697 59.915604 32.733505
9.9385672 59.907963 32.281471
10.051844 59.713207 22.129135
10.054145 59.706783 21.799032
10.053772 59.700207 21.4702
10.050742 59.693481 21.142677
10.064159 59.688168 20.831301
9.8825779 59.987175 36.443672
9.8588848 59.973957 35.859146
10.000144 59.751926 24.244728
10.001437 59.744946 23.889948
10.005832 59.738308 23.542158
10.01408 59.718445 22.517736
10.009714 59.698196 21.515949
10.020813 59.686192 20.876457
9.8229046 59.973377 35.949799
9.8009224 59.988697 36.791939
9.7593279 59.965405 35.761574
9.3615923 59.935825 35.601959
9.3423386 59.935925 35.671089
9.2882977 59.932606 35.684536
9.2384348 59.929325 35.685806
9.1765108 59.9245 35.650074
9.1121941 59.919693 35.622978
9.0311375 59.913597 35.58707
9.045681 59.835392 31.61334
8.9653635 59.909069 35.578911
9.0004063 59.832794 31.633839
8.9044886 59.905602 35.607643
8.8346233 59.901535 35.636227
8.7381124 59.894371 35.598137
8.7721624 59.817921 31.647648
8.6557045 59.8881 35.557915
8.6846142 59.811199 31.601955
8.6003084 59.88443 35.55827
8.2270584 59.771236 31.120432
8.2607622 59.765289 30.70966
8.2799568 59.758133 30.286633
8.278964 59.749271 29.845116
8.2896013 59.700336 27.353579
8.2788038 59.625038 23.610239
8.1256323 59.736446 29.712175
8.2061033 59.68602 26.913095
8.2197723 59.67944 26.537302
8.2359619 59.673176 26.168978
8.2548084 59.667233 25.80797
8.1795273 59.631435 24.262087
8.1883793 59.625103 23.91469
8.2278557 59.614506 23.251379
8.2311773 59.574787 21.246729
8.2337875 59.568581 20.926626
8.0656052 59.682346 27.196905
8.1221657 59.67947 26.864019
8.1183386 59.671368 26.470144
8.1574297 59.667118 26.126642
8.1644306 59.660156 25.753901
8.1124086 59.633568 24.592762
8.124198 59.627403 24.244099
8.132905 59.614056 23.545029
8.1481018 59.608414 23.211355
8.2010803 59.572834 21.248949
8.1847868 59.565071 20.913605
7.9807639 59.700336 28.382387
8.0223351 59.671917 26.817585
8.0470915 59.666336 26.45488
8.0513124 59.65905 26.075102
8.0463486 59.651066 25.690916
8.04387 59.643398 25.314444
8.044014 59.636059 24.945524
8.0528746 59.629559 24.589781
8.0587034 59.622883 24.235397
8.0735846 59.617065 23.893713
8.079546 59.610565 23.547617
8.1009197 59.605442 23.21937
8.1441832 59.602226 22.913782
8.1541805 59.596275 22.581833
8.1229477 59.567284 21.230797
8.1256208 59.561085 20.910622
7.9597926 59.660046 26.430027
7.9812622 59.654274 26.068802
7.9996281 59.648319 25.708755
7.9854908 59.639641 25.32028
7.9738216 59.631283 24.93964
8.012435 59.627338 24.612984
8.0064106 59.619644 24.246954
8.0153255 59.613316 23.899553
7.9909639 59.604248 23.525591
8.0366125 59.601181 23.219717
8.0368767 59.594357 22.876215
8.0528002 59.588917 22.550211
8.0660753 59.583324 22.225237
8.0517349 59.575504 21.880503
8.0721836 59.570641 21.568264
8.0775375 59.56459 21.246756
8.0803041 59.558392 20.92643
7.9143043 59.65728 26.442705
7.9183493 59.649986 26.0632
7.948287 59.645042 25.715302
7.9576378 59.638393 25.350552
7.9579182 59.631058 24.981346
7.9609547 59.62405 24.61953
7.9668813 59.617378 24.264933
7.9697905 59.610535 23.911743
7.9818459 59.604549 23.571154
7.9910655 59.5984 23.231764
7.9913216 59.591572 22.888189
8.0010605 59.585613 22.556759
7.9894433 59.577946 22.210657
8.0124054 59.573231 21.897465
8.0203218 59.567329 21.574816
8.0319481 59.561794 21.258364
8.0410528 59.556114 20.942944
7.8358927 59.700111 28.853678
7.8717327 59.655052 26.472826
7.8759499 59.647766 26.093117
7.9119043 59.643337 25.75103
7.9041767 59.627842 24.998919
7.9132638 59.621349 24.642826
7.9193149 59.614681 24.28809
7.9223475 59.607845 23.934755
7.928453 59.601349 23.588448
7.9438653 59.595718 23.254498
7.9442401 59.588894 22.910774
7.9602771 59.583462 22.584558
7.9550223 59.576317 22.243513
7.97192 59.571087 21.924826
7.9674201 59.564152 21.591679
7.9791265 59.558624 21.27516
7.9883089 59.552948 20.959667
7.7958021 59.650108 26.477654
7.8002152 59.642838 26.098017
7.8012862 59.635376 25.719967
7.811244 59.621426 24.986439
7.8442364 59.616985 24.653826
7.8385153 59.60931 24.28764
7.8597932 59.604023 23.951416
7.8600807 59.597031 23.599455
7.8512783 59.589355 23.243477
7.8640065 59.583572 22.910919
7.8678241 59.577118 22.574133
7.8688531 59.570499 22.23867
7.8983397 59.566322 21.930645
7.8940115 59.559399 21.59757
7.9121962 59.554401 21.2862
7.8961935 59.546654 20.950752
7.7226844 59.645039 26.466742
7.7156615 59.636768 26.075024
7.7269459 59.615383 24.964085
7.7421393 59.609421 24.61429
7.7363915 59.601753 24.248541
7.7516007 59.595959 23.907089
7.7578907 59.589485 23.56122
7.7734785 59.583878 23.227715
7.7740388 59.577076 22.884434
7.7840729 59.571144 22.553307
7.7851796 59.564537 22.218069
7.8084898 59.559849 21.905048
7.8042068 59.552933 21.572277
7.790875 59.545345 21.235886
7.8191614 59.541248 20.936043
7.6240139 59.637653 26.424732
7.623991 59.622452 25.661888
7.6394992 59.616348 25.30378
7.6460214 59.609554 24.941082
7.6375065 59.601563 24.568256
7.6676722 59.59697 24.237268
7.6710033 59.59016 23.884518
7.6895304 59.584724 23.549948
7.6869888 59.577583 23.199924
7.6998944 59.571819 22.867731
7.6915488 59.56435 22.520603
7.7051058 59.558788 22.196234
7.7097878 59.552551 21.867723
7.7117839 59.546165 21.54047
7.7300358 59.541183 21.229692
7.7394896 59.535538 20.91481
7.4593234 59.68132 29.165003
7.4863014 59.666973 28.355017
7.4858894 59.658733 27.942804
7.5191665 59.64563 27.174294
7.5135474 59.637272 26.773546
7.5445943 59.63224 26.4177
7.5552111 59.625515 26.044626
7.5392241 59.61657 25.648998
7.5784187 59.612511 25.314768
7.5734634 59.604721 24.940207
7.5771255 59.597767 24.57897
7.6016283 59.592682 24.242121
7.6052599 59.585892 23.889301
7.5877032 59.577393 23.521206
7.6279287 59.573864 23.210075
7.6104846 59.565544 22.850586
7.6331377 59.560669 22.53047
7.6532116 59.555641 22.211237
7.6395264 59.547874 21.866882
7.6480389 59.542019 21.544765
7.6602521 59.536537 21.228855
7.6509252 59.529346 20.899025
7.4158087 59.654621 27.969976
7.4232526 59.647194 27.572269
7.4384499 59.64056 27.188793
7.4616652 59.634739 26.819185
7.4759073 59.62822 26.444651
7.4926562 59.622017 26.077599
7.4828959 59.613605 25.687822
7.4755225 59.605507 25.305906
7.500216 59.600273 24.961033
7.4982228 59.592831 24.594
7.5169759 59.58725 24.25152
7.5268378 59.58099 23.904501
7.5277128 59.574051 23.553205
7.5438857 59.568481 23.219929
7.5450487 59.561726 22.876877
7.5556645 59.555836 22.545982
7.5635605 59.549793 22.216263
7.5687518 59.543591 21.88776
7.5587173 59.536201 21.55023
7.5836887 59.531769 21.244686
7.5999336 59.526676 20.934881
7.3541694 59.6679 28.841736
7.3692708 59.660908 28.440493
7.394227 59.646797 27.649048
7.409873 59.640182 27.265112
7.3878608 59.63036 26.845259
7.419466 59.625362 26.489275
7.4422374 59.619678 26.128189
7.4560695 59.613308 25.762255
7.4432602 59.604721 25.373882
7.4506116 59.597977 25.010984
7.4667172 59.592075 24.661152
7.4619131 59.584469 24.295321
7.4840322 59.579247 23.959496
7.5094247 59.574371 23.630272
7.4894738 59.565735 23.263317
7.4969788 59.559505 22.92556
7.52633 59.555176 22.610575
7.5035801 59.546562 22.253923
7.5214086 59.541405 21.935797
7.5366836 59.536098 21.618622
7.5368161 59.529606 21.292284
7.5596237 59.525043 20.98727
7.3322291 59.684944 29.77034
7.3279362 59.67593 29.332125
7.3656263 59.646088 27.708891
7.3644404 59.637978 27.305727
7.3710203 59.630669 26.916862
7.3798804 59.623661 26.535776
7.3969517 59.617477 26.168409
7.3991747 59.610088 25.790293
7.4274092 59.605057 25.443588
7.4172797 59.59679 25.062542
7.4394546 59.591404 24.718252
7.4407902 59.584312 24.357796
7.4570861 59.578579 24.01589
7.4644656 59.57217 23.669531
7.4567418 59.564564 23.313452
7.4888778 59.560394 22.997223
7.4815011 59.552975 22.649395
7.4835873 59.546425 22.313786
7.4828959 59.539722 21.97953
7.4982467 59.534416 21.662146
7.5173569 59.529484 21.350828
7.5276694 59.52388 21.035368
7.3325992 59.644642 27.746357
7.3484216 59.638035 27.3619
7.3494124 59.630219 26.966389
7.3639274 59.616013 26.205059
7.3836422 59.610146 25.844824
7.3709111 59.601555 25.455986
7.3901672 59.595829 25.10445
7.4183331 59.590946 24.765713
7.3958049 59.581806 24.381897
7.4180517 59.57658 24.045607
7.425395 59.570164 23.699104
7.4359159 59.564098 23.359467
7.4313478 59.556835 23.010134
7.4484897 59.551472 22.683912
7.475379 59.546989 22.369333
7.4498806 59.538208 22.013596
7.4589634 59.532379 21.690828
7.4843445 59.527962 21.384462
7.4819846 59.521317 21.058752
