# .PCD v0.7 - Point Cloud Data file format
VERSION 0.7
FIELDS x y z
SIZE 4 4 4
TYPE F F F
COUNT 1 1 1
WIDTH 1613
HEIGHT 1
VIEWPOINT 0 0 0 1 0 0 0
POINTS 1613
DATA ascii
11.450957 52.406418 21.707603
11.452689 52.385159 21.131224
11.453108 52.381191 20.858328
11.453328 52.38015 20.593155
11.45439 52.366459 20.316107
11.455604 52.350452 20.040443
11.455199 52.358692 19.797932
11.456345 52.343632 19.531101
11.457277 52.331753 19.271843
11.457266 52.334003 19.032272
11.458467 52.318027 18.775375
11.458709 52.316418 18.537819
11.45944 52.307426 18.295282
11.460299 52.29652 18.053867
11.460538 52.294876 17.825186
11.461267 52.285851 17.591686
11.461739 52.280663 17.364908
11.461947 52.279415 17.144663
11.463404 52.259373 16.908751
11.463455 52.260456 16.695862
11.46476 52.242645 16.467655
11.465408 52.234688 16.25123
11.465776 52.230938 16.040962
11.466635 52.219784 15.826385
11.467207 52.212917 15.617867
11.467486 52.210438 15.415206
11.467862 52.206497 15.213293
11.46873 52.195133 15.007319
11.468899 52.194263 14.811801
11.469958 52.179966 14.607591
11.469911 52.182339 14.418172
11.472314 52.150993 13.831469
11.473024 52.141888 13.640475
11.473002 52.143795 13.458689
11.444349 52.4981 22.69038
11.446604 52.471718 21.792809
11.447013 52.467968 21.509909
11.447921 52.456711 21.221552
11.448645 52.448174 20.941195
11.449868 52.432087 20.655594
11.450205 52.429298 20.390903
11.450683 52.424335 20.127329
11.450949 52.422527 19.871252
11.451707 52.413296 19.609949
11.451889 52.412697 19.362289
11.453281 52.393875 19.097191
11.454091 52.383781 18.845673
11.454669 52.377151 18.601345
11.455006 52.374104 18.364038
11.455464 52.369198 18.127707
11.456416 52.356869 17.886591
11.456744 52.35387 17.658094
11.457564 52.343472 17.424875
11.458124 52.336941 17.19833
11.459558 52.317257 16.96176
11.458821 52.330185 16.759073
11.459717 52.318554 16.535408
11.460723 52.305233 16.312811
11.461839 52.290226 16.091307
11.461508 52.296989 15.891456
11.462444 52.284649 15.676975
11.463092 52.276642 15.468499
11.46384 52.267105 15.260918
11.464686 52.256062 15.054255
11.464835 52.255505 14.858046
11.465475 52.24754 14.657817
11.465808 52.244194 14.463024
11.465827 52.245552 14.273457
11.46803 52.217197 13.691078
11.468397 52.213264 13.504212
11.469997 52.193821 12.94757
11.471478 52.174572 12.579963
11.441713 52.542747 22.15451
11.442271 52.536823 21.862862
11.442992 52.528423 21.572514
11.443533 52.522678 21.290182
11.444228 52.514565 21.009108
11.445773 52.493687 20.716242
11.445735 52.496521 20.457365
11.44689 52.481419 20.180231
11.447134 52.479942 19.923546
11.447515 52.476387 19.667908
11.44839 52.465385 19.407148
11.448682 52.4631 19.159924
11.449468 52.453388 18.907644
11.450749 52.436172 18.650549
11.450699 52.438957 18.418539
11.451506 52.428837 18.17564
11.452065 52.422394 17.939678
11.45312 52.408489 17.69903
11.453172 52.409649 17.476528
11.453712 52.403442 17.249258
11.454365 52.3955 17.02297
11.455513 52.380085 16.792257
11.455626 52.380226 16.578791
11.456229 52.372978 16.360809
11.456939 52.364098 16.143768
11.457755 52.3536 15.927696
11.458285 52.347389 15.717674
11.458917 52.339634 15.508518
11.459647 52.330353 15.300256
11.459685 52.331501 15.102568
11.460214 52.325245 14.900758
11.460836 52.317543 14.69976
11.461152 52.314465 14.504191
11.461961 52.303928 14.304802
11.462052 52.304184 14.115173
11.462637 52.297005 13.921765
11.463717 52.282322 13.724833
11.46407 52.278606 13.537254
11.464507 52.273605 13.35032
11.465028 52.267326 13.164048
11.465219 52.266022 12.982429
11.467101 52.242229 12.433435
11.467611 52.236061 12.254251
11.468198 52.228706 12.075679
11.469182 52.216843 11.723845
11.438536 52.593048 21.914303
11.439758 52.579498 21.34046
11.44078 52.566513 21.052195
11.441614 52.556293 20.771891
11.441904 52.554211 20.505869
11.442689 52.544666 20.234547
11.443266 52.5382 19.970844
11.443629 52.534924 19.714596
11.444128 52.529583 19.459429
11.445483 52.511341 19.19311
11.445529 52.512741 18.952477
11.446064 52.50676 18.706757
11.446727 52.498837 18.462116
11.447886 52.483421 18.21273
11.44806 52.482788 17.981983
11.448725 52.474754 17.746412
11.449134 52.470547 17.517546
11.450035 52.458904 17.284056
11.450675 52.451168 17.057184
11.451047 52.447453 16.836742
11.451911 52.436302 16.611834
11.452887 52.42345 16.387989
11.453197 52.420574 16.175631
11.454001 52.410275 15.958965
11.454127 52.410145 15.753391
11.454744 52.402611 15.543559
11.455068 52.39949 15.339515
11.45628 52.382946 15.126587
11.4564 52.382851 14.928989
11.457412 52.369293 14.722708
11.456914 52.378471 14.535782
11.458114 52.362049 14.331181
11.45779 52.36858 14.145361
11.458769 52.355453 13.946889
11.459023 52.353237 13.757895
11.459773 52.343548 13.565322
11.460199 52.338718 13.377673
11.461535 52.320164 13.182602
11.461302 52.325233 13.00438
11.462394 52.310326 12.814894
11.46232 52.312981 12.63769
11.46316 52.301849 12.45346
11.463242 52.302139 12.277267
11.46382 52.294933 12.097964
11.464476 52.286533 11.919291
11.465631 52.270576 11.73787
11.466019 52.26622 11.563902
11.468197 52.240639 10.707921
11.435523 52.640717 21.687639
11.437007 52.623196 21.115149
11.438771 52.601303 20.554554
11.43918 52.597408 20.289103
11.440426 52.583107 19.761658
11.44126 52.572731 19.499739
11.441151 52.576492 19.257469
11.44262 52.556519 18.991817
11.443135 52.550846 18.745607
11.443411 52.548748 18.506397
11.44418 52.539219 18.2623
11.444702 52.53336 18.025127
11.444971 52.531277 17.794693
11.445733 52.521763 17.559536
11.446237 52.516121 17.331036
11.446854 52.508728 17.103508
11.447968 52.493855 16.871561
11.448046 52.494537 16.656834
11.449387 52.476196 16.427046
11.448903 52.485298 16.224491
11.450074 52.469475 16.001951
11.450571 52.463768 15.790648
11.450777 52.46244 15.585182
11.45187 52.44772 15.370657
11.452273 52.443378 15.166839
11.452772 52.437572 14.963802
11.452967 52.436344 14.766241
11.453253 52.433723 14.569352
11.454032 52.423637 14.368645
11.454096 52.424339 14.177679
11.455059 52.411461 13.978582
11.455297 52.409492 13.788955
11.456032 52.400036 13.59575
11.456031 52.401649 13.411583
11.456525 52.395794 13.223877
11.457516 52.38242 13.032888
11.457763 52.380264 12.85052
11.458923 52.364311 12.661108
11.458913 52.366001 12.48375
11.45982 52.353859 12.299547
11.460385 52.346836 12.119673
11.460186 52.351364 11.947376
11.460906 52.342003 11.768611
11.461278 52.337875 11.593818
11.462151 52.326191 11.416311
11.462839 52.318729 11.072589
11.464197 52.30257 10.562046
11.432813 52.683678 21.47596
11.433077 52.682068 21.199587
11.434187 52.667747 20.911287
11.434407 52.666721 20.643866
11.435476 52.652946 20.364729
11.435989 52.647469 20.099672
11.436645 52.639828 19.835787
11.437082 52.635418 19.579313
11.437655 52.628944 19.32395
11.438363 52.620415 19.069727
11.43884 52.615334 18.822676
11.439445 52.608299 18.576696
11.439808 52.60487 18.337671
11.440665 52.59399 18.093857
11.441275 52.586815 17.856922
11.442004 52.577797 17.62104
11.442098 52.578323 17.397381
11.442682 52.571445 17.169046
11.44338 52.562824 16.941711
11.444577 52.546696 16.710049
11.444732 52.546219 16.495415
11.44499 52.544151 16.281565
11.445743 52.534645 16.063396
11.446601 52.523514 15.84621
11.446778 52.522621 15.639987
11.447053 52.520233 15.434495
11.447823 52.510391 15.224934
11.44909 52.493019 15.011556
11.448858 52.498211 14.817967
11.449119 52.495995 14.620303
11.449872 52.486309 14.418812
11.450315 52.481297 14.222627
11.450441 52.481045 14.031534
11.45147 52.467163 13.832478
11.451363 52.470425 13.646958
11.452159 52.460026 13.453672
11.452217 52.460743 13.269288
11.452771 52.453968 13.081455
11.453409 52.445919 12.894319
11.45413 52.436604 12.707894
11.454515 52.432343 12.525924
11.454561 52.433201 12.348183
11.455524 52.420193 12.163769
11.456147 52.412319 11.983617
11.456001 52.416039 11.8109
11.456777 52.405834 11.631886
11.457629 52.394455 11.453547
11.457705 52.394794 11.282199
11.4585 52.385731 10.937667
11.460519 52.361023 10.257281
11.430294 52.723713 21.265953
11.431523 52.712173 20.448507
11.432346 52.702061 20.176296
11.433357 52.691269 19.654432
11.433529 52.69083 19.404444
11.434196 52.682945 19.149384
11.434996 52.673016 18.895494
11.435195 52.672096 18.654663
11.436256 52.658184 18.403074
11.436706 52.653439 18.16433
11.437278 52.646835 17.9266
11.43797 52.638382 17.689922
11.438406 52.633781 17.459892
11.438577 52.633137 17.236326
11.438858 52.630806 17.013605
11.440017 52.61525 16.78105
11.440907 52.603714 16.554968
11.441522 52.596302 16.335165
11.441464 52.598984 16.126577
11.441898 52.594257 15.913611
11.443221 52.576122 15.691542
11.443073 52.580128 15.490265
11.444209 52.564766 15.275107
11.444652 52.559834 15.070529
11.44519 52.553432 14.866748
11.445021 52.55769 14.672979
11.446151 52.542355 14.466185
11.445757 52.549961 14.278175
11.446668 52.537891 14.077494
11.447263 52.53056 13.882002
11.447537 52.528049 13.691487
11.44831 52.518028 13.497479
11.447931 52.525345 13.316422
11.449288 52.506466 13.119852
11.449073 52.511299 12.939837
11.450187 52.496071 12.748796
11.450549 52.492161 12.566093
11.450992 52.487034 12.383977
11.451093 52.487053 12.206026
11.452114 52.473164 12.021572
11.452702 52.467331 11.668355
11.452682 52.469124 11.495734
11.453588 52.456928 11.317171
11.454144 52.450027 11.142382
11.454344 52.448479 10.971135
11.454616 52.445843 10.800296
11.45539 52.435612 10.627058
11.42962 52.749577 19.468462
11.43103 52.732632 18.95812
11.431201 52.73214 18.716591
11.431496 52.729763 18.476009
11.432657 52.714325 18.224834
11.433203 52.708134 17.986389
11.433493 52.705746 17.754637
11.4339 52.701576 17.523811
11.434422 52.695644 17.293943
11.435061 52.687962 17.065062
11.435429 52.684311 16.84255
11.436679 52.667377 16.610371
11.436881 52.66618 16.395029
11.437577 52.657528 16.175356
11.437206 52.664928 15.971827
11.438111 52.653103 15.753902
11.439516 52.633709 15.532096
11.439839 52.6306 15.325981
11.440659 52.620007 15.115883
11.440376 52.62598 14.920757
11.44139 52.612427 14.712345
11.441291 52.615616 14.518487
11.441279 52.617466 14.325177
11.441763 52.611847 14.128073
11.442745 52.59869 13.927429
11.443001 52.596489 13.736122
11.444164 52.580563 13.537191
11.444181 52.581928 13.351371
11.444695 52.575794 13.162092
11.445292 52.568371 12.973501
11.445556 52.565964 12.789423
11.445901 52.562328 12.605912
11.447165 52.5448 12.415691
11.446831 52.551399 12.240655
11.447414 52.544125 12.058943
11.447654 52.542038 11.881268
11.448394 52.532383 11.700764
11.448786 52.527977 11.524165
11.448826 52.52887 11.351242
11.449367 52.522202 11.175622
11.449982 52.5144 11.000557
11.45067 52.505478 10.826061
11.45057 52.508457 10.657792
11.450971 52.50386 10.487054
11.452843 52.481346 9.8111486
11.454424 52.461712 9.3117466
11.423746 52.831509 20.291828
11.423962 52.830498 20.032108
11.425166 52.816776 19.509747
11.425431 52.814941 19.259439
11.425826 52.811119 19.010157
11.426719 52.799789 18.756004
11.427004 52.797558 18.514788
11.427413 52.793442 18.274553
11.428319 52.781826 18.029615
11.428598 52.779613 17.797144
11.428995 52.775616 17.565598
11.429888 52.764126 17.329512
11.430517 52.756573 17.099977
11.430493 52.758839 16.882154
11.431733 52.74205 16.649252
11.431926 52.741013 16.433165
11.432222 52.738384 16.217876
11.433016 52.728268 15.99836
11.433915 52.716526 15.77984
11.433734 52.721039 15.577042
11.435237 52.700169 15.355543
11.434853 52.70771 15.159002
11.43576 52.69577 14.948938
11.435963 52.694439 14.749025
11.436662 52.685608 14.545279
11.43705 52.681446 14.346826
11.437121 52.682037 14.153456
11.438099 52.668964 13.952115
11.438759 52.660667 13.755898
11.438684 52.663425 13.568708
11.439106 52.658688 13.377967
11.440442 52.640141 13.17997
11.440204 52.645329 12.998504
11.440463 52.643013 12.813622
11.44122 52.633152 12.625584
11.441222 52.634697 12.445566
11.442565 52.615986 12.255313
11.442724 52.615124 12.076429
11.443384 52.606697 11.894624
11.443273 52.609905 11.720092
11.444087 52.599129 11.539444
11.444551 52.593624 11.362627
11.445518 52.580505 11.183285
11.444846 52.592155 11.016582
11.445532 52.583279 10.841261
11.445861 52.579788 10.669337
11.446692 52.568687 10.495119
11.447165 52.563019 10.324162
11.447273 52.562836 10.156231
11.448319 52.548466 9.9836569
11.448131 52.552761 9.8189211
11.449791 52.53336 9.1536064
11.450374 52.525955 8.9882298
11.420834 52.886597 19.039387
11.422011 52.873051 18.542768
11.423605 52.855133 17.823214
11.424132 52.85112 17.365265
11.424759 52.843628 17.134935
11.4255 52.834385 16.905617
11.42558 52.835056 16.687866
11.426933 52.816559 16.455318
11.427621 52.808048 16.234243
11.428023 52.803814 16.019176
11.42853 52.798 15.80496
11.428742 52.796585 15.596501
11.429452 52.787678 15.383975
11.430661 52.771202 15.167634
11.431173 52.76524 14.961706
11.430975 52.769951 14.765752
11.431271 52.767208 14.565821
11.432064 52.756935 14.362166
11.432137 52.757515 14.168086
11.433117 52.744419 13.966056
11.433779 52.736095 13.769139
11.433705 52.738846 13.581226
11.434129 52.734085 13.389771
11.435053 52.721756 13.195035
11.436065 52.708092 13.001146
11.436329 52.705708 12.815701
11.436255 52.708416 12.634525
11.436678 52.703583 12.450143
11.437604 52.691166 12.262815
11.437344 52.696651 12.086658
11.438431 52.681789 11.900663
11.438747 52.678532 11.722082
11.438288 52.687004 11.55044
11.440037 52.662102 11.363319
11.439724 52.668324 11.192487
11.440771 52.654003 11.012973
11.440603 52.658035 10.842849
11.440937 52.65448 10.670176
11.442206 52.636761 10.492503
11.442684 52.631004 10.32088
11.4428 52.630733 10.152272
11.442983 52.629417 9.9839735
11.443234 52.627056 9.816
11.443943 52.619225 9.4810867
11.444399 52.613762 9.3141747
11.444921 52.607277 9.147644
11.419558 52.920212 17.400238
11.421836 52.895386 16.281242
11.423013 52.879513 16.05521
11.423116 52.879776 15.845198
11.42411 52.866585 15.626141
11.424416 52.863777 15.417739
11.424818 52.859474 15.210101
11.425319 52.853687 15.003253
11.425512 52.852501 14.80179
11.425798 52.849899 14.601004
11.426991 52.833633 14.392081
11.427057 52.834332 14.197211
11.42803 52.821335 13.994407
11.427863 52.825512 13.805068
11.428606 52.815964 13.607992
11.429438 52.805054 13.411722
11.430358 52.792789 13.216276
11.430532 52.791763 13.0294
11.431208 52.783176 12.839286
11.431129 52.785973 12.657297
11.431127 52.787575 12.475725
11.432469 52.768871 12.283974
11.432204 52.774433 12.10699
11.432863 52.766037 11.923564
11.433601 52.756435 11.740788
11.434418 52.745628 11.558681
11.434885 52.740101 11.380385
11.434998 52.739902 11.205669
11.436045 52.725601 11.02542
11.435444 52.736176 10.857416
11.436639 52.719604 10.678321
11.436611 52.721504 10.508122
11.437087 52.715786 10.335579
11.4372 52.715557 10.166041
11.438251 52.701107 9.9918995
11.438068 52.705341 9.8255367
11.438826 52.695343 9.6547689
11.439215 52.690907 9.4867268
11.414805 52.989803 17.687195
11.416206 52.97456 16.997406
11.417029 52.964066 16.767656
11.417189 52.963558 16.549332
11.417453 52.961441 16.331799
11.418215 52.951809 16.110048
11.41948 52.934586 15.88433
11.419665 52.933601 15.674426
11.420747 52.919102 15.45565
11.420333 52.927113 15.256855
11.421618 52.909512 15.039932
11.421795 52.908577 14.837847
11.421256 52.91843 14.64543
11.42243 52.902443 14.435725
11.423294 52.891113 14.231392
11.423433 52.890705 14.036477
11.424071 52.882751 13.837983
11.424387 52.879646 13.644373
11.425203 52.868973 13.447383
11.425278 52.869484 13.259101
11.426269 52.856148 13.063616
11.426093 52.860413 12.880338
11.427675 52.838135 12.682655
11.428083 52.833561 12.496894
11.42815 52.834126 12.315268
11.428295 52.833504 12.134091
11.428942 52.825294 11.950006
11.429668 52.815865 11.766573
11.430474 52.805237 11.583803
11.430502 52.806343 11.407971
11.430604 52.806332 11.232508
11.431209 52.798706 11.05447
11.431458 52.796448 10.879875
11.431347 52.799614 10.708489
11.43174 52.79517 10.534657
11.433073 52.776505 10.356022
11.432741 52.782993 10.18835
11.433784 52.768688 10.013447
11.434464 52.759876 9.8415775
11.43434 52.763218 9.6747885
11.435158 52.752293 9.5037775
11.435607 52.746941 9.3354197
11.43583 52.746445 9.0037508
11.436481 52.738022 8.8364048
11.436759 52.735249 8.6712542
11.439127 52.70647 7.8497267
11.40781 53.082607 19.217575
11.408848 53.071228 18.716589
11.410027 53.057617 18.225737
11.411396 53.043011 17.516966
11.412643 53.028122 17.053062
11.413053 53.023872 16.8279
11.413572 53.017944 16.603645
11.413419 53.022125 16.390549
11.414546 53.007 16.163004
11.414996 53.002068 15.946518
11.415549 52.995552 15.730892
11.416604 52.981464 15.511344
11.416964 52.977818 15.302322
11.417422 52.972679 15.094083
11.417575 52.972134 14.891224
11.417821 52.970161 14.689035
11.418159 52.966774 14.48754
11.419 52.955818 14.282416
11.418704 52.96196 14.090979
11.419729 52.948185 13.887424
11.420434 52.939217 13.688911
11.420401 52.941372 13.49925
11.421699 52.923435 13.298248
11.421837 52.922985 13.109846
11.422057 52.921272 12.921979
11.42278 52.911968 12.730963
11.423587 52.901382 12.540683
11.424056 52.895889 12.3547
11.424605 52.889168 12.169327
11.424385 52.894051 11.99134
11.425093 52.884926 11.807076
11.425025 52.887493 11.629903
11.425888 52.875992 11.446817
11.425972 52.876263 11.270525
11.42699 52.862411 11.088682
11.427221 52.860413 10.913337
11.427959 52.850769 10.735605
11.427905 52.853088 10.563898
11.427921 52.854332 10.392467
11.428878 52.841358 10.216236
11.428599 52.847034 10.048031
11.4297 52.831879 9.8728476
11.430434 52.822224 9.7006302
11.430364 52.824757 9.5333452
11.430799 52.819622 9.3641319
11.431303 52.813454 9.1952972
11.431435 52.812904 9.0288048
11.432074 52.804676 8.8606825
11.432339 52.802094 8.6947584
11.433509 52.787235 8.3621035
11.406122 53.118378 18.048046
11.408425 53.093544 16.887157
11.409523 53.080799 16.437939
11.409843 53.07785 16.219788
11.410664 53.067345 15.997508
11.411194 53.061176 15.781121
11.412625 53.041428 15.555996
11.411764 53.056183 15.360483
11.4126 53.045368 15.146662
11.413134 53.039093 14.938372
11.413359 53.037445 14.735405
11.413677 53.03437 14.533128
11.414906 53.01757 14.322871
11.415002 53.017807 14.126459
11.414776 53.022907 13.934831
11.415461 53.014252 13.735443
11.416651 52.997967 13.532822
11.416685 52.999092 13.343019
11.417221 52.992641 13.149864
11.417424 52.991207 12.961191
11.41813 52.98217 12.769364
11.418499 52.978203 12.581895
11.419373 52.96661 12.39147
11.419906 52.96014 12.205278
11.42052 52.952438 12.019711
11.419936 52.962826 11.84468
11.421134 52.946289 11.656955
11.420699 52.954391 11.482602
11.421197 52.948421 11.302346
11.4222 52.934788 11.11967
11.422419 52.933006 10.943488
11.423143 52.923569 10.764918
11.423076 52.926098 10.592372
11.424381 52.907852 10.412207
11.424023 52.914764 10.243024
11.424169 52.914043 10.071512
11.425259 52.899052 9.8955631
11.425982 52.889565 9.72258
11.425901 52.892254 9.5545301
11.425888 52.893921 9.3866711
11.426822 52.881264 9.2149439
11.426503 52.887524 9.049634
11.427574 52.872776 8.8787861
11.428271 52.863655 8.710309
11.428153 52.866886 8.5456533
11.428542 52.862431 8.3794909
11.428997 52.856972 8.2136164
11.429518 52.85051 8.0480423
11.402804 53.174404 17.394833
11.405565 53.142395 16.260471
11.40558 53.144028 16.047432
11.406092 53.138145 15.830211
11.407107 53.124672 15.609059
11.407027 53.127678 15.403158
11.407445 53.123165 15.193222
11.408365 53.111069 14.979505
11.408575 53.109657 14.775761
11.408878 53.106815 14.572702
11.409684 53.09639 14.366008
11.410175 53.090698 14.164465
11.410347 53.089806 13.967857
11.410606 53.087574 13.771863
11.410954 53.084003 13.5765
11.411805 53.072819 13.377845
11.412329 53.06657 13.183887
11.413357 53.052689 12.986837
11.413633 53.05014 12.798069
11.414413 53.039974 12.606247
11.414855 53.034904 12.418715
11.415379 53.028587 12.231788
11.415558 53.027458 12.048862
11.415815 53.025143 11.866413
11.416578 53.015182 11.681245
11.416135 53.02343 11.506144
11.416623 53.017593 11.325143
11.416758 53.017097 11.14765
11.416966 53.015476 10.970549
11.418114 52.999653 10.788263
11.418905 52.989208 10.60945
11.418902 52.990757 10.436505
11.41897 52.991226 10.263846
11.419545 52.984032 10.08903
11.420192 52.975739 9.9146986
11.420472 52.972977 9.7431593
11.421261 52.962528 9.5697613
11.42168 52.957638 9.3990135
11.42173 52.958355 9.2306786
11.421847 52.958042 9.0625601
11.422914 52.943363 8.8909454
11.422724 52.947674 8.725255
11.423485 52.937607 8.5562668
11.423871 52.933205 8.3893309
11.424766 52.921093 8.2211599
11.425284 52.914673 8.0548964
11.42498 52.920704 7.8916426
11.42563 52.9123 7.7258458
11.4259 52.909634 7.5615635
11.403234 53.186775 15.224738
11.402934 53.193058 15.024132
11.403539 53.185711 14.815037
11.403811 53.185085 14.412407
11.40429 53.179581 14.209922
11.405273 53.166451 14.004002
11.40511 53.170597 13.811316
11.405864 53.160919 13.611056
11.406707 53.14986 13.411606
11.40764 53.137432 13.212986
11.407825 53.136295 13.022781
11.407671 53.140236 12.836826
11.408442 53.130219 12.644032
11.409298 53.118904 12.451988
11.409814 53.112713 12.264166
11.40956 53.118134 12.083715
11.40981 53.115944 11.900282
11.410993 53.099648 11.710917
11.411829 53.088573 11.525519
11.411455 53.095776 11.349947
11.412447 53.082336 11.165699
11.412653 53.080761 10.987933
11.412932 53.078056 10.810574
11.413287 53.074226 10.633638
11.413714 53.069279 10.457141
11.415956 53.03688 10.270928
11.41566 53.04287 10.100608
11.41587 53.041191 9.9280624
11.41571 53.045074 9.7581348
11.415621 53.047913 9.5883818
11.416478 53.036423 9.4145832
11.416526 53.037167 9.2453938
11.417083 53.030212 9.0744734
11.417708 53.022209 8.9039564
11.41796 53.019855 8.735631
11.417836 53.023174 8.5692539
11.418222 53.018787 8.4013739
11.419118 53.006676 8.2322617
11.419637 53.000256 8.0650511
11.420222 52.992832 7.8981547
11.420873 52.984402 7.7315836
11.4207 52.988453 7.5676961
11.421037 52.984783 7.4027286
11.421437 52.980133 7.2379527
11.421904 52.974499 7.0733819
11.423241 52.9585 6.5816765
11.397916 53.270638 14.85723
11.398611 53.261909 14.648122
11.398994 53.257877 14.444209
11.39947 53.252422 14.24102
11.400039 53.245556 14.038576
11.400286 53.24353 13.840998
11.400621 53.240154 13.644047
11.401045 53.235443 13.447743
11.401137 53.235703 13.255968
11.401734 53.228348 13.06094
11.403259 53.206974 12.859221
11.403607 53.203335 12.669402
11.404039 53.198429 12.480168
11.405403 53.179447 12.284625
11.405149 53.184872 12.103518
11.406254 53.169785 11.912849
11.405728 53.179295 11.735829
11.406564 53.16824 11.549612
11.407479 53.155968 11.364084
11.40718 53.162041 11.188137
11.407386 53.160469 11.009539
11.408099 53.151226 10.828556
11.40802 53.153946 10.653576
11.409318 53.135841 10.470996
11.412796 53.087776 9.9328012
11.411327 53.111469 9.7693043
11.411241 53.114265 9.5988722
11.411223 53.11602 9.428628
11.412154 53.103413 9.254528
11.412273 53.103069 9.0848732
11.41202 53.108376 8.9173079
11.413159 53.092602 8.7444973
11.413483 53.089161 8.5756607
11.41343 53.091412 8.4086962
11.414775 53.07251 8.2373018
11.414412 53.079456 8.0722637
11.414557 53.078686 7.9058495
11.415659 53.06345 7.7370782
11.415491 53.067425 7.5723238
11.416725 53.050175 7.4043298
11.416687 53.052177 7.2398591
11.41716 53.04644 7.0745115
11.417698 53.039726 6.9093809
11.417853 53.038792 6.7452154
11.41852 53.030121 6.580471
11.418804 53.027237 6.416543
11.392101 53.356686 15.104246
11.394798 53.324757 14.071753
11.396204 53.306953 13.667605
11.395792 53.31485 13.478539
11.396718 53.302544 13.27825
11.396894 53.30154 13.086357
11.397576 53.2929 12.891313
11.398343 53.282951 12.696992
11.398773 53.278091 12.506947
11.399284 53.271976 12.3175
11.399879 53.26461 12.128671
11.400126 53.262455 11.943761
11.400882 53.252632 11.756138
11.400859 53.254555 11.575424
11.401772 53.242313 11.388992
11.402334 53.235386 11.20622
11.402973 53.22728 11.024001
11.402388 53.237663 10.850717
11.403177 53.227276 10.669407
11.404912 53.202568 10.483464
11.406055 53.191315 9.7836466
11.40641 53.18745 9.6101685
11.406835 53.182518 9.437048
11.406007 53.196518 9.2703753
11.406569 53.189487 9.0977564
11.406759 53.188087 8.927392
11.407903 53.172256 8.7537346
11.40823 53.168774 8.5840425
11.408625 53.164261 8.4146214
11.409086 53.158726 8.2454844
11.409616 53.152164 8.0766459
11.410212 53.144588 7.9081182
11.41132 53.129261 7.7386656
11.410712 53.1399 7.5743818
11.411061 53.136059 7.4077744
11.411475 53.131226 7.2413583
11.411955 53.125401 7.0751472
11.412946 53.111824 6.9083362
11.413555 53.104015 6.7426591
11.413782 53.102001 6.577868
11.414877 53.088264 6.248076
11.386632 53.435673 15.562632
11.388363 53.41674 14.71982
11.389195 53.407688 14.309587
11.391139 53.385201 13.506037
11.391221 53.385628 13.312735
11.391809 53.378422 13.116184
11.392485 53.369888 12.920335
11.393246 53.360035 12.725208
11.394093 53.348877 12.530823
11.3946 53.342834 12.340643
11.394763 53.341984 12.154444
11.395006 53.339916 11.968713
11.395757 53.330173 11.780269
11.396588 53.319191 11.592493
11.397069 53.313499 11.408438
11.397196 53.313148 11.227869
11.397831 53.305107 11.044821
11.398108 53.302452 10.865127
11.398896 53.292088 10.683152
11.401939 53.247627 10.488705
11.401772 53.256199 9.7940321
11.401247 53.265644 9.6242599
11.401231 53.267391 9.4523964
11.401724 53.261421 9.2787123
11.402287 53.254383 9.1054134
11.402036 53.25967 8.9362144
11.40318 53.243832 8.7617931
11.403065 53.247047 8.593008
11.404792 53.222374 8.4179516
11.404812 53.22353 8.2497206
11.405343 53.216946 8.0801945
11.405497 53.216076 7.9123139
11.405717 53.214203 7.7445855
11.406448 53.204575 7.5758615
11.4068 53.200691 7.4085627
11.407218 53.195808 7.2414551
11.407701 53.18993 7.0745521
11.407804 53.189827 6.9086795
11.408417 53.181969 6.742137
11.408648 53.179893 6.5764766
11.4102 53.159248 6.2444849
11.386955 53.448353 13.542305
11.387442 53.442688 13.344427
11.387836 53.440083 12.958115
11.388989 53.425941 12.5705
11.389482 53.420147 12.379421
11.391335 53.393764 12.17886
11.390285 53.411243 12.0024
11.391451 53.395233 11.809929
11.39184 53.390934 11.624524
11.391877 53.391953 11.442671
11.392855 53.378761 11.255285
11.393478 53.370895 11.071485
11.393745 53.368408 10.891037
11.393654 53.371353 10.713706
11.397556 53.3139 10.513097
11.397351 53.323074 9.8153791
11.396817 53.332657 9.6448412
11.396792 53.334545 9.4722109
11.396836 53.335377 9.2997789
11.397833 53.321785 9.1236877
11.398017 53.320499 8.9518671
11.399155 53.30476 8.7767582
11.399477 53.301365 8.6056061
11.399423 53.303661 8.4363165
11.400325 53.291477 8.264123
11.400405 53.291721 8.0952406
11.401443 53.277466 7.9238276
11.401658 53.275673 7.7554059
11.401494 53.279625 7.5883098
11.402287 53.269066 7.4190688
11.402254 53.271015 7.2521672
11.402287 53.271976 7.0852947
11.402831 53.265175 6.9176521
11.403441 53.257374 6.7502389
11.404564 53.241802 6.5824285
11.404858 53.238792 6.416153
11.405663 53.22802 6.249506
11.380466 53.537464 14.611952
11.381597 53.525658 13.999496
11.382297 53.516819 13.79542
11.383134 53.507576 13.397394
11.383265 53.507278 13.203164
11.383903 53.499321 13.00577
11.384627 53.490032 12.809091
11.384591 53.492233 12.620216
11.385061 53.486774 12.428316
11.385613 53.480053 12.237023
11.387105 53.459148 12.03978
11.387396 53.45636 11.85313
11.387767 53.452358 11.666978
11.388216 53.447155 11.48134
11.389176 53.434231 11.293277
11.388484 53.446262 11.117427
11.389166 53.437519 10.933269
11.38949 53.434177 10.752396
11.391633 53.403336 10.561461
11.395741 53.347313 9.8365183
11.392557 53.396988 9.678936
11.392958 53.392441 9.5034285
11.392547 53.400169 9.332346
11.393529 53.386799 9.1554728
11.393256 53.392426 8.9847403
11.394381 53.376907 8.8087597
11.394689 53.373734 8.6367464
11.395509 53.362793 8.4634008
11.395954 53.357529 8.2920208
11.396023 53.357967 8.122364
11.396158 53.357384 7.9528427
11.396807 53.349037 7.7822151
11.397522 53.339664 7.6119227
11.397859 53.336033 7.4430604
11.398261 53.331387 7.2743874
11.398284 53.332508 7.1068239
11.398818 53.325859 6.9384804
11.399419 53.318211 6.7703652
11.400085 53.309563 6.6024909
11.400371 53.306694 6.4354305
11.400721 53.302841 6.2684627
11.376813 53.595905 14.265977
11.378419 53.576859 13.655303
11.37958 53.564404 13.062572
11.380705 53.549091 12.861445
11.381096 53.546486 12.479208
11.382054 53.533638 12.283791
11.381815 53.538872 12.099058
11.382941 53.523483 11.904988
11.382861 53.526302 11.72114
11.38372 53.514919 11.531537
11.383796 53.515358 11.348562
11.383948 53.514637 11.165964
11.385045 53.49963 10.978159
11.384916 53.503139 10.79925
11.386605 53.479172 10.610067
11.390079 53.434307 9.7096424
11.390027 53.436619 9.5358315
11.390485 53.431198 9.3601751
11.391014 53.424698 9.1848984
11.390729 53.430508 9.0137501
11.391842 53.415169 8.8373213
11.392582 53.40546 8.6631823
11.391615 53.421577 8.4959202
11.391603 53.423244 8.3253727
11.392549 53.410404 8.1520691
11.392227 53.416748 7.9832973
11.392863 53.408585 7.8119698
11.393568 53.399391 7.640975
11.393447 53.402691 7.4725103
11.393393 53.404991 7.3040586
11.39385 53.399517 7.1347146
11.394822 53.386257 6.9647522
11.394965 53.38554 6.7966781
11.395175 53.383827 6.6286693
11.395897 53.374332 6.4601684
11.396238 53.370625 6.2924151
11.374674 53.635014 13.499937
11.374766 53.635315 13.304184
11.375367 53.627937 13.105245
11.376406 53.615585 12.713056
11.377267 53.604237 12.516213
11.376934 53.610909 12.330293
11.377963 53.596996 12.134753
11.37822 53.594746 11.946456
11.378986 53.584774 11.755512
11.379404 53.580078 11.568295
11.3799 53.574169 11.381602
11.379609 53.580154 11.20123
11.380261 53.571884 11.01547
11.380991 53.562424 10.830285
11.382235 53.545189 10.643055
11.391129 53.430363 8.334631
11.391627 53.424294 8.1627636
11.392194 53.417191 7.9912019
11.391936 53.422558 7.8224969
11.392192 53.420158 7.6525955
11.392515 53.41674 7.4828658
11.392458 53.419075 7.3143315
11.392913 53.413639 7.1449003
11.393435 53.407188 6.9756808
11.393129 53.413292 6.8081837
11.393336 53.411617 6.6399155
11.393162 53.41573 6.4722986
11.394395 53.398487 6.3031354
11.370314 53.702576 13.336504
11.370484 53.701694 13.14055
11.371163 53.693127 12.941509
11.371506 53.689629 12.746739
11.372358 53.678413 12.549083
11.37287 53.672325 12.355574
11.373895 53.658497 12.159381
11.373716 53.662819 11.973643
11.374477 53.65295 11.781958
11.374457 53.654861 11.59705
11.375812 53.635994 11.403586
11.376383 53.628956 11.216771
11.37573 53.640415 11.038923
11.376455 53.631035 10.852986
11.376822 53.62706 10.670275
11.366986 53.757919 12.776443
11.367407 53.753235 12.58152
11.367485 53.753716 12.390576
11.36893 53.733543 12.190182
11.368745 53.737976 12.003621
11.368638 53.741211 11.817381
11.369473 53.730221 11.625374
11.369957 53.724514 11.437022
11.370088 53.724148 11.252094
11.370729 53.716042 11.06475
11.37145 53.706734 10.877978
11.371812 53.702839 10.694428
11.36259 53.827621 12.431036
11.363169 53.820541 12.23642
11.363831 53.812187 12.042434
11.364145 53.809071 11.852234
11.36454 53.804726 11.662535
11.365449 53.792614 11.47038
11.365571 53.79237 11.284704
11.365772 53.790943 11.099413
11.366404 53.78458 10.73005
11.359223 53.880077 12.272243
11.359877 53.871857 12.077596
11.360183 53.868874 11.886737
11.361002 53.858124 11.693316
11.360605 53.865749 11.509504
11.360719 53.865658 11.322999
11.361344 53.857807 11.134066
11.361613 53.855339 10.948424
11.362396 53.845097 10.760556
11.352277 53.978241 13.100227
11.353004 53.96896 12.898736
11.354 53.958961 12.311963
11.355503 53.937912 12.109959
11.355371 53.941563 11.921501
11.35575 53.937481 11.730311
11.357076 53.919075 11.53368
11.35675 53.925625 11.349486
11.356501 53.931011 11.165505
11.357635 53.915478 10.973575
11.357538 53.918526 10.790319
11.350217 54.017834 12.140683
11.350508 54.015106 11.948173
11.351766 53.999386 11.561672
11.351866 53.999496 11.373667
11.352481 53.991833 11.183232
11.353175 53.982956 10.993361
11.346651 54.073429 11.968715
11.348847 54.048424 11.013288
11.341678 54.145195 12.390746
11.342293 54.137585 12.193049
11.342562 54.135201 11.999129
11.343345 54.125034 11.802643
11.344212 54.113586 11.606829
11.343859 54.12056 11.420376
11.344889 54.106625 11.225712
11.345448 54.101425 10.849133
11.338196 54.199421 12.229497
11.338879 54.190777 12.031689
11.339214 54.18737 11.837593
11.340279 54.176258 11.261209
11.335859 54.241413 11.477045
11.328761 54.35223 11.115098
11.277045 54.990467 27.921473
11.278553 54.97438 27.142704
11.279489 54.963524 26.759541
11.28065 54.949226 26.378155
11.275942 55.016586 26.843214
11.276737 55.00779 26.468254
11.263648 55.18803 28.573227
11.263795 55.189194 28.182837
11.265135 55.172447 27.772188
11.26575 55.166473 27.385201
11.267246 55.147263 26.985598
11.267993 55.13921 26.609295
11.269141 55.128109 25.882772
11.258066 55.271885 28.666628
11.258823 55.263935 28.260738
11.260143 55.247494 27.849384
11.260738 55.24184 27.461678
11.260909 55.242489 27.089981
11.262611 55.220119 26.691418
11.263224 55.214043 26.323053
11.264383 55.199703 25.949347
11.265086 55.192162 25.591263
11.265994 55.181484 25.234795
11.267106 55.167706 24.879993
11.267732 55.161182 24.540342
11.267853 55.162159 24.215508
11.269204 55.144657 23.872215
11.270043 55.134777 23.543705
11.270712 55.127438 23.223175
11.253437 55.341248 28.764694
11.253842 55.338589 28.365374
11.255125 55.322708 27.953188
11.255684 55.317612 27.564642
11.256798 55.304142 27.17063
11.256827 55.306858 26.806871
11.257399 55.301407 26.437519
11.258518 55.287685 26.062817
11.259855 55.270649 25.689915
11.260389 55.265598 25.339407
11.261807 55.247246 24.976866
11.262399 55.241241 24.636316
11.262835 55.237526 24.303925
11.264964 55.211075 23.630417
11.252329 55.367813 27.645027
11.253084 55.359722 27.257565
11.248471 55.431999 26.992508
11.24864 55.43261 26.628653
11.250356 55.409981 26.23838
11.251626 55.393974 25.863968
11.252433 55.384853 25.505095
11.257895 55.305878 25.059673
11.25742 55.315876 24.738577
11.259206 55.29192 24.37866
11.260926 55.271637 23.71036
11.262559 55.255135 22.760962
11.263327 55.246193 22.449371
11.264264 55.23468 22.1392
11.244724 55.4716 28.973927
11.246566 55.450817 28.151939
11.247692 55.437248 27.747395
11.24906 55.420017 27.344763
11.25366 55.369396 25.142363
11.253841 55.369568 24.807053
11.255251 55.351261 24.453142
11.255113 55.356129 24.133982
11.256558 55.337193 23.789919
11.256425 55.341927 23.479916
11.257529 55.328026 23.151892
11.254861 55.370743 22.895021
11.2563 55.351738 22.569496
11.256825 55.34642 22.264214
11.257881 55.333103 21.95413
11.259473 55.311703 21.639498
11.261605 55.282127 21.320562
11.262419 55.272346 21.027126
11.26413 55.251411 20.450081
11.242351 55.514053 28.233589
11.240855 55.539757 27.886063
11.243802 55.498878 27.446438
11.248176 55.451752 25.238409
11.250044 55.426628 24.868542
11.251431 55.40868 24.513987
11.250219 55.429665 24.213926
11.251987 55.405907 23.862492
11.252534 55.400425 23.538776
11.253974 55.381508 23.203697
11.256488 55.361584 21.110043
11.258926 55.327354 20.793543
11.259647 55.318905 20.507814
11.260517 55.308189 20.223358
11.26291 55.285805 18.624157
11.264364 55.26609 18.353666
11.296927 54.866692 7.4877443
11.29707 54.872589 6.5627613
11.298758 54.848602 6.3763375
11.301419 54.809856 6.1897602
11.303252 54.783661 6.0047665
11.241292 55.558014 25.027491
11.242621 55.540936 24.671383
11.243804 55.526031 24.323645
11.246591 55.486992 23.951532
11.247108 55.481983 23.62689
11.248159 55.468887 23.297264
11.253241 55.41291 20.873007
11.255823 55.37648 20.557465
11.256677 55.366016 20.272366
11.256532 55.370533 20.00543
11.260761 55.326855 17.652563
11.262319 55.305511 17.391153
11.294541 54.917381 5.8231697
11.296972 54.882122 5.6373653
11.297066 54.887135 4.8976359
11.297326 54.886414 4.5269489
11.298015 54.877579 4.3419199
11.250349 55.458714 20.649586
11.251931 55.437305 20.352093
11.252142 55.436489 20.07868
11.29546 54.911404 4.9083476
11.293756 54.938877 4.7215786
11.245684 55.528702 20.740767
11.291193 54.976013 4.9223018
11.289486 55.003544 4.7347779
11.289889 55.000671 4.3610773
11.291099 54.983944 4.1751986
11.288255 55.020477 4.9348693
11.289391 55.006496 4.56182
11.290068 54.997837 4.3753824
11.28723 55.042538 4.1845679
11.285337 55.064629 4.9454684
11.28406 55.085663 4.7572289
11.240726 55.74419 4.6197391
11.240023 55.756577 4.4229965
11.239846 55.76096 4.226357
11.232688 55.861073 5.1999488
11.103462 57.584908 32.368385
11.104987 57.566002 31.882532
11.106487 57.547401 31.406332
11.106982 57.543755 30.961365
11.108391 57.526371 30.503983
11.108759 57.524498 30.077246
11.109376 57.518845 29.652319
11.110676 57.506344 28.821987
11.101837 57.608887 32.44632
11.103007 57.595306 31.967333
11.104465 57.577332 31.490585
11.104277 57.583939 31.059544
11.10564 57.567249 30.601482
11.106293 57.561138 30.166971
11.106538 57.561058 29.74848
11.107358 57.552307 29.324739
11.108088 57.544838 28.909849
11.109056 57.533741 28.496826
11.109921 57.524136 28.092525
11.110674 57.516167 27.696815
11.110958 57.515175 27.316231
11.112151 57.500484 26.924028
11.112513 57.49823 26.553339
11.113078 57.492855 26.18421
11.099408 57.644775 32.556416
11.100837 57.627338 32.069355
11.102241 57.610191 31.59194
11.102645 57.607952 31.145781
11.103636 57.596844 30.694338
11.104894 57.581669 30.244984
11.105098 57.582233 29.826004
11.105543 57.579105 29.408754
11.106229 57.572315 28.993298
11.107154 57.561886 28.579697
11.108316 57.547836 28.168015
11.108342 57.550774 27.785265
11.109619 57.534897 27.384016
11.109731 57.536442 27.011169
11.110399 57.529583 26.633282
11.110926 57.52483 26.263557
11.1113 57.522305 25.90185
11.111871 57.516773 25.541664
11.112638 57.508251 25.18305
11.1136 57.496761 24.826063
11.11439 57.487808 24.476881
11.115002 57.481506 24.135353
11.115795 57.472439 23.795313
11.09705 57.679615 32.664116
11.098104 57.667809 32.183701
11.099765 57.646828 31.698198
11.099791 57.650269 31.25856
11.101371 57.630352 30.791964
11.102248 57.620892 30.349047
11.103057 57.612404 29.915213
11.103786 57.605042 29.490345
11.103422 57.61401 29.095125
11.105644 57.584148 28.653275
11.106084 57.580944 28.254684
11.106064 57.584579 27.871302
11.106949 57.574593 27.476072
11.10771 57.566422 27.089285
11.107986 57.565464 26.71735
11.109173 57.550793 26.333996
11.109863 57.543526 25.96534
11.110757 57.533173 25.598333
11.111132 57.530563 25.245588
11.112059 57.519608 24.888113
11.112451 57.516655 24.544592
11.112659 57.516426 24.20858
11.114151 57.496849 23.855898
11.113976 57.502285 23.5347
11.114716 57.493961 23.202923
11.114878 57.494282 22.884212
11.095816 57.697685 32.737698
11.096508 57.691311 32.264168
11.097484 57.680611 31.792728
11.097457 57.684849 31.352438
11.098984 57.665752 30.885159
11.100136 57.652195 30.434439
11.100238 57.654316 30.014112
11.101578 57.637817 29.574493
11.102171 57.632446 29.157841
11.103678 57.613312 28.729275
11.104074 57.610767 28.330112
11.104355 57.609909 27.939405
11.1052 57.600536 27.543652
11.106616 57.582546 27.143103
11.105459 57.6031 26.796982
11.106956 57.583805 26.406471
11.107961 57.571831 26.03079
11.108459 57.567413 25.66959
11.109513 57.5546 25.303667
11.110044 57.54961 24.951923
11.110765 57.541729 24.601702
11.111306 57.536491 24.259129
11.111293 57.539566 23.930054
11.112935 57.517704 23.578463
11.112901 57.521023 23.258068
11.113406 57.516174 22.93306
11.114836 57.497402 22.597971
11.114923 57.498787 22.287201
11.114404 57.509258 21.988764
11.115953 57.488586 21.663685
11.116127 57.488579 21.362034
11.117228 57.47459 21.050787
11.116925 57.481682 20.762165
11.118333 57.463024 20.453588
11.119107 57.453854 20.15683
11.119238 57.454361 19.871483
11.093325 57.734772 32.818569
11.093661 57.733727 32.351814
11.09523 57.714157 31.865103
11.09613 57.704533 31.402531
11.096011 57.710098 30.970821
11.097449 57.69228 30.5123
11.0985 57.680187 30.070164
11.098815 57.679058 29.651114
11.100374 57.659214 29.213013
11.100842 57.655682 28.804628
11.101202 57.65369 28.404831
11.102131 57.643116 27.999983
11.102602 57.639374 27.610394
11.103638 57.62709 27.21587
11.103847 57.627171 26.842884
11.104613 57.618828 26.464947
11.105944 57.601971 26.082304
11.106059 57.60331 25.72699
11.107445 57.585537 25.354231
11.107589 57.586361 25.008228
11.10901 57.56797 24.645155
11.108796 57.574081 24.314329
11.109862 57.560936 23.966661
11.110373 57.55611 23.63254
11.111058 57.548607 23.299839
11.110792 57.55537 22.986006
11.112196 57.536995 22.650339
11.112258 57.538761 22.338995
11.114005 57.51516 22.006472
11.113624 57.523537 21.708805
11.113775 57.523865 21.406643
11.115241 57.504383 21.089512
11.1157 57.500031 20.789864
11.116308 57.493408 20.491417
11.115489 57.508236 20.214785
11.11678 57.49128 19.913479
11.11822 57.472034 19.613632
11.118612 57.468567 19.330029
11.118338 57.475098 19.057177
11.118595 57.473602 18.780359
11.089375 57.793919 32.906925
11.090311 57.78392 32.424736
11.0909 57.77903 31.959354
11.092088 57.765114 31.488758
11.092908 57.756615 31.034761
11.093997 57.74403 30.582819
11.094694 57.737244 30.147135
11.095314 57.731564 29.7204
11.095846 57.727127 29.302494
11.096955 57.713982 28.879538
11.097629 57.707306 28.472225
11.098192 57.702229 28.073486
11.099326 57.688545 27.669817
11.099994 57.681793 27.281328
11.100879 57.67173 26.894579
11.101628 57.663662 26.516109
11.102587 57.652401 26.139359
11.10304 57.648685 25.777084
11.103689 57.641972 25.416361
11.104534 57.632271 25.05724
11.10521 57.625072 24.705917
11.105709 57.620502 24.36224
11.106021 57.618694 24.026041
11.107252 57.603039 23.679337
11.107176 57.606998 23.357815
11.10839 57.591511 23.020073
11.109028 57.58466 22.695436
11.109454 57.580956 22.377861
11.10928 57.586258 22.07276
11.11041 57.571907 21.752171
11.110932 57.566662 21.443985
11.110835 57.570717 21.147804
11.111664 57.56081 20.842052
11.113428 57.536777 20.527212
11.112204 57.55772 20.255198
11.113876 57.535019 19.948227
11.114113 57.533913 19.66283
11.115287 57.518677 19.368633
11.115801 57.513329 19.085491
11.116452 57.505905 18.80345
11.084425 57.868015 33.020592
11.085322 57.858616 32.537521
11.086827 57.840027 32.049332
11.087343 57.836182 31.592512
11.088776 57.818527 31.123297
11.089835 57.806396 30.670626
11.090504 57.80006 30.234203
11.090762 57.799797 29.813728
11.092266 57.780807 29.374189
11.093015 57.773075 28.957481
11.094342 57.756611 28.535843
11.094201 57.762104 28.150028
11.09462 57.759151 27.759018
11.095259 57.752857 27.369686
11.096463 57.738007 26.975529
11.096833 57.735638 26.602757
11.098118 57.719498 26.218718
11.099258 57.705471 25.842932
11.099887 57.699081 25.481533
11.100711 57.689705 25.121731
11.101003 57.688297 24.775875
11.101844 57.678581 24.425358
11.102874 57.666004 24.076443
11.102977 57.667309 23.747004
11.103623 57.660397 23.412966
11.103696 57.662098 23.09199
11.105064 57.64426 22.755039
11.105092 57.646564 22.442408
11.106042 57.634964 22.119757
11.107158 57.620838 21.798588
11.107666 57.615807 21.48982
11.107555 57.620079 21.193054
11.109149 57.598652 20.876127
11.108554 57.610149 20.592152
11.109277 57.601788 20.293526
11.109752 57.597126 20.001234
11.111562 57.572338 19.69511
11.111527 57.575283 19.415215
11.111628 57.576199 19.136229
11.112263 57.569019 18.853422
11.080976 57.919376 33.130558
11.082645 57.90239 32.172371
11.083108 57.899353 31.714663
11.084812 57.877663 31.237341
11.086148 57.861397 30.776682
11.087429 57.845909 30.325323
11.087317 57.851219 29.911179
11.088778 57.83289 29.470879
11.088811 57.835892 29.067175
11.090431 57.815052 28.637821
11.09059 57.816074 28.244427
11.091312 57.808571 27.845955
11.091566 57.808052 27.462528
11.093081 57.788563 27.06102
11.093415 57.786751 26.687523
11.094664 57.771168 26.302742
11.095055 57.768402 25.938927
11.096003 57.757233 25.57036
11.096066 57.759285 25.222183
11.097408 57.742111 24.856907
11.097484 57.743919 24.517797
11.098844 57.726391 24.161959
11.09854 57.733807 23.837631
11.099897 57.716251 23.490925
11.101062 57.701527 23.151758
11.101651 57.695423 22.825695
11.10165 57.69817 22.512352
11.102571 57.687019 22.188974
11.102891 57.684875 21.878107
11.103367 57.68034 21.568462
11.103612 57.679264 21.26545
11.105177 57.658295 20.947699
11.105336 57.65844 20.652472
11.106034 57.650452 20.353172
11.10609 57.652122 20.065279
11.107079 57.639706 19.768381
11.107815 57.631069 19.477737
11.108691 57.620289 19.188303
11.108903 57.619507 18.909653
11.078341 57.958355 33.244961
11.081247 57.926792 31.804976
11.082252 57.915596 31.341425
11.082553 57.914856 30.901428
11.083768 57.900364 30.449133
11.085248 57.881824 29.999008
11.086325 57.869267 29.565018
11.086981 57.862961 29.146854
11.087537 57.858089 28.737379
11.087643 57.859913 28.34322
11.089346 57.837719 27.923885
11.089903 57.832672 27.533243
11.090678 57.824299 27.144321
11.090967 57.823177 26.770163
11.091461 57.818924 26.397564
11.092873 57.80085 26.013853
11.093061 57.801094 25.657261
11.093803 57.792984 25.295885
11.094377 57.787361 24.942295
11.095506 57.773346 24.584158
11.096091 57.76746 24.23979
11.096489 57.764362 23.90287
11.097436 57.752968 23.561468
11.098188 57.744461 23.227461
11.098361 57.74464 22.906422
11.099457 57.730904 22.575291
11.099199 57.73748 22.268114
11.100245 57.724415 21.9454
11.100687 57.720421 21.635098
11.101671 57.708221 21.320673
11.102036 57.705311 21.018295
11.10216 57.706005 20.722328
11.10243 57.704487 20.427431
11.103239 57.694817 20.128557
11.104195 57.682907 19.830971
11.105297 57.668766 19.534708
11.104941 57.676556 19.259212
11.105118 57.676308 18.979721
11.074711 58.012459 33.355572
11.075757 58.000881 32.862766
11.0771 57.984779 32.372238
11.078097 57.973763 31.898571
11.078732 57.968121 31.44149
11.078984 57.968121 31.0007
11.080151 57.954376 30.547604
11.081252 57.941532 30.10368
11.081612 57.939739 29.682711
11.082885 57.924191 29.24976
11.08441 57.904819 28.818918
11.084476 57.907257 28.424055
11.08545 57.896004 28.017395
11.085616 57.896835 27.632538
11.087043 57.878704 27.229561
11.087291 57.878204 26.85461
11.088099 57.869255 26.474779
11.089472 57.851765 26.090321
11.089623 57.852577 25.732986
11.090329 57.845032 25.370859
11.090866 57.839962 25.016514
11.090862 57.842987 24.675892
11.092877 57.815628 24.306456
11.092503 57.824158 23.980742
11.093785 57.807728 23.632608
11.094129 57.805382 23.303633
11.093889 57.811768 22.987478
11.094947 57.798615 22.655411
11.096177 57.782829 22.324907
11.097195 57.770199 22.001537
11.096068 57.78981 21.712385
11.097404 57.772335 21.391623
11.098125 57.764072 21.083054
11.099002 57.75346 20.775808
11.099638 57.746426 20.475082
11.099632 57.749023 20.185768
11.100958 57.73156 19.88242
11.100839 57.735825 19.60026
11.102055 57.719948 19.304436
11.102209 57.720043 19.024334
11.069728 58.08728 33.443317
11.07138 58.06665 32.935009
11.072704 58.050831 32.443832
11.072083 58.064072 32.005795
11.0743 58.03474 31.511772
11.074534 58.035027 31.070313
11.075354 58.026482 30.623619
11.076766 58.008991 30.171946
11.076774 58.012486 29.75724
11.078363 57.992207 29.316654
11.079191 57.983273 28.898767
11.080601 57.96558 28.476036
11.080875 57.96484 28.082186
11.082063 57.950348 27.676727
11.082433 57.948082 27.292921
11.083718 57.932022 26.897753
11.083454 57.939171 26.536684
11.083741 57.937996 26.170586
11.084587 57.928402 25.799711
11.085273 57.921154 25.436771
11.085792 57.916374 25.08161
11.0865 57.908699 24.727974
11.088135 57.887077 24.363878
11.088114 57.890293 24.031439
11.088637 57.885277 23.69437
11.088589 57.88884 23.370356
11.09059 57.86153 23.018841
11.090883 57.859879 22.697611
11.092104 57.844257 22.366467
11.092345 57.843319 22.053493
11.093129 57.834183 21.736282
11.092913 57.840076 21.43659
11.094011 57.826145 21.121984
11.094095 57.827465 20.824533
11.095505 57.8088 20.512684
11.09549 57.81155 20.222692
11.096409 57.800209 19.923676
11.097075 57.792637 19.630903
11.097485 57.788937 19.344181
11.097628 57.7892 19.063313
11.064222 58.170113 33.522232
11.066867 58.138645 32.528667
11.067195 58.13768 32.068092
11.067794 58.13258 31.609447
11.069315 58.113598 31.138552
11.070129 58.105141 30.691191
11.070873 58.097675 30.252865
11.071537 58.091343 29.823456
11.073121 58.071148 29.382193
11.073944 58.062309 28.963614
11.074322 58.060097 28.560457
11.074582 58.059582 28.165705
11.075756 58.045303 27.759346
11.076112 58.043259 27.374626
