# .PCD v0.7 - Point Cloud Data file format
VERSION 0.7
FIELDS x y z
SIZE 4 4 4
TYPE F F F
COUNT 1 1 1
WIDTH 1614
HEIGHT 1
VIEWPOINT 0 0 0 1 0 0 0
POINTS 1614
DATA ascii
11.807352 50.358727 35.349823
11.844466 50.365009 34.789265
11.844003 50.368694 34.194653
11.849595 50.372738 33.614616
11.840693 50.379311 32.456482
11.843121 50.382999 31.895771
11.788211 50.341724 37.840012
11.755191 50.343483 37.162876
11.82297 50.35199 36.614723
11.859419 50.358334 36.036827
11.777261 50.356579 35.332359
11.786964 50.361 34.741753
11.786206 50.364655 34.147701
11.841302 50.372074 33.621426
11.808682 50.373459 33.00882
11.779688 50.345043 37.206532
11.762255 50.347794 36.557781
11.739141 50.350098 35.912422
11.742891 50.35416 35.307255
11.752408 50.358566 34.716927
11.789776 50.368477 33.579414
11.801425 50.372883 33.014027
11.72969 50.345531 36.529503
11.781662 50.352917 35.97105
11.747847 50.354439 35.322361
11.784702 50.360703 34.762074
11.778535 50.363995 34.161762
11.745171 50.365376 33.540695
11.705179 50.335911 37.774662
11.687633 50.338707 37.117111
11.748094 50.350582 35.942352
11.738969 50.36124 34.127918
11.749628 50.365623 33.554493
11.761102 50.370018 32.989311
11.682726 50.338272 37.12756
11.654181 50.340263 36.46706
11.695026 50.346889 35.896839
11.704115 50.351315 35.297867
11.724489 50.356457 34.719631
11.707139 50.358982 34.107784
11.634402 50.322781 39.026623
11.631848 50.330742 37.72224
11.668629 50.344982 35.88538
11.672269 50.349037 35.280422
11.714346 50.355652 34.726597
11.675145 50.356689 34.090759
11.702204 50.36219 33.535484
11.681235 50.36792 32.367519
11.653311 50.32806 38.408474
11.618559 50.333736 37.084248
11.648393 50.339668 36.493038
11.624959 50.341942 35.848297
11.622931 50.345608 35.237633
11.659252 50.351826 34.678246
11.669076 50.356197 34.096779
11.685333 50.364567 32.953037
11.58234 50.33123 37.050903
11.606583 50.336781 36.45377
11.61506 50.341209 35.846565
11.629189 50.34597 35.254253
11.654673 50.351456 34.682556
11.625293 50.356804 33.474686
11.642582 50.365143 32.348511
11.583097 50.327225 37.700729
11.596839 50.332123 37.081867
11.583984 50.335167 36.440601
11.581648 50.338867 35.821163
11.644235 50.346912 35.284191
11.620924 50.349083 34.657703
11.636045 50.353813 34.082424
11.640914 50.361397 32.927284
11.558015 50.32542 37.688305
11.58544 50.335159 36.459728
11.599343 50.339958 35.858646
11.586568 50.342896 35.235603
11.601071 50.34763 34.652016
11.599756 50.351238 34.058868
11.520717 50.322781 37.663929
11.587114 50.331226 37.1087
11.547925 50.332497 36.43589
11.561722 50.337284 35.835083
11.543456 50.339848 35.2062
11.546943 50.34383 34.610859
11.556365 50.348167 34.030163
11.582997 50.35363 33.475582
11.577383 50.356846 32.89381
11.510227 50.321949 37.671051
11.560804 50.32933 37.096786
11.494961 50.328796 36.392834
11.545981 50.336102 35.835812
11.533117 50.339031 35.213047
11.536641 50.343018 34.617638
11.556231 50.351692 33.464497
11.556759 50.358879 32.321297
11.467013 50.326756 36.384212
11.528691 50.334782 35.83963
11.488895 50.335884 35.186207
11.475966 50.338749 34.572926
11.496096 50.343811 34.004604
11.50053 50.347755 33.42667
11.528521 50.356815 32.313164
11.496308 50.324772 37.052334
11.472751 50.327095 36.398838
11.454181 50.329689 35.761253
11.510972 50.337334 35.218781
11.47109 50.338371 34.574841
11.502156 50.344177 34.018406
11.484649 50.34663 33.41663
11.50639 50.351707 32.864677
11.491809 50.328285 36.436615
11.436036 50.328365 35.75531
11.471226 50.334545 35.188438
11.436619 50.335938 34.550896
11.451143 50.340614 33.976803
11.482598 50.349998 32.853252
11.465558 50.318508 37.685818
11.389705 50.317364 36.959599
11.418761 50.323231 36.369671
11.426833 50.327625 35.763359
11.45132 50.33308 35.184181
11.427593 50.335213 34.558807
11.447661 50.340267 33.990623
11.381359 50.324444 35.727264
11.454097 50.333168 35.203568
11.430511 50.335312 34.57798
11.428855 50.33889 33.985672
11.348948 50.31049 37.570641
11.369696 50.319752 36.338242
11.404268 50.325935 35.763203
11.401786 50.329563 35.153431
11.377855 50.331676 34.5284
11.408613 50.337456 33.972527
11.423861 50.342136 33.406761
11.423397 50.345695 32.831596
11.413831 50.352085 31.694956
11.333158 50.30127 38.85627
11.328561 50.309059 37.555218
11.383588 50.316727 36.988415
11.349084 50.318298 36.323086
11.378195 50.324116 35.741993
11.32174 50.324078 35.071259
11.389449 50.332409 34.54995
11.376653 50.335228 33.945961
11.385549 50.34306 32.799763
11.300292 50.30706 37.536007
11.32886 50.312943 36.93779
11.354907 50.322449 35.729576
11.395255 50.328976 35.169094
11.382268 50.331833 34.555954
11.385887 50.33577 33.969833
11.35715 50.337448 33.3568
11.334249 50.33947 32.75885
11.371428 50.311737 37.640781
11.300641 50.310928 36.921349
11.313455 50.315693 36.313061
11.305092 50.31897 35.688797
11.339782 50.325108 35.122681
11.342751 50.329044 34.52824
11.350226 50.336876 33.365234
11.349487 50.340416 32.790562
11.288595 50.302052 38.196907
11.304135 50.311073 36.940208
11.285269 50.313698 36.294186
11.266121 50.316242 35.657753
11.305986 50.322727 35.098099
11.287148 50.325184 34.479736
11.27938 50.328335 33.882561
11.320633 50.338364 32.772934
11.331727 50.342659 32.218418
11.279574 50.313259 36.296543
11.297791 50.318333 35.70335
11.327165 50.324112 35.130905
11.286874 50.325111 34.487942
11.300951 50.32975 33.914543
11.293836 50.332897 33.325771
11.22349 50.301579 37.492649
11.267473 50.308491 36.913795
11.237823 50.310387 36.255474
11.245083 50.314713 35.650318
11.284839 50.32119 35.090652
11.287575 50.325111 34.49649
11.218921 50.297165 38.143402
11.223197 50.305416 36.875004
11.193321 50.307289 36.217091
11.227006 50.3134 35.643269
11.223738 50.316963 35.03474
11.247764 50.322323 34.465385
11.272562 50.327686 33.904156
11.254398 50.330082 33.303638
11.269814 50.334717 32.747116
11.192297 50.299282 37.485779
11.199417 50.303711 36.862736
11.217084 50.308796 36.261242
11.219027 50.312763 35.64983
11.226519 50.317051 35.053467
11.229006 50.32095 34.459713
11.219088 50.327579 33.28038
11.223297 50.331448 32.712463
11.165329 50.289299 38.75946
11.159371 50.296974 37.46027
11.197807 50.303513 36.875431
11.244153 50.314377 35.69318
11.176747 50.313591 35.010696
11.222179 50.3204 34.465809
11.219705 50.32391 33.874683
11.206808 50.32666 33.280422
11.137597 50.295456 37.442184
11.13391 50.299152 36.806908
11.156473 50.304562 36.212208
11.158077 50.308498 35.601276
11.175961 50.313488 35.01762
11.205207 50.319199 34.454449
11.175457 50.320854 33.833511
11.200646 50.326195 33.281025
11.182152 50.332039 32.1245
11.114483 50.289867 38.058945
11.163017 50.297134 37.478321
11.185764 50.302616 36.874172
11.155849 50.304489 36.216141
11.152129 50.308067 35.598888
11.131324 50.317825 33.789097
11.117726 50.294003 37.436771
11.098237 50.296631 36.782478
11.110029 50.301308 36.175404
11.137984 50.30703 35.595661
11.11826 50.309467 34.969139
11.147154 50.315151 34.406376
11.138844 50.318256 33.809769
11.140299 50.325554 32.660404
11.058496 50.285912 38.02092
11.075547 50.291054 37.402309
11.092579 50.296143 36.792587
11.067484 50.298332 36.141621
11.111203 50.305115 35.580765
11.096783 50.307911 34.960495
11.098655 50.31176 34.367584
11.095569 50.315216 33.77737
11.109437 50.319782 33.213562
11.022377 50.275211 39.299431
11.0349 50.28017 38.655991
11.031538 50.284004 38.002438
11.069291 50.290543 37.4095
11.091619 50.295986 36.805958
11.093036 50.299969 36.186047
11.067905 50.302097 35.544281
11.090778 50.307419 34.967152
10.979276 50.272213 39.262241
11.027416 50.279556 38.664753
11.034457 50.284088 38.023972
11.041169 50.28854 37.39246
11.047701 50.292923 36.770103
11.027825 50.29546 36.125542
11.055509 50.301159 35.5462
10.99598 50.277367 38.638367
11.008038 50.282234 38.004238
11.02504 50.287376 37.385628
11.027489 50.295361 36.137455
10.931479 50.268848 39.227451
10.98961 50.276859 38.643173
10.975932 50.279999 37.976673
10.909142 50.267178 39.226952
28.639259 51.830666 1.6588533
28.620323 51.822674 2.7100787
28.563107 51.819683 2.502506
28.548594 51.81992 2.290729
28.505892 51.818024 2.0822685
28.488092 51.818012 1.8707962
28.433355 51.815201 1.6644655
28.454395 51.807636 3.1267555
28.409332 51.805557 2.9186873
28.380402 51.804699 2.7095821
28.349859 51.803715 2.5008066
28.317707 51.802608 2.292377
28.283951 51.80138 2.0843089
28.257408 51.800697 1.8754215
28.220442 51.799221 1.6680368
28.221447 51.790188 3.1250858
28.203009 51.790112 2.9162142
28.138727 51.786575 2.711771
28.125931 51.786922 2.502687
28.076199 51.784477 2.2977262
28.051363 51.783913 2.0901206
28.024916 51.78323 1.8827188
27.996866 51.782421 1.6755369
28.459183 51.79356 5.4354129
28.033735 51.774757 3.3436513
27.990433 51.772797 3.1379328
27.943302 51.771854 2.7241509
27.90411 51.770199 2.5190363
27.863352 51.768421 2.3144407
27.812237 51.765862 2.1114993
27.812338 51.767178 1.9020412
27.775658 51.765709 1.6974547
28.583458 51.792023 7.171329
28.569559 51.792328 6.9554687
28.545115 51.791851 6.7391648
28.536715 51.792561 6.5248318
28.508909 51.791824 6.3094625
28.230156 51.776314 5.4492407
27.814953 51.758186 3.371526
27.780682 51.756901 3.1665001
27.71627 51.754635 2.7570212
27.677309 51.752987 2.5533671
27.645597 51.751888 2.3492014
27.612324 51.750668 2.1453941
27.595047 51.75066 1.9395574
27.55863 51.749203 1.7363405
27.476879 51.744301 1.5404012
28.546158 51.782291 8.2805796
28.505569 51.780643 8.0578976
28.524954 51.783428 7.8448553
28.472061 51.780853 7.6223545
28.461576 51.781418 7.4063559
28.449404 51.781857 7.1906776
28.426704 51.781506 6.9744434
28.393467 51.780369 6.7579317
28.367393 51.779758 6.5428576
28.348507 51.779682 6.3289776
28.008263 51.759556 5.4697099
27.603504 51.742134 3.4051015
27.525 51.738789 2.9988515
27.487839 51.73727 2.7961514
27.466734 51.736965 2.5920818
27.444054 51.736542 2.3881788
27.411018 51.735332 2.1855671
27.385204 51.734669 1.9821322
27.349062 51.733223 1.780192
27.31138 51.731659 1.5786537
28.468908 51.770924 9.1728487
28.479229 51.773052 8.956255
28.417667 51.769871 8.7269659
28.406944 51.770435 8.5081234
28.394495 51.77087 8.2896872
28.371523 51.770519 8.070343
28.355633 51.770687 7.8528585
28.311586 51.768764 7.6323576
28.274622 51.767361 7.4139247
28.262424 51.767788 7.1992874
28.222057 51.766121 6.9822927
28.19767 51.765636 6.7677956
28.153931 51.763702 6.5523939
28.135052 51.763618 6.3398156
27.811901 51.743443 5.693645
27.795305 51.7435 5.4855976
27.313755 51.722763 3.0302169
27.294388 51.72258 2.8271205
27.255882 51.720955 2.6260324
27.242182 51.721199 2.4224091
27.183065 51.71801 2.2243059
27.157499 51.717354 2.0223348
27.130379 51.716583 1.8205752
27.101704 51.715694 1.6190422
28.426683 51.762104 10.077844
28.391762 51.760921 9.8482523
28.363684 51.760235 9.6215792
28.325047 51.758762 9.3938847
28.319519 51.75972 9.1742716
28.268505 51.75732 8.9466152
28.241932 51.756718 8.7249699
28.213593 51.755974 8.5040579
28.183498 51.755096 8.2838993
28.142876 51.753429 8.0631742
28.135683 51.754234 7.8484044
28.100405 51.752953 7.6304364
28.054602 51.750885 7.4122157
28.033529 51.750645 7.1979756
28.001968 51.749622 6.983345
27.968733 51.74847 6.7694163
27.951494 51.748501 6.5576625
27.914951 51.747093 6.345015
27.59333 51.728294 5.496839
27.539822 51.725578 5.2894797
27.139751 51.708305 3.2572951
27.1133 51.707581 3.0559425
27.076525 51.706078 2.8557358
27.05578 51.705784 2.6541734
27.024719 51.704708 2.4537873
26.983376 51.702854 2.2548525
26.958014 51.702209 2.0540869
26.922377 51.700783 1.8548028
26.911381 51.701229 1.6518403
28.287216 51.748867 10.523238
28.264587 51.748596 10.29512
28.222755 51.74691 10.063555
28.196398 51.746349 9.8371716
28.150806 51.74437 9.6077213
28.129484 51.744164 9.3850079
28.080204 51.74189 9.1576681
28.072765 51.742695 8.9399529
28.028618 51.740788 8.7162256
28.008949 51.740677 8.498107
27.97879 51.739784 8.2791462
27.946899 51.738758 8.060957
27.904505 51.73695 7.8423038
27.895542 51.73761 7.6292911
27.85853 51.736187 7.4133472
27.802225 51.733322 7.1962619
27.797062 51.734253 6.9858122
27.755018 51.732437 6.7722712
27.737766 51.73246 6.5618176
27.692427 51.730385 6.3498182
27.371246 51.711586 5.5071073
27.32666 51.709534 5.3013344
26.970266 51.694202 3.4812899
26.936716 51.69294 3.2814319
26.892868 51.690895 3.082787
26.873838 51.690723 2.882288
26.853268 51.690434 2.6819355
26.822403 51.689365 2.4827547
26.79002 51.688183 2.2839248
26.756124 51.686882 2.0854602
26.720716 51.685467 1.8873768
26.709929 51.685921 1.6856221
28.065462 51.732342 10.508277
28.051338 51.732689 10.28371
28.009417 51.730988 10.053397
27.991632 51.731049 9.8303118
27.937302 51.728416 9.6000872
27.915892 51.728199 9.3786478
27.875284 51.726555 9.1543398
27.859043 51.726704 8.9361382
27.832338 51.726074 8.7168808
27.80389 51.725307 8.4983578
27.764959 51.723759 8.2791586
27.724289 51.722076 8.0609035
27.681892 51.720261 7.8436108
27.672895 51.720909 7.6319804
27.653467 51.720779 7.4195714
27.614801 51.719219 7.2056618
27.583263 51.718182 6.9935222
27.532478 51.71571 6.780437
27.524055 51.716381 6.5721035
27.478798 51.714306 6.3613834
27.158239 51.695522 5.5237036
27.113783 51.69347 5.3192124
26.663157 51.674728 2.9155948
26.594711 51.672066 2.520647
26.571339 51.671555 2.3221836
26.537725 51.670269 2.1250865
26.511322 51.669529 1.9271047
26.474707 51.668011 1.7306929
27.854223 51.716545 10.503106
27.822725 51.715611 10.275389
27.798016 51.715164 10.050738
27.754162 51.713303 9.8228054
27.743149 51.713844 9.6038427
27.695642 51.711697 9.3778963
27.672401 51.711327 9.158493
27.621279 51.708897 8.9346981
27.603241 51.708897 8.7185812
27.574762 51.708118 8.5015011
27.535826 51.706562 8.2837372
27.530163 51.707458 8.0723267
27.496578 51.706287 7.8573895
27.461306 51.704983 7.6432576
27.424358 51.703545 7.4299507
27.412073 51.703934 7.2205033
27.363037 51.701591 7.0077157
27.338705 51.701077 6.7984757
27.303967 51.699783 6.5890336
27.267607 51.69836 6.3803267
27.062504 51.684361 6.1615009
26.947779 51.6796 5.5475769
26.929878 51.679527 5.345027
26.500208 51.661041 3.1517622
26.472855 51.660225 2.954411
26.470215 51.661274 2.7546527
26.466021 51.662209 2.5547049
26.451548 51.662369 2.3556645
26.435539 51.662415 2.1566391
26.33103 51.65575 1.9701878
26.277328 51.652927 1.7774652
26.230871 51.650658 1.584066
27.696632 51.703312 10.731385
27.658331 51.701878 10.501437
27.618141 51.700298 10.272585
27.584707 51.6992 10.04698
27.549438 51.697964 9.822341
27.512348 51.696583 9.5986853
27.490799 51.696335 9.3797894
27.476189 51.696594 9.1633654
27.442469 51.695438 8.9440575
27.415707 51.694786 8.7272587
27.37851 51.693359 8.5096617
27.339586 51.691799 8.2929897
27.298946 51.690102 8.0772619
27.291586 51.690861 7.8675952
27.247587 51.688904 7.6534619
27.210669 51.687462 7.4414277
27.180859 51.686543 7.2312489
27.166956 51.686798 7.023612
27.133902 51.685627 6.8146453
27.108006 51.684982 6.6071506
27.071732 51.683563 6.3995481
26.743784 51.664169 5.5707283
26.699619 51.662125 5.3686938
26.435724 51.651062 3.9747853
26.432087 51.652031 3.7761626
26.426922 51.652885 3.5774465
26.42897 51.654285 3.3780134
26.429476 51.655571 3.1783435
26.437162 51.657402 2.9776397
26.425827 51.657799 2.7783539
26.165373 51.643085 2.0098436
26.094593 51.638966 1.820606
26.048422 51.636707 1.6282063
27.428684 51.684784 10.482706
27.405561 51.684448 10.259725
27.389252 51.684601 10.039659
27.336636 51.682079 9.8120031
27.3081 51.68132 9.5915794
27.286455 51.681061 9.3738737
27.245729 51.679386 9.1532536
27.211916 51.678215 8.9353895
27.167671 51.676266 8.7167892
27.165213 51.677395 8.5069666
27.13497 51.676464 8.2930222
27.076874 51.67347 8.0757484
27.069443 51.674213 7.867465
27.025442 51.672249 7.6546936
27.00601 51.672096 7.4462414
26.984961 51.671818 7.2382836
26.936031 51.669464 7.0280347
26.929276 51.670242 6.82307
26.877117 51.667637 6.6145
26.832117 51.665558 6.4076843
26.662735 51.654202 6.1935816
26.531046 51.648132 5.5859194
26.513319 51.648056 5.3858838
26.40184 51.645924 4.3906116
26.42757 51.649101 4.190938
26.416719 51.649529 3.9921036
26.01655 51.631748 2.0395663
25.876734 51.622383 1.861591
25.865465 51.622768 1.6648976
27.258274 51.67075 10.68539
27.196327 51.668915 10.236414
27.162613 51.667782 10.013338
27.10984 51.665241 9.7871227
27.089766 51.665092 9.5701141
27.059307 51.664177 9.3518877
27.035767 51.663757 9.1363134
26.993168 51.66193 8.9180164
26.957506 51.660606 8.7024097
26.928829 51.65979 8.489254
26.907171 51.659485 8.2783089
26.875153 51.658409 8.0665951
26.841471 51.657204 7.8556733
26.823591 51.657166 7.6479506
26.786636 51.655704 7.438488
26.756788 51.654766 7.2308903
26.760309 51.6563 7.027719
26.727274 51.655117 6.8211608
26.531069 51.644295 6.1999803
26.320707 51.632339 5.59092
26.303011 51.632256 5.3921866
25.869205 51.620583 2.0592749
25.695107 51.608612 1.8872676
25.666744 51.607693 1.6944296
26.999748 51.653004 10.42473
26.967632 51.651989 10.202148
26.942303 51.651463 9.9826565
26.906595 51.650169 9.7619123
26.860483 51.648098 9.5401897
26.847116 51.64843 9.3271809
26.806122 51.646721 9.1092949
26.78936 51.646786 8.8975906
26.744921 51.644806 8.6815615
26.742163 51.645897 8.4743128
26.729103 51.646221 8.265851
26.705721 51.645779 8.0564537
26.724232 51.64843 7.8540778
26.326586 51.629002 6.1952925
26.116451 51.617039 5.5899024
26.09877 51.616951 5.3923855
25.501802 51.593998 1.9080362
25.465014 51.59243 1.717732
26.846445 51.638901 10.843154
26.77025 51.636005 10.393118
26.763659 51.636852 10.178645
26.738194 51.636311 9.9603367
26.71097 51.635628 9.7428331
26.707834 51.636711 9.5320559
26.694414 51.637032 9.319726
26.696587 51.638496 9.1115055
26.68849 51.639202 8.9017639
26.121819 51.613663 6.1945801
25.929499 51.603008 5.593472
25.903135 51.602261 5.3967562
25.30039 51.578743 1.933957
25.272469 51.577843 1.7434424
25.200123 51.573563 1.5606575
26.71529 51.626385 11.273151
26.707178 51.627144 11.054347
26.688793 51.627148 10.833601
26.694185 51.628883 10.620772
26.68935 51.629864 10.40587
26.674248 51.630085 10.189167
26.674551 51.631432 9.9773626
26.638845 51.630131 9.7576218
25.737215 51.588547 5.6016784
25.702198 51.587147 5.4058447
25.119698 51.565025 1.9621099
25.074804 51.562828 1.7754413
25.028528 51.560524 1.5893531
26.672403 51.617538 12.174441
26.679907 51.619461 11.956328
26.668804 51.620029 11.732869
26.655872 51.620453 11.510058
26.641119 51.620735 11.287915
26.63303 51.621498 11.069028
26.606188 51.62088 10.845713
26.594542 51.621368 10.628091
25.525255 51.57262 5.6086335
25.490286 51.571217 5.4140992
24.918858 51.549786 1.9924041
24.874205 51.5476 1.8069342
24.853884 51.54726 1.6175631
26.649668 51.61002 13.104425
26.639626 51.610703 12.87455
26.627661 51.61124 12.645385
26.622135 51.612236 12.420022
26.58964 51.611259 12.18628
26.580347 51.611965 11.962361
26.560806 51.611916 11.736248
26.547831 51.612331 11.513689
25.331028 51.558022 5.6159286
25.304802 51.557262 5.4227672
24.774456 51.535248 2.5869911
24.760061 51.535351 2.3983295
24.727037 51.534039 2.2121472
24.718365 51.534576 2.0223863
24.682518 51.533051 1.836711
24.670954 51.533371 1.6469676
26.613277 51.601357 14.053927
26.602928 51.602058 13.817617
26.574118 51.601414 13.57512
26.567953 51.602398 13.34397
26.53504 51.601437 13.10352
26.541523 51.603317 12.880451
26.529549 51.603851 12.651448
26.515667 51.604237 12.423178
25.130459 51.542946 5.6232519
25.130335 51.544132 5.4320507
24.746723 51.527203 3.5419188
24.722275 51.526539 3.3548126
24.687792 51.525116 3.1687927
24.660547 51.524242 2.9823685
24.623291 51.522606 2.7972324
24.610468 51.52282 2.6094337
24.58762 51.522274 2.4227777
24.563364 51.521622 2.2363093
24.537699 51.520863 2.0500426
24.510626 51.52 1.8639917
24.490696 51.519676 1.6766827
26.572763 51.592209 15.031626
26.538387 51.591228 14.776592
26.542271 51.592983 14.541958
26.53603 51.594006 14.304144
26.509275 51.594982 13.827185
26.513365 51.596714 13.598714
24.944614 51.528965 5.6318297
24.918514 51.528202 5.4409175
24.467979 51.509663 3.0062952
24.44813 51.509338 2.8203416
24.4097 51.507607 2.636652
24.404224 51.508369 2.4489212
24.363033 51.506424 2.2659361
24.337605 51.505676 2.0808711
24.319324 51.50547 1.8946208
24.299625 51.505161 1.7084261
26.537909 51.583267 16.044039
26.520609 51.583569 15.788782
26.516989 51.584831 15.542864
26.503212 51.585358 15.293666
26.48724 51.585712 15.045428
26.485226 51.587059 14.805969
24.741949 51.513725 5.6402979
24.715923 51.512962 5.4505968
24.302797 51.495979 3.2149763
24.275921 51.495117 3.0307922
24.239079 51.4935 2.847887
24.218039 51.493076 2.6633849
24.204172 51.493195 2.4779162
24.188896 51.49321 2.2924588
24.155125 51.491821 2.1096463
24.145582 51.492275 1.9230305
24.109055 51.490677 1.740743
24.028652 51.485741 1.5667102
26.495796 51.575218 16.826817
26.50897 51.577736 16.581884
26.496372 51.578403 16.324343
26.48937 51.579456 16.072107
26.488077 51.580902 15.824969
24.568651 51.500698 5.6471143
24.542646 51.499928 5.4583683
24.155928 51.483707 3.4177082
24.121948 51.482304 3.234962
24.0952 51.481441 3.0518162
24.075657 51.481129 2.8680236
24.046169 51.480057 2.6854343
24.01532 51.478886 2.5031869
24.008738 51.479553 2.3176324
23.975145 51.478172 2.1358516
23.940199 51.476688 1.9544543
23.937925 51.477684 1.7675335
23.883255 51.474701 1.5897323
26.479906 51.567287 17.90469
26.494524 51.569965 17.651814
26.475929 51.570267 17.38076
26.470383 51.57148 17.120127
26.485899 51.574181 16.87401
24.579655 51.495548 6.6025109
24.569408 51.495968 6.4124498
24.488729 51.491138 6.2177758
24.384672 51.486893 5.6495171
24.358656 51.486118 5.4618187
23.963873 51.469215 3.4333758
23.911915 51.467602 3.0688727
23.87534 51.465992 2.8880458
23.87163 51.466866 2.7035291
23.857969 51.466991 2.519968
23.808805 51.464424 2.3412995
23.800922 51.464985 2.1568089
23.757614 51.46286 1.9777569
23.746952 51.463215 1.7933539
23.709448 51.461529 1.6135415
26.483902 51.56049 19.040342
26.462978 51.560715 18.75345
26.462103 51.56234 18.48288
26.435852 51.562149 18.198494
26.399248 51.561207 17.910686
24.55645 51.485394 7.948473
24.573467 51.48785 7.7595358
24.554737 51.487659 7.5655293
24.594629 51.49181 7.3799
24.538618 51.48885 7.1821213
24.51548 51.488319 6.9893713
24.490877 51.487679 6.7971573
24.473427 51.487564 6.6062741
24.454533 51.487339 6.4157834
24.365311 51.481873 6.2208529
24.183725 51.471828 5.6508017
24.174936 51.472332 5.4648399
23.780817 51.455406 3.447912
23.75561 51.454651 3.2665551
23.729052 51.453793 3.0854974
23.663364 51.451122 2.7253821
23.641314 51.450603 2.5442567
23.626421 51.450626 2.3620911
23.601645 51.449898 2.1812541
23.567022 51.448425 2.0020192
23.556505 51.448784 1.8187393
23.510733 51.446461 1.641614
26.497324 51.554031 20.233894
26.495066 51.555656 19.946947
26.490078 51.557072 19.66106
26.370306 51.550365 19.298048
26.366871 51.551842 19.020643
26.353296 51.552586 18.739191
26.321913 51.552048 18.448961
26.272524 51.550213 18.150438
26.243202 51.549778 17.868303
24.779551 51.494415 9.1797314
24.729105 51.491936 8.9716825
24.69404 51.490582 8.7683287
24.555092 51.481556 8.5461483
24.533808 51.481194 8.3487778
24.493912 51.479454 8.1490631
24.486673 51.480122 7.9558535
24.443726 51.478142 7.7577314
24.433516 51.478577 7.5654569
24.404699 51.477631 7.3712454
24.382978 51.477207 7.1787543
24.351213 51.476032 6.9858313
24.326572 51.475384 6.7944846
24.317669 51.475899 6.6052499
24.272957 51.473747 6.4134626
24.175213 51.46764 6.2189693
24.002369 51.458225 5.652657
24.010763 51.460007 5.468256
23.632566 51.443085 3.6422937
23.608797 51.442432 3.4616075
23.575132 51.441032 3.2819934
23.548689 51.440174 3.1019778
23.520906 51.439217 2.9222744
23.500315 51.438801 2.7418492
23.452837 51.436348 2.5649924
23.455084 51.437664 2.3815105
23.438932 51.437588 2.2003174
23.412937 51.436764 2.0205522
23.39406 51.436481 1.8395282
23.356915 51.434807 1.6616983
26.470322 51.546242 21.156357
26.483929 51.549046 20.871361
26.472916 51.550098 20.570648
26.473677 51.55196 20.282087
26.213354 51.538898 19.250614
26.179531 51.538223 18.953394
26.142832 51.537323 18.657795
26.118422 51.53727 18.373833
26.076115 51.535927 18.081434
24.772881 51.483734 10.808434
24.769175 51.484734 10.603875
24.738667 51.483772 10.392492
24.681227 51.480824 10.175065
24.65571 51.480206 9.9680719
24.611668 51.478222 9.7575693
24.582844 51.477345 9.5523739
24.535465 51.475098 9.3440466
24.486423 51.472717 9.1369209
24.444229 51.470833 8.9328299
24.391928 51.468193 8.728075
24.380564 51.468563 8.5327959
24.350658 51.46756 8.3348141
24.319221 51.466434 8.1376047
24.311878 51.467087 7.9453425
24.268883 51.465099 7.7481718
24.24148 51.464256 7.5544209
24.229717 51.464569 7.3635883
24.199377 51.463497 7.17101
24.176144 51.462952 6.9800801
24.151466 51.462292 6.7896881
24.116774 51.460884 6.5990701
24.089226 51.460003 6.4098854
23.965826 51.451977 6.2146244
23.827477 51.445114 5.6536136
23.81007 51.444962 5.4693961
23.392633 51.427265 3.2961977
23.338657 51.425457 2.9385624
23.3267 51.42569 2.7581291
23.296387 51.424534 2.5799575
23.256268 51.42263 2.4033589
23.24876 51.423203 2.2220678
23.222944 51.422382 2.0434253
23.187342 51.420822 1.8664827
23.184181 51.421726 1.6836798
26.388865 51.534466 22.06403
26.453703 51.540905 21.810995
26.458878 51.543163 21.51203
25.982988 51.522282 19.147617
25.963387 51.522598 18.862167
25.941071 51.522701 18.578047
25.893387 51.520988 18.280329
25.858009 51.520126 17.994287
25.287275 51.494892 15.189383
24.478987 51.463371 10.542996
24.422934 51.460522 10.326501
24.407089 51.460606 10.12308
24.364403 51.458717 9.9135609
24.328453 51.457314 9.7073469
24.316183 51.457638 9.5083399
24.293907 51.457222 9.3078527
24.261595 51.456062 9.1061583
24.236177 51.455402 8.9071579
24.217697 51.455246 8.7106104
24.206196 51.455597 8.5162764
24.184696 51.455208 8.3207998
24.136139 51.452816 8.1215181
24.10309 51.451561 7.9261398
24.102669 51.452713 7.7367573
24.058113 51.450596 7.5414534
24.037704 51.45026 7.3505349
24.015844 51.449814 7.1601253
23.975433 51.447983 6.9683375
23.967813 51.448586 6.7808924
23.941652 51.447803 6.5920987
23.896933 51.445637 6.402494
23.765081 51.436974 6.207788
23.643927 51.431377 5.6511426
23.626509 51.431217 5.4679728
23.251839 51.415543 3.4842021
23.218401 51.414146 3.3065932
23.192175 51.413292 3.1285791
23.181639 51.413628 2.9489489
23.144266 51.41193 2.7724471
23.139538 51.412704 2.5919092
23.108017 51.411449 2.4148734
23.083654 51.410736 2.2368925
23.049513 51.409279 2.0605133
23.039381 51.409649 1.8800781
23.011028 51.408634 1.702668
26.227072 51.522778 21.994028
25.786831 51.508102 19.06469
25.766577 51.508362 18.780434
25.751137 51.508942 18.502577
25.687798 51.506111 18.196028
25.651785 51.505192 17.91128
25.123014 51.482864 15.144512
24.930355 51.474747 14.133801
24.82431 51.468506 13.86088
24.351095 51.450096 11.133113
24.316673 51.448853 10.919822
24.288843 51.448078 10.710164
24.259321 51.44717 10.501414
24.236486 51.446743 10.295998
24.195244 51.444962 10.086713
24.185911 51.445507 9.8875122
24.158195 51.444698 9.6844788
24.128872 51.443764 9.482276
24.106394 51.443329 9.2829027
24.090811 51.44339 9.0861197
24.065237 51.442711 8.8880663
24.029648 51.441288 8.6890154
24.000996 51.440369 8.4925194
23.979317 51.43996 8.2983379
23.956144 51.439434 8.1047611
23.940002 51.439423 7.913188
23.896843 51.437405 7.718194
23.86924 51.436535 7.5266147
23.848713 51.436184 7.3368249
23.826748 51.435722 7.1475458
23.794809 51.434513 6.9578433
23.761438 51.433193 6.7688551
23.760855 51.434307 6.583694
23.733213 51.433407 6.3965182
23.601482 51.424747 6.2027187
23.463169 51.41785 5.648035
23.437157 51.417042 5.465661
23.071487 51.401966 3.493727
23.046644 51.401215 3.3163764
23.02899 51.401005 3.1384439
23.00152 51.400051 2.9616146
22.964262 51.398354 2.7861624
22.951136 51.398487 2.6078024
22.928209 51.397877 2.4306729
22.895515 51.396523 2.2550468
22.869967 51.395714 2.0783994
22.859943 51.396084 1.899
22.831739 51.395073 1.7226297
22.777042 51.392044 1.5514755
26.46063 51.524395 24.534754
26.477753 51.527687 24.213278
26.030296 51.506668 22.211918
26.067947 51.511211 21.936926
25.538498 51.488487 19.225515
25.60173 51.49464 18.999126
25.58095 51.494854 18.715916
25.54998 51.494328 18.428986
25.508736 51.49305 18.138599
24.163197 51.436195 11.104802
24.136866 51.435532 10.895263
24.108839 51.434734 10.686614
24.070789 51.433197 10.476383
24.064459 51.433971 10.276881
24.023077 51.432171 10.068526
24.00518 51.432083 9.868021
23.968903 51.430641 9.6638546
23.956245 51.430923 9.4668951
23.925203 51.429852 9.2664776
23.892586 51.428654 9.066927
23.866859 51.427959 8.8700733
23.848063 51.427765 8.6756725
23.819298 51.42683 8.4802084
23.805988 51.427032 8.2886133
23.765743 51.42524 8.09305
23.757984 51.425838 7.9039783
23.723274 51.424442 7.7113152
23.704119 51.424191 7.5218959
23.675009 51.423199 7.3318501
23.652985 51.422726 7.1435237
23.62101 51.421509 6.9547749
23.596146 51.420815 6.7676024
23.578415 51.42065 6.5817614
23.550751 51.419739 6.3956285
23.419165 51.411083 6.2028675
23.272387 51.403534 5.6509748
23.25493 51.403358 5.469986
22.898546 51.388912 3.5088384
22.865305 51.38752 3.333236
22.847752 51.38731 3.1563456
22.828882 51.387001 2.9795918
22.791763 51.385311 2.8050926
22.79566 51.386726 2.6254079
22.772839 51.38612 2.4490573
22.765574 51.386692 2.2702727
22.74011 51.385883 2.0941434
22.69652 51.383698 1.9212003
22.66007 51.382053 1.7472616
22.613972 51.379673 1.5753955
26.475389 51.51828 25.689917
26.456806 51.519207 25.318703
26.441015 51.520294 24.955666
25.832352 51.492336 22.131926
25.939926 51.501743 21.916735
25.350626 51.474777 19.166319
25.442934 51.482975 18.961857
25.377127 51.48 18.648552
25.360636 51.480488 18.372942
25.326515 51.47971 18.088585
24.023609 51.424503 11.301314
23.990585 51.423359 11.088985
23.955828 51.422073 10.877698
23.91935 51.420654 10.667471
23.906145 51.420925 10.46581
23.874659 51.419853 10.259919
23.85824 51.419876 10.059632
23.831869 51.419163 9.8577299
23.803904 51.418324 9.6566439
23.791153 51.418594 9.4605341
23.73481 51.415657 9.255003
23.744236 51.417545 9.0660563
23.701605 51.4156 8.86625
23.674303 51.414772 8.6709747
23.645491 51.41383 8.4764462
23.632116 51.414021 8.2857952
23.591854 51.41222 8.0911655
23.575554 51.412182 7.901659
23.549318 51.411407 7.7113199
23.538637 51.411777 7.5240583
23.501022 51.410149 7.333744
23.487503 51.410301 7.1474042
23.464064 51.409714 6.960465
23.430698 51.408382 6.773201
23.404453 51.407578 6.5874457
23.385345 51.407299 6.4029527
23.228365 51.396748 6.209197
23.107431 51.391106 5.6616788
23.090027 51.39093 5.4815569
22.749666 51.376522 3.7063076
22.751831 51.377796 3.5284746
22.744171 51.37833 3.3511906
22.726707 51.378124 3.1747308
22.733326 51.379742 2.9955196
22.730122 51.380615 2.8169861
22.734007 51.38203 2.6371329
22.728086 51.382706 2.458159
22.661716 51.379921 2.1081262
22.534258 51.371361 1.9499789
22.506405 51.370365 1.7753224
22.468891 51.368633 1.6025611
26.301134 51.50346 25.97171
25.689327 51.479927 22.40263
25.644552 51.478729 22.057375
25.772495 51.489544 21.860889
25.232058 51.465969 19.154259
25.249996 51.468914 18.898041
23.804026 51.409515 11.06722
23.78566 51.40942 10.862347
23.74906 51.407986 10.653032
23.72739 51.407631 10.449799
23.712433 51.407761 10.249743
23.679207 51.406548 10.045639
23.644352 51.405205 9.8425035
23.633005 51.405579 9.6468344
23.603361 51.404602 9.4475098
23.572151 51.403503 9.2490368
23.547802 51.402905 9.0533371
23.521933 51.402184 8.8583517
23.486118 51.400726 8.6623669
23.474121 51.401016 8.4722395
23.443762 51.399944 8.2794123
23.411922 51.398762 8.0873642
23.404028 51.399338 7.9002776
23.37776 51.398552 7.7108808
23.341568 51.39703 7.5209236
23.329412 51.397278 7.3351955
23.30736 51.396793 7.1487641
23.29241 51.396828 6.9638147
23.25906 51.395493 6.7774959
23.224312 51.394051 6.591907
23.205204 51.393764 6.4084525
23.04845 51.383224 6.215682
22.936214 51.378216 5.6716065
22.927366 51.37867 5.4926987
22.84903 51.373924 5.3125443
22.727356 51.37035 4.4262209
22.726318 51.37138 4.249054
22.723957 51.372311 4.0717669
22.72876 51.373783 3.8938487
22.72374 51.374516 3.7162752
22.725868 51.37579 3.5379241
22.374027 51.359177 1.978338
22.337996 51.357552 1.8060988
22.309059 51.356468 1.6326219
26.159939 51.493195 25.921238
25.478966 51.466709 21.995125
23.641705 51.397469 11.048573
23.614902 51.396751 10.841869
23.57815 51.395298 10.633478
23.556313 51.394928 10.43117
23.524548 51.393822 10.227211
23.507816 51.39381 10.028866
23.472836 51.392452 9.8266611
23.461332 51.392807 9.6319265
23.423191 51.391201 9.4314613
23.400246 51.390705 9.236001
23.384182 51.390705 9.0431442
23.358219 51.389973 8.8490124
23.322332 51.388504 8.6538811
23.293367 51.387539 8.461318
23.271362 51.387077 8.2710819
23.247904 51.386505 8.0814543
23.214544 51.385197 7.8910627
23.179733 51.383774 7.7014842
23.177374 51.384747 7.5175991
23.156675 51.384357 7.3316064
23.126093 51.383232 7.1450834
23.094105 51.381996 6.9592605
23.094704 51.383179 6.7776327
23.059954 51.381729 6.5929089
22.926796 51.374073 6.2214499
22.772121 51.365887 5.6769309
22.763271 51.366333 5.4988942
22.67654 51.360958 5.3194294
22.657032 51.365025 4.4347429
22.195082 51.3456 2.0048172
22.167606 51.34462 1.8320454
22.122173 51.342274 1.6628103
25.344894 51.453072 22.569717
25.309353 51.45253 22.230673
25.333227 51.456089 21.946968
23.470932 51.383587 11.221757
23.43734 51.382378 11.012595
23.426805 51.382839 10.812484
23.389872 51.381367 10.605185
23.376127 51.38158 10.40647
23.335903 51.379848 10.201111
23.327305 51.380424 10.006194
23.292187 51.379051 9.8050079
23.255476 51.377548 9.6048117
23.250628 51.37838 9.4139233
23.219189 51.377254 9.2174101
23.186216 51.376003 9.0217695
23.168516 51.375874 8.8306551
23.140942 51.375008 8.6383715
23.120302 51.374649 8.4484854
23.089787 51.373554 8.2576332
23.083118 51.374218 8.0719881
23.066608 51.374146 7.8852363
23.048683 51.37397 7.6989522
23.02935 51.37368 7.5131526
22.787317 51.363613 6.2224722
22.590353 51.352257 5.6780515
22.573011 51.352066 5.5007982
22.511894 51.348598 5.322989
22.543369 51.356468 4.4410715
22.049046 51.334549 2.0219176
22.013369 51.332943 1.8513983
21.968124 51.330605 1.6829387
25.691534 51.45771 25.982546
23.28441 51.36982 11.188449
23.25065 51.368587 10.980373
23.223438 51.367828 10.776013
23.202843 51.367538 10.575138
23.188923 51.367733 10.377512
23.156864 51.366592 10.175662
23.131502 51.365932 9.9770985
23.112896 51.365761 9.7815838
23.092762 51.365471 9.5867224
23.071108 51.365063 9.3925314
23.047947 51.364536 9.199028
23.031658 51.36451 9.008131
23.030668 51.365601 8.8214149
23.019869 51.365971 8.6331902
23.016041 51.366844 8.4470196
22.556414 51.346355 6.2149878
22.427595 51.340061 5.6780443
22.418779 51.3405 5.5019155
22.340824 51.33577 5.3245525
21.913883 51.324337 2.0356581
21.845057 51.320202 1.8720024
21.825001 51.319775 1.6995358
21.720657 51.312927 1.5445201
25.530201 51.446075 25.909979
23.086582 51.355236 11.149542
23.06908 51.355183 10.948129
23.049971 51.355007 10.747435
23.053995 51.35651 10.555215
23.023483 51.355488 10.353266
23.016191 51.356152 10.159489
23.015682 51.357307 9.9684896
22.997087 51.357136 9.7733068
22.993612 51.358063 9.5830908
22.988676 51.358879 9.3932056
22.399303 51.334614 6.2101912
22.245373 51.326427 5.6745791
22.245077 51.327499 5.499742
22.175758 51.323406 5.3235207
22.190769 51.329983 4.4511709
21.776545 51.313976 2.0466077
21.66638 51.30669 1.8914101
21.654863 51.306911 1.7183166
21.592319 51.303242 1.5555699
23.032698 51.346172 11.95341
23.005499 51.345448 11.743387
23.000988 51.346359 11.543328
23.003044 51.347744 11.346678
22.995371 51.348415 11.147552
22.986118 51.348961 10.948959
22.983511 51.349987 10.75358
22.979374 51.350899 10.558602
22.217072 51.320999 6.2037392
22.088825 51.314709 5.6722989
22.071661 51.314514 5.4977303
22.010954 51.311062 5.3226452
22.00939 51.316368 4.455132
21.639421 51.303631 2.0577087
21.521261 51.295734 1.9047133
21.493338 51.294697 1.7356155
21.4559 51.292938 1.5685091
22.98827 51.337658 12.782795
22.976017 51.338051 12.573036
22.970081 51.338894 12.367337
22.962473 51.339607 12.162228
22.961288 51.340775 11.960887
22.934177 51.340057 11.750777
22.929722 51.340977 11.550629
22.907379 51.340584 11.345158
21.927181 51.302593 5.673131
21.910067 51.302395 5.4994297
21.841043 51.298313 5.3250542
21.37904 51.284969 1.9214492
21.343016 51.283314 1.7546958
21.322311 51.282825 1.5848724
22.952631 51.329594 13.64549
22.939573 51.329971 13.429098
22.932631 51.330776 13.217175
22.923935 51.331444 13.005922
22.913494 51.331978 12.795363
22.885309 51.331219 12.578704
22.871367 51.331482 12.369758
22.847662 51.331028 12.158321
22.838356 51.331604 11.954146
21.763056 51.29026 5.6785712
21.746 51.290062 5.5057364
21.685549 51.286613 5.3323865
21.541492 51.281162 4.4781446
21.209635 51.272114 1.9474437
21.19038 51.271729 1.778314
21.17812 51.271877 1.6075146
22.919649 51.320145 14.761868
22.908236 51.320694 14.537436
22.88711 51.320534 14.309808
22.864014 51.320217 14.083224
22.854647 51.320877 13.865505
22.851315 51.32196 13.652373
22.84621 51.322906 13.439873
22.831423 51.323147 13.224368
22.830725 51.32439 13.016848
21.581779 51.276615 5.6884003
21.55641 51.275787 5.516346
21.538198 51.275494 5.3449445
21.470428 51.275749 4.491715
21.137032 51.260174 2.987263
21.133823 51.26099 2.8176875
21.112719 51.260456 2.6503794
21.082087 51.259197 2.484561
21.1 51.261627 2.3107321
21.075176 51.260811 2.1436577
21.065664 51.261162 1.9736645
21.038372 51.260159 1.8068676
21.009861 51.259064 1.6403149
22.878571 51.312614 15.47414
22.85795 51.312542 15.238267
22.850622 51.313408 15.012097
22.818195 51.312466 14.774075
22.830124 51.314686 14.562221
22.824753 51.315655 14.342623
22.817524 51.316483 14.12375
21.428205 51.265003 5.7048664
21.411386 51.264812 5.5338387
21.376524 51.263268 5.3627706
21.063219 51.251347 3.5140486
21.055567 51.251823 3.3459597
21.046673 51.252209 3.1778247
21.028215 51.251873 3.0107005
20.991913 51.250179 2.8459899
20.979338 51.250286 2.6781409
20.957232 51.249672 2.5116007
20.94219 51.249596 2.3438616
20.925907 51.249424 2.1761541
20.900133 51.248528 2.0100529
20.881386 51.248173 1.8425332
20.861399 51.247723 1.6750835
22.851593 51.303013 16.686459
22.83429 51.303253 16.440763
22.822283 51.303852 16.200888
22.815683 51.304821 15.966624
22.80702 51.305634 15.733231
22.811531 51.307369 15.509657
22.798845 51.307865 15.277917
22.784136 51.308208 15.04712
21.263735 51.252567 5.722208
21.247063 51.252384 5.5520368
21.220766 51.251476 5.3819933
20.98316 51.242062 4.0395484
20.954311 51.24094 3.8736532
20.940954 51.240982 3.7068148
20.92638 51.240932 3.5400772
20.89393 51.239529 3.3751793
20.87694 51.239296 3.2088549
20.858736 51.238972 3.0426691
20.847618 51.239185 2.8755109
20.826977 51.238674 2.7095537
20.79685 51.237446 2.5450697
20.790337 51.23801 2.3767991
20.76606 51.237225 2.2113233
20.740576 51.236347 2.0460622
20.738567 51.237259 1.8761042
20.718849 51.236824 1.7093248
20.632324 51.231293 1.5571314
22.801268 51.294483 17.447714
22.805593 51.296299 17.208828
22.792988 51.296906 16.960815
22.785566 51.297863 16.718719
22.790915 51.299713 16.487118
21.082764 51.23893 5.7346201
21.082943 51.239998 5.5660324
21.08189 51.240974 5.3974042
20.820477 51.229736 4.0612278
20.791815 51.228622 3.8961854
20.778631 51.228672 3.7302089
20.755911 51.228001 3.5651033
20.740314 51.227867 3.3994253
20.731817 51.228271 3.2329266
20.713797 51.227955 3.0674238
20.694571 51.227551 2.9020708
20.674141 51.227051 2.7368803
20.644243 51.225834 2.5731564
20.646183 51.227036 2.4042814
20.622126 51.226261 2.2394812
20.605097 51.226025 2.0733438
20.57863 51.225071 1.9088962
20.550968 51.224022 1.7446867
20.513927 51.22226 1.5825361
22.803873 51.288029 18.511328
22.781385 51.288029 18.242002
22.778097 51.28936 17.989729
22.794353 51.292049 17.753872
20.930168 51.227455 5.7408714
20.930351 51.228519 5.5730677
20.912594 51.228241 5.4048471
20.660275 51.21764 4.0757813
20.640053 51.217155 3.9110079
20.626955 51.217209 3.7458117
20.612656 51.217167 3.580714
20.597155 51.217037 3.4157281
20.572161 51.21619 3.2518094
20.545984 51.215252 3.0882008
20.526905 51.214848 2.9237974
20.50663 51.214355 2.7595553
20.493416 51.214401 2.594197
20.478985 51.214352 2.4288526
20.471561 51.21484 2.2620714
20.44647 51.213982 2.0982552
20.40379 51.211784 1.937933
20.392723 51.211998 1.7713076
20.37224 51.211494 1.6063946
22.794697 51.278763 19.883732
22.785236 51.279778 19.608122
22.737902 51.278118 19.305708
22.758432 51.281189 19.060495
22.741125 51.281593 18.788549
22.742725 51.283306 18.534035
22.713186 51.28281 18.259178
22.695503 51.283127 17.99629
20.767214 51.215229 5.7436523
20.767395 51.216286 5.5767179
20.749674 51.216003 5.4093661
20.551392 51.207359 4.4151258
20.514673 51.206665 4.0862374
20.464907 51.204983 3.7590218
20.450706 51.204945 3.5947917
20.435312 51.204815 3.4306722
20.410446 51.203972 3.2676196
20.400946 51.204292 3.1028156
20.373718 51.203266 2.9402208
20.361824 51.203403 2.7755523
20.332243 51.202202 2.6134639
20.334406 51.203407 2.446228
20.310673 51.202652 2.2830608
20.302153 51.203049 2.1170061
20.276026 51.20211 1.9541003
20.256891 51.201706 1.7897093
20.228392 51.200584 1.6272017
22.787107 51.270817 21.063786
22.768333 51.271275 20.765207
22.787863 51.274376 20.503387
22.784201 51.275845 20.224789
22.777868 51.277103 19.947304
22.74789 51.276691 19.653959
22.602467 51.268177 19.272671
22.608599 51.270237 19.016903
22.598145 51.271114 18.751059
22.563747 51.27029 18.470226
22.541021 51.270267 18.201626
20.620594 51.204224 5.7465491
20.604151 51.204033 5.5797563
20.59483 51.204372 5.4134598
20.332441 51.193962 3.9338691
20.311258 51.193394 3.7709153
20.305466 51.193985 3.606693
20.281925 51.193237 3.4441211
20.26548 51.193027 3.2809019
20.247852 51.192726 3.1178179
20.220797 51.191708 2.9559989
20.209051 51.191853 2.7921047
20.196108 51.191906 2.6282103
20.173748 51.19125 2.4657044
20.158413 51.191124 2.3019326
20.13369 51.190285 2.1397474
20.107794 51.189358 1.9777843
20.097044 51.189583 1.8126129
20.101355 51.190964 1.6437306
22.742321 51.261787 21.971214
22.779459 51.266193 21.711596
22.773754 51.267616 21.41581
22.771923 51.269279 21.127287
22.448652 51.255344 19.481476
22.442778 51.256577 19.214359
22.406139 51.25563 18.926235
22.402191 51.256954 18.667072
22.360149 51.255585 18.382029
20.858059 51.210209 7.6353254
20.788113 51.208229 7.1136727
20.773302 51.208191 6.9422522
20.451807 51.191578 5.7456927
20.46036 51.193253 5.5806756
20.459394 51.194214 5.4152584
20.228222 51.184071 4.2670341
20.209488 51.183681 4.1042681
20.197866 51.18383 3.9411504
20.168512 51.182644 3.7794886
20.162811 51.183239 3.6159563
20.147654 51.183121 3.4532194
20.123068 51.182289 3.2915502
20.097322 51.181366 3.1301894
20.078653 51.180981 2.9680305
20.067036 51.181133 2.8048251
20.046013 51.180569 2.6429107
20.040216 51.181164 2.4784234
20.016829 51.18042 2.3167171
19.992271 51.179588 2.1552198
19.98287 51.179913 1.99067
19.972246 51.180149 1.8260098
19.952267 51.179668 1.6630614
22.634193 51.250118 22.541534
22.617033 51.250816 22.224041
22.629866 51.253559 21.939217
22.230301 51.241322 19.107252
22.228197 51.242786 18.848118
22.223679 51.244061 18.58997
22.195385 51.243649 18.316711
21.704308 51.226395 15.190243
21.005758 51.207832 9.7860003
20.949036 51.205914 9.4131861
20.926685 51.205383 9.2301483
20.894754 51.20414 9.0458155
20.861414 51.202789 8.8623753
20.859486 51.203739 8.6871605
20.790537 51.199757 8.4982376
20.777699 51.19989 8.3225451
20.747084 51.198711 8.1441488
20.72337 51.198036 7.9680362
20.714848 51.198479 7.7953629
20.705051 51.198822 7.6230001
20.669188 51.197231 7.4472828
20.656837 51.197376 7.2758417
20.626675 51.196201 7.1026459
20.315346 51.181374 5.7427917
20.307249 51.181797 5.577836
20.281353 51.180889 5.4126501
20.212767 51.176781 5.2474813
20.045195 51.172359 3.946214
20.015921 51.171173 3.785342
20.00201 51.171143 3.6233654
19.995176 51.171646 3.4606366
19.962442 51.170193 3.3007033
19.953262 51.170521 3.1381447
19.942894 51.170761 2.9755595
19.931341 51.170914 2.8129601
19.902203 51.169727 2.6529508
19.871925 51.168457 2.4932978
19.873203 51.169586 2.3281412
19.840603 51.16814 2.1688931
19.83131 51.168468 2.0051169
19.820803 51.168705 1.8412298
19.800961 51.168232 1.6790571
19.70702 51.162098 1.5340515
22.777975 51.249622 24.344656
22.772114 51.251263 24.011639
22.500032 51.23851 22.790007
22.485544 51.239414 22.47176
22.454653 51.239159 22.142427
22.519882 51.24551 21.908268
22.090252 51.23114 19.057205
22.059561 51.230595 18.776644
22.040321 51.230827 18.508549
21.566793 51.216309 15.154947
21.03553 51.19833 11.662565
20.92849 51.192913 11.246316
20.904358 51.192318 11.052174
20.894699 51.192768 10.864596
20.931761 51.196609 10.694137
20.911238 51.196259 10.504521
20.881165 51.195202 10.313077
20.849581 51.194023 10.122581
20.832693 51.193913 9.9378939
20.798159 51.192505 9.7491779
20.76215 51.190983 9.5614614
20.740963 51.190533 9.3790979
20.710228 51.189381 9.1953449
20.694416 51.189312 9.0164661
20.677252 51.18914 8.8381414
20.642363 51.18766 8.6567345
20.622498 51.187279 8.4797344
20.634151 51.189213 8.3099527
20.587013 51.18681 8.1291151
20.571428 51.186729 7.9553537
20.554558 51.18655 7.7820621
20.528156 51.185658 7.607945
20.52523 51.186501 7.438169
20.482588 51.185452 7.0949278
20.459381 51.18478 6.9241099
20.171179 51.170582 5.7407289
20.154757 51.17038 5.5762038
20.145437 51.170708 5.4121695
20.076921 51.166599 5.2476325
19.923153 51.161156 4.2752347
19.904505 51.160767 4.1140437
19.876446 51.159668 3.9537036
19.863745 51.159725 3.7924147
19.866362 51.160938 3.6296673
19.851316 51.160816 3.4684122
19.82688 51.159988 3.3082311
19.809519 51.159695 3.1473196
19.790995 51.159309 2.9865546
19.771313 51.15884 2.8259485
19.76684 51.159523 2.6629171
19.752991 51.159496 2.5011082
19.737963 51.159382 2.3393226
19.705462 51.15794 2.180687
19.688099 51.157646 2.0191576
19.669558 51.157269 1.8576889
19.65794 51.157417 1.6944784
19.580408 51.152534 1.5463872
22.347702 51.227547 22.718079
22.306484 51.226601 22.375202
22.294601 51.227646 22.065826
21.86974 51.213703 19.20294
21.924704 51.219158 18.98974
21.921623 51.220535 18.732199
21.909082 51.221233 18.470207
21.431984 51.206398 15.12451
21.191404 51.198341 13.529663
21.115993 51.194183 13.29081
21.069487 51.192085 13.069057
20.989929 51.187592 12.834132
20.871691 51.183884 12.009884
20.837877 51.182621 11.80656
20.810314 51.181801 11.607546
20.797016 51.182003 11.415707
20.774235 51.181507 11.221538
20.757881 51.181473 11.031156
20.732025 51.18074 10.838646
20.720675 51.181053 10.652553
20.699841 51.180668 10.464365
20.677532 51.180168 10.276943
20.677971 51.18132 10.097824
20.636621 51.179417 9.906888
20.626171 51.17976 9.7264566
20.614346 51.18 9.5465183
20.584894 51.17894 9.3627539
20.570316 51.178967 9.184021
20.538074 51.177689 9.001833
20.528944 51.178101 8.8262758
20.518497 51.178413 8.6511192
20.473989 51.176216 8.4694166
20.469095 51.176926 8.2970991
20.44651 51.176327 8.1219168
20.439056 51.176842 7.9503269
20.413885 51.176044 7.7762451
20.395657 51.175755 7.6041307
20.384405 51.175976 7.4337378
20.363655 51.175491 7.2625489
20.038494 51.160622 5.7436295
20.030336 51.161034 5.5799832
20.004444 51.160118 5.4161134
19.919456 51.154774 5.2520933
19.782408 51.150555 4.2840772
19.772043 51.150784 4.1230669
19.760519 51.150928 3.9621291
19.731361 51.149738 3.80266
19.72576 51.15033 3.6413002
19.694323 51.148964 3.4824724
19.694611 51.150002 3.3203046
19.660894 51.148464 3.16208
19.658836 51.149323 2.9998453
19.622856 51.147614 2.8422718
19.610285 51.147678 2.6813185
19.596537 51.147652 2.520375
19.589764 51.148159 2.3579824
19.565527 51.147339 2.1985672
19.564501 51.148289 2.0344405
19.53793 51.147293 1.8752187
19.510216 51.14621 1.7162409
19.457134 51.143188 1.5632225
22.229177 51.216938 22.994459
22.142797 51.214794 22.301949
22.143476 51.216694 22.006037
21.763523 51.20583 19.189669
21.769344 51.20784 18.937622
21.75178 51.208199 18.669844
21.745804 51.209347 18.414248
21.723269 51.20932 18.148935
21.121353 51.183926 14.995489
21.082439 51.18248 14.760573
21.071663 51.183025 14.544343
20.991268 51.179867 14.08542
20.699741 51.171192 11.979083
20.681477 51.171047 11.783258
20.669544 51.171352 11.591421
20.640226 51.170387 11.394057
