# .PCD v0.7 - Point Cloud Data file format
VERSION 0.7
FIELDS x y z
SIZE 4 4 4
TYPE F F F
COUNT 1 1 1
WIDTH 1560
HEIGHT 1
VIEWPOINT 0 0 0 1 0 0 0
POINTS 1560
DATA ascii
-41.373264 45.206898 9.3311892
-42.572437 43.744759 11.025624
-42.545464 43.778545 10.952673
-42.534462 43.791012 10.864385
-42.53968 43.781849 10.761449
-42.519352 43.806789 10.68324
-42.467796 43.873375 10.633381
-42.368645 44.003376 10.624538
-42.253189 44.155045 10.627001
-42.174755 44.25732 10.594792
-42.139256 44.302372 10.52509
-42.114876 44.332611 10.445993
-42.112614 44.333412 10.349393
-42.110958 44.333424 10.253095
-42.104431 44.339935 10.161241
-42.109444 44.331112 10.061441
-42.104065 44.336128 9.9700813
-42.104771 44.333069 9.8750076
-42.106068 44.329247 9.7802849
-42.107944 44.324665 9.6859207
-42.104805 44.326767 9.5955782
-42.119064 44.305782 9.4947414
-42.1227 44.298931 9.4015961
-42.036343 44.411457 9.3633499
-41.881817 44.614342 9.3627729
-41.726833 44.817722 9.3579912
-41.565712 45.029137 9.3521538
-41.409901 45.23341 9.3388481
-42.618172 43.755787 11.12203
-42.611271 43.762764 11.028452
-42.59465 43.78278 10.945203
-42.588902 43.78825 10.851921
-42.58897 43.785954 10.753974
-42.568714 43.810871 10.675737
-42.512005 43.884533 10.630556
-42.413002 44.01469 10.621495
-42.297718 44.166546 10.623714
-42.224754 44.261791 10.586798
-42.194721 44.299667 10.512605
-42.170448 44.329849 10.433553
-42.162842 44.337788 10.341313
-42.172119 44.323219 10.236605
-42.171162 44.32233 10.140777
-42.170795 44.320663 10.045271
-42.165512 44.325569 9.9540644
-42.166309 44.322388 9.8591537
-42.16214 44.32584 9.7684002
-42.164082 44.321167 9.6741219
-42.155418 44.330627 9.5875006
-42.175316 44.302086 9.4831247
-42.173374 44.302635 9.3935471
-42.081535 44.422764 9.3585768
-41.915916 44.640953 9.3643284
-41.761147 44.844601 9.3590775
-41.605961 45.048702 9.3496103
-41.461834 45.238003 9.3297796
-42.672813 43.755543 11.106526
-42.676266 43.748615 11.002771
-42.654644 43.775383 10.924761
-42.649014 43.780689 10.831621
-42.643978 43.785213 10.738722
-42.629063 43.803013 10.655706
-42.562 43.890751 10.620048
-42.4473 44.042297 10.624779
-42.337452 44.187271 10.621949
-42.275261 44.268326 10.575717
-42.245319 44.30616 10.501467
-42.226517 44.329079 10.418016
-42.229824 44.322411 10.317297
-42.222908 44.329445 10.225428
-42.227463 44.321156 10.125485
-42.221695 44.326687 10.034097
-42.221973 44.324142 9.9389267
-42.217319 44.328217 9.8479757
-42.21875 44.324169 9.7534218
-42.220764 44.319363 9.6592302
-42.223354 44.313805 9.5654116
-42.232128 44.300014 9.4684229
-42.224632 44.307949 9.3823948
-42.104748 44.465801 9.3641768
-41.956299 44.661667 9.359272
-41.801758 44.865547 9.353548
-41.629707 45.092663 9.3530245
-41.502895 45.259384 9.3233232
-42.742756 43.733959 11.075728
-42.720753 43.761288 10.99783
-42.704334 43.781101 10.914669
-42.703949 43.77935 10.816562
-42.699001 43.783756 10.72373
-42.673721 43.815529 10.650377
-42.601501 43.910416 10.61924
-42.497501 44.04797 10.614285
-42.387829 44.193077 10.61124
-42.336433 44.259834 10.555891
-42.295918 44.311958 10.490579
-42.282578 44.327591 10.402752
-42.280556 44.328045 10.306382
-42.289993 44.313145 10.201953
-42.28376 44.319286 10.110467
-42.278076 44.324703 10.019149
-42.278435 44.322041 9.9240618
-42.273865 44.326 9.8331833
-42.280907 44.314411 9.7349329
-42.277454 44.316902 9.6446114
-42.280117 44.311222 9.5508804
-42.294552 44.289806 9.4504538
-42.275921 44.312649 9.3714914
-42.144966 44.485706 9.3597889
-41.991066 44.689354 9.3577213
-41.836723 44.89349 9.3514462
-41.670589 45.113274 9.347208
-41.555386 45.264912 9.3110008
-42.790371 43.73674 11.069356
-42.773567 43.757145 10.986328
-42.75211 43.783844 10.90825
-42.75695 43.775066 10.805191
-42.746895 43.786407 10.717307
-42.721703 43.818176 10.643922
-42.649616 43.913132 10.612693
-42.535233 44.065033 10.616898
-42.436298 44.196049 10.604422
-42.379688 44.270012 10.553497
-42.349957 44.307774 10.479231
-42.336716 44.323349 10.391467
-42.334778 44.323723 10.295176
-42.33886 44.316021 10.195014
-42.338139 44.314804 10.099425
-42.332539 44.320152 10.00818
-42.338463 44.31004 9.9092379
-42.328484 44.321304 9.8223724
-42.330063 44.317059 9.7279882
-42.332222 44.312054 9.6339684
-42.329384 44.31377 9.5439377
-42.349445 44.284786 9.4399977
-42.319691 44.322636 9.3679953
-42.188938 44.495869 9.3560448
-42.029621 44.707294 9.3569841
-41.869831 44.919247 9.3535509
-41.709599 45.13168 9.3457317
-41.611671 45.260582 9.3000984
-42.834713 43.742889 11.072697
-42.823063 43.756439 10.984486
-42.806816 43.776218 10.901373
-42.806561 43.774391 10.803342
-42.801762 43.778732 10.710579
-42.771446 43.817551 10.642057
-42.694244 43.919678 10.615519
-42.580017 44.071747 10.619599
-42.48122 44.202911 10.607004
-42.440666 44.25544 10.542513
-42.400375 44.307602 10.477211
-42.387196 44.323196 10.389441
-42.385307 44.323578 10.293149
-42.389435 44.31588 10.192989
-42.38876 44.314667 10.0974
-42.383213 44.320026 10.006152
-42.378212 44.324673 9.915082
-42.379253 44.321194 9.820343
-42.380878 44.316952 9.7259588
-42.38308 44.311951 9.6319408
-42.385853 44.306194 9.5382967
-42.400368 44.284672 9.4379768
-42.365093 44.33009 9.3694105
-42.234535 44.503506 9.3573217
-42.086735 44.699989 9.3515453
-41.921562 44.919708 9.3513288
-41.767265 45.124714 9.3403244
-41.652451 45.276634 9.3038397
-42.884731 43.740238 11.07299
-42.873135 43.75383 10.984779
-42.862083 43.766701 10.89664
-42.856735 43.771866 10.803634
-42.851978 43.776241 10.71087
-42.811314 43.829231 10.651942
-42.739429 43.924438 10.620528
-42.625347 44.076668 10.624529
-42.531971 44.200832 10.607288
-42.486195 44.260612 10.547285
-42.451305 44.30566 10.477493
-42.438187 44.321301 10.389723
-42.441727 44.314445 10.289176
-42.445911 44.306747 10.189095
-42.445301 44.305538 10.093584
-42.439823 44.310909 10.002416
-42.434891 44.315563 9.9114246
-42.44149 44.30468 9.812911
-42.443192 44.300415 9.718688
-42.439934 44.302856 9.6285238
-42.437206 44.304592 9.5385714
-42.457317 44.275578 9.434721
-42.416546 44.328571 9.3696833
-42.280579 44.509701 9.3609591
-42.127357 44.713966 9.3583813
-41.968048 44.926319 9.3547955
-41.813976 45.131527 9.3437042
-41.699337 45.283615 9.3071346
-42.937706 43.731178 11.06731
-42.926201 43.74477 10.979171
-42.910107 43.764599 10.89613
-42.909966 43.762794 10.798173
-42.900105 43.774193 10.710358
-42.864738 43.820179 10.646626
-42.793003 43.915443 10.615274
-42.673862 44.074894 10.623975
-42.580639 44.199173 10.606716
-42.534958 44.259018 10.546704
-42.50016 44.304123 10.476906
-42.487099 44.319794 10.389132
-42.496063 44.305679 10.284334
-42.494907 44.305279 10.188505
-42.494343 44.304092 10.092995
-42.488918 44.30949 10.001825
-42.489506 44.306782 9.9068995
-42.490673 44.303303 9.8123198
-42.486908 44.306499 9.7218695
-42.494736 44.294052 9.6242399
-42.492077 44.295788 9.5343676
-42.512226 44.26675 9.430603
-42.460388 44.334866 9.3725328
-42.324615 44.516174 9.3637018
-42.177238 44.713047 9.3577309
-42.018177 44.925583 9.3541155
-41.870007 45.123341 9.339879
-41.755577 45.275547 9.3033705
-42.992653 43.72422 11.059855
-42.97612 43.744705 10.976882
-42.954952 43.771507 10.898854
-42.954819 43.769722 10.800822
-42.95015 43.774117 10.708055
-42.920059 43.813068 10.639511
-42.832787 43.929672 10.62235
-42.724277 44.075062 10.621552
-42.647034 44.177944 10.590556
-42.585606 44.259327 10.544208
-42.561531 44.290005 10.465578
-42.543217 44.312878 10.382283
-42.552223 44.298706 10.277569
-42.556519 44.290947 10.177649
-42.550613 44.297035 10.086387
-42.545246 44.302399 9.9952946
-42.551346 44.292248 9.8965187
-42.5471 44.296124 9.8059511
-42.543388 44.299286 9.71558
-42.540211 44.301739 9.6254129
-42.559738 44.273487 9.5210295
-42.563259 44.266914 9.4280977
-42.517101 44.327526 9.3665562
-42.37595 44.516537 9.3610964
-42.228794 44.713573 9.3550463
-42.053062 44.949135 9.3609371
-41.910721 45.139481 9.3432589
-41.790771 45.299507 9.3095551
-43.054588 43.712036 11.046309
-43.027962 43.746315 10.973662
-43.017063 43.759155 10.885583
-43.016987 43.757256 10.787704
-43.007214 43.768589 10.699952
-42.972 43.814587 10.636253
-42.879635 43.938389 10.623743
-42.797489 44.048225 10.59961
-42.741543 44.122368 10.550635
-42.67511 44.210751 10.509346
-42.629967 44.270142 10.448857
-42.627781 44.271114 10.352814
-42.620823 44.278591 10.261315
-42.619801 44.278015 10.165803
-42.613953 44.284012 10.074697
-42.608643 44.289284 9.9837608
-42.61478 44.27903 9.8851509
-42.610588 44.282814 9.7947416
-42.612427 44.278431 9.7007637
-42.647934 44.228394 9.5850458
-42.695316 44.162281 9.4634733
-42.66024 44.208023 9.3964205
-42.614304 44.268471 9.3355017
-42.551811 44.351337 9.2835855
-42.534325 44.373199 9.2039013
-42.528507 44.379253 9.11759
-42.675617 44.178238 8.9473972
-42.665558 44.190102 8.8665543
-42.672977 44.178318 8.7768307
-42.669537 44.18124 8.6932859
-42.666561 44.18354 8.6098728
-42.664051 44.185219 8.5265989
-42.662006 44.186275 8.443471
-42.666176 44.17894 8.3579721
-42.659298 44.18655 8.2776823
-42.65863 44.185764 8.1950359
-42.658424 44.184372 8.1125641
-42.658669 44.182373 8.0302744
-42.65937 44.179768 7.9481726
-42.660519 44.176563 7.8662663
-42.650436 44.188522 7.7884202
-42.664169 44.168354 7.7030678
-42.66666 44.163357 7.6217885
-42.651981 44.18153 7.5457463
-42.655331 44.175388 7.4646611
-42.665016 44.160717 7.3823123
-42.651554 44.177242 7.3060293
-42.644394 44.185284 7.2281504
-42.65538 44.168877 7.146461
-42.654972 44.167824 7.067513
-42.65498 44.166214 6.9886594
-42.649475 44.172035 6.9108858
-42.644371 44.177311 6.833046
-42.657513 44.158039 6.752727
-42.653236 44.162209 6.6750321
-42.655319 44.157825 6.5966568
-42.645897 44.168915 6.5195017
-42.648796 44.163437 6.4412203
-42.652107 44.15741 6.3630819
-42.6618 44.142815 6.2848101
-42.653992 44.15173 6.2074552
-42.646587 44.160103 6.1299129
-42.657505 44.143875 6.0521245
-42.650906 44.151161 5.9744859
-42.650684 44.149883 5.8968306
-42.656845 44.140049 5.8194261
-42.657436 44.137688 5.7418847
-42.658432 44.134781 5.6643653
-42.653858 44.139343 5.5863724
-42.649693 44.143353 5.5082388
-42.669807 44.114822 5.4326758
-42.654522 44.133728 5.3531017
-42.669464 44.112137 5.277308
-42.655014 44.129917 5.1972346
-42.664799 44.115231 5.1207991
-42.663086 44.115944 5.0423851
-43.105373 43.714088 11.043248
-43.078785 43.748356 10.970583
-43.073002 43.754173 10.877483
-43.072948 43.752186 10.779679
-43.058048 43.7705 10.696861
-43.017696 43.823582 10.637926
-42.930656 43.940395 10.620566
-42.853867 44.043159 10.591744
-42.813812 44.095764 10.529145
-42.774006 44.148014 10.465736
-42.750385 44.178181 10.388326
-42.743168 44.185986 10.297623
-42.747208 44.178463 10.198584
-42.741116 44.184761 10.108342
-42.735558 44.190346 10.018267
-42.746811 44.173054 9.916357
-42.736938 44.184544 9.830802
-42.738487 44.1805 9.7375946
-42.74609 44.168232 9.6409874
-42.776329 44.125195 9.5301905
-42.8018 44.088684 9.4241867
-42.778061 44.119099 9.3508902
-42.760246 44.14146 9.2737408
-42.748417 44.155689 9.1929913
-42.742626 44.161716 9.1088934
-42.726067 44.182377 9.0312691
-42.771919 44.118305 8.9192467
-42.767662 44.122292 8.8360395
-42.769539 44.117962 8.7500114
-42.766224 44.120686 8.6671324
-42.757671 44.130524 8.5871611
-42.766701 44.116524 8.4990959
-42.770515 44.109608 8.4141207
-42.763321 44.117622 8.3345098
-42.750797 44.132862 8.257328
-42.755997 44.1241 8.172924
-42.744312 44.138206 8.095665
-42.756226 44.120373 8.0095243
-42.751202 44.125469 7.9302015
-42.758247 44.114243 7.8468843
-42.75993 44.110283 7.7658663
-42.762054 44.105736 7.6850595
-42.776329 44.084763 7.6009631
-42.767628 44.094868 7.5241036
-42.771072 44.088558 7.4439688
-42.745537 44.121407 7.3715463
-42.755699 44.10603 7.2900515
-42.76041 44.098022 7.2103019
-42.753742 44.105389 7.1332803
-42.759296 44.096249 7.0538764
-42.753441 44.10252 6.9768667
-42.759838 44.092262 6.8978333
-42.754799 44.097439 6.8208594
-42.762028 44.086063 6.7422218
-42.751854 44.098164 6.6660228
-42.753963 44.093704 6.5883455
-42.756481 44.088696 6.5108008
-42.753456 44.091164 6.433847
-42.750828 44.09309 6.3568625
-42.754559 44.086452 6.2795749
-42.758698 44.079273 6.2024426
-42.751312 44.087608 6.1256814
-42.762218 44.071327 6.0486865
-42.755634 44.078587 5.9718294
-42.755413 44.077278 5.8949604
-42.749626 44.083454 5.8178568
-42.750202 44.08107 5.7409272
-42.751183 44.078144 5.6640196
-42.752563 44.07468 5.5871406
-42.754345 44.070679 5.5102949
-42.756527 44.066139 5.4334893
-42.753155 44.069057 5.3559623
-42.756142 44.063438 5.2791672
-42.747631 44.073246 5.2005472
-42.751423 44.06654 5.1236992
-42.74968 44.067257 5.0458055
-43.157104 43.714531 11.041756
-43.140694 43.73489 10.958905
-43.124767 43.754597 10.875979
-43.119579 43.759602 10.783113
-43.109821 43.770882 10.695354
-43.074703 43.816898 10.631619
-42.982609 43.940887 10.619012
-42.916389 44.029415 10.580902
-42.881691 44.074787 10.51389
-42.85257 44.11253 10.441751
-42.845005 44.1208 10.351532
-42.853958 44.106506 10.2485
-42.85289 44.105934 10.154571
-42.852398 44.104584 10.060959
-42.841694 44.117199 9.9758377
-42.847725 44.106983 9.8787308
-42.843491 44.11079 9.7899733
-42.8507 44.098999 9.6937304
-42.831116 44.123772 9.6168137
-42.877922 44.058022 9.4954777
-42.875931 44.058838 9.4082041
-42.857838 44.081612 9.3317089
-42.845695 44.096275 9.2515287
-42.850716 44.08757 9.161211
-42.856277 44.078144 9.0713139
-42.839931 44.098553 8.9945927
-42.84087 44.095444 8.9083328
-42.84795 44.083984 8.8193312
-42.849903 44.079525 8.7337208
-42.852345 44.074406 8.6484051
-42.838196 44.09185 8.5717039
-42.841572 44.08548 8.4867487
-42.833988 44.094017 8.4073172
-42.838306 44.086388 8.3228359
-42.837353 44.08593 8.2411213
-42.836849 44.084866 8.1595774
-42.8368 44.083199 8.0782108
-42.837193 44.080933 7.9970284
-42.838036 44.078068 7.9160366
-42.839321 44.074612 7.8352432
-42.835228 44.078457 7.7565775
-42.84322 44.065918 7.6742773
-42.839985 44.068611 7.5958695
-42.831306 44.078682 7.5191793
-42.840626 44.064377 7.4376392
-42.838646 44.06538 7.3594947
-42.837082 44.065826 7.2814221
-42.84182 44.057743 7.202107
-42.835194 44.065052 7.1255159
-42.834866 44.063831 7.0476947
-42.834953 44.062061 6.9699697
-42.835449 44.059738 6.8923469
-42.830429 44.064873 6.8157191
-42.831738 44.061459 6.7382321
-42.833454 44.057495 6.6608653
-42.835579 44.052986 6.5836253
-42.838108 44.047935 6.5065169
-42.829151 44.058395 6.43045
-42.832481 44.052261 6.3534498
-42.824314 44.061653 6.2771535
-42.8344 44.04641 6.2000957
-42.832985 44.046696 6.1235785
-42.826008 44.054474 6.0470695
-42.831341 44.045654 5.9705296
-42.825157 44.052357 5.8938503
-42.837246 44.034439 5.8177471
-42.83186 44.04007 5.7410073
-42.82687 44.045155 5.6641159
-42.834194 44.033665 5.5880942
-42.830006 44.037674 5.5110903
-42.826218 44.041138 5.4339519
-42.834728 44.028046 5.3582244
-42.825802 44.038422 5.2801528
-42.823227 44.040249 5.202734
-42.821056 44.041523 5.125205
-43.213543 43.706993 11.035345
-43.19212 43.73428 10.95765
-43.17622 43.75399 10.874721
-43.181282 43.744926 10.771983
-43.161301 43.77026 10.694091
-43.121063 43.823399 10.635128
-43.023872 43.954647 10.627121
-42.973366 44.021816 10.574948
-42.938744 44.067184 10.508003
-42.920231 44.090466 10.426987
-42.918049 44.091377 10.332605
-42.916451 44.091507 10.238523
-42.915432 44.090862 10.144752
-42.920353 44.0821 10.04714
-42.909733 44.094627 9.9622545
-42.915825 44.084301 9.8653898
-42.911667 44.088017 9.7768717
-42.902576 44.098484 9.6923885
-42.915855 44.078388 9.5929174
-42.940754 44.042435 9.4867916
-42.944321 44.03566 9.3960838
-42.92078 44.065922 9.3233423
-42.908695 44.08054 9.2433224
-42.91375 44.071766 9.1531715
-42.913757 44.069897 9.0667076
-42.908661 44.074997 8.9836941
-42.915276 44.06414 8.8945808
-42.91114 44.067951 8.8119535
-42.907471 44.071144 8.7294464
-42.904259 44.073715 8.647068
-42.901505 44.075668 8.5648241
-42.904911 44.069244 8.4800396
-42.897369 44.07774 8.400773
-42.901711 44.070057 8.3164635
-42.900787 44.069553 8.2349176
-42.900318 44.068443 8.1535435
-42.900291 44.066734 8.0723467
-42.894936 44.072285 7.9935117
-42.901585 44.061516 7.9105144
-42.908699 44.050125 7.8278856
-42.904644 44.053925 7.7494755
-42.901009 44.057159 7.6711059
-42.903625 44.051903 7.5910339
-42.894985 44.061943 7.5145135
-42.898453 44.055546 7.4347258
-42.896488 44.05653 7.3566675
-42.894936 44.056953 7.2786808
-42.893799 44.056824 7.2007723
-42.90485 44.040165 7.1204844
-42.904549 44.03891 7.042923
-42.904655 44.037106 6.9654589
-42.899261 44.042759 6.8890686
-42.900181 44.03986 6.8117285
-42.901508 44.036415 6.7345033
-42.897312 44.040447 6.6581087
-42.893517 44.043945 6.5816674
-42.890114 44.046902 6.5051842
-42.893047 44.04129 6.4282155
-42.890442 44.043175 6.3517532
-42.894176 44.036484 6.274992
-42.892368 44.037292 6.1985745
-42.890953 44.037563 6.1221447
-42.895885 44.029263 6.0456948
-42.88932 44.036499 5.9692707
-42.889099 44.035164 5.892838
-42.895222 44.025257 5.8166652
-42.895794 44.02285 5.7403469
-42.884865 44.035969 5.6632056
-42.88623 44.032482 5.5867639
-42.887997 44.028465 5.5103559
-42.884216 44.031925 5.4333038
-42.886776 44.026829 5.356895
-42.889732 44.021194 5.2805371
-42.887157 44.023026 5.2032919
-43.252007 43.71999 11.043947
-43.240696 43.733425 10.955926
-43.229919 43.746136 10.867981
-43.224792 43.751087 10.775188
-43.215111 43.762325 10.687498
-43.1698 43.822567 10.633375
-43.07275 43.953915 10.625328
-43.017109 44.028294 10.577762
-42.993008 44.059319 10.501626
-42.974564 44.082577 10.42068
-42.977715 44.076183 10.321983
-42.981495 44.068951 10.223744
-42.964561 44.090164 10.142916
-42.969494 44.081383 10.045307
-42.975048 44.07177 9.9481859
-42.965008 44.083561 9.863555
-42.971722 44.072399 9.7672024
-42.968147 44.075352 9.67904
-42.970558 44.070118 9.5873289
-42.989979 44.041607 9.4849701
-42.993561 44.034813 9.3942642
-42.970066 44.06509 9.3215132
-42.969101 44.064537 9.2346287
-42.968639 44.063309 9.1479921
-42.968685 44.061401 9.0616112
-42.969227 44.058823 8.9754953
-42.964657 44.063248 8.8927517
-42.960545 44.067047 8.8101225
-42.956894 44.070229 8.7276144
-42.95937 44.065056 8.6423845
-42.96233 44.059231 8.5574579
-42.960083 44.060524 8.4755249
-42.963997 44.053417 8.3911438
-42.956947 44.061279 8.3121166
-42.961796 44.052921 8.2282267
-42.961365 44.051769 8.1470213
-42.955624 44.057869 8.0682545
-42.950298 44.0634 7.9895034
-42.95697 44.052597 7.9065943
-42.964104 44.041168 7.8240547
-42.954273 44.052856 7.7476473
-42.950657 44.056084 7.6692767
-42.953289 44.050812 7.5892057
-42.956352 44.04496 7.5093603
-42.954002 44.046478 7.4313221
-42.957924 44.039474 7.3518605
-42.962273 44.031895 7.272644
-42.961174 44.031727 7.1949949
-42.960487 44.031006 7.1174302
-42.954319 44.037731 7.0410986
-42.954445 44.035915 6.9636345
-42.960876 44.025532 6.8853045
-42.955914 44.030628 6.809021
-42.951347 44.035191 6.7326789
-42.953091 44.031185 6.6555748
-42.949318 44.034672 6.5792193
-42.951866 44.029579 6.5022879
-42.948887 44.03199 6.4259424
-42.946304 44.033859 6.3495665
-42.950054 44.027153 6.2728949
-42.948265 44.02795 6.1965642
-42.952812 44.020164 6.1201234
-42.951813 44.01989 6.0438614
-42.945274 44.027126 5.9675217
-42.951008 44.017735 5.8913407
-42.945259 44.023895 5.8148427
-42.945843 44.021477 5.7385254
-42.946827 44.018524 5.6622305
-42.942265 44.023064 5.5854516
-42.944038 44.019035 5.5091319
-42.940277 44.022491 5.4321661
-42.942848 44.017387 5.3558455
-42.939888 44.019756 5.2787156
-43.312511 43.706234 11.031328
-43.291176 43.733536 10.953614
-43.285511 43.739223 10.860658
-43.280434 43.744118 10.767939
-43.265675 43.762383 10.685174
-43.220436 43.822659 10.631027
-43.123528 43.954109 10.622926
-43.073189 44.021358 10.570705
-43.043922 44.059563 10.499182
-43.02026 44.090054 10.422694
-43.023396 44.08366 10.323922
-43.027164 44.076424 10.225607
-43.020897 44.083008 10.136226
-43.015163 44.088875 10.047007
-43.026073 44.071873 9.9457359
-43.01606 44.083649 9.8611002
-43.017361 44.079895 9.7686653
-43.019222 44.075382 9.676589
-43.016186 44.077614 9.5886316
-43.04105 44.041561 9.4825315
-43.039143 44.042278 9.3954191
-43.021191 44.065018 9.3190651
-43.020241 44.064442 9.2321806
-43.025349 44.055573 9.1422005
-43.019852 44.061253 9.059165
-43.020405 44.058647 8.9730501
-43.015854 44.063053 8.8903046
-43.011761 44.066837 8.8076735
-43.013767 44.062279 8.7222338
-43.016266 44.057056 8.6370897
-43.019253 44.051186 8.552249
-43.005665 44.067993 8.4757586
-43.009571 44.060875 8.3912964
-43.008247 44.060928 8.3096704
-43.013096 44.05254 8.2257833
-43.01268 44.051365 8.1445789
-43.006958 44.057449 8.0658102
-43.00742 44.055084 7.9848847
-43.008327 44.052128 7.9041514
-43.009674 44.048573 7.8236175
-43.011459 44.044426 7.743289
-43.019493 44.031765 7.6613436
-43.016342 44.034374 7.5832763
-43.013603 44.036423 7.5052633
-43.011276 44.03791 7.42731
-43.015213 44.030869 7.3479376
-43.007862 44.039219 7.2716088
-43.006767 44.03904 7.1938729
-43.006088 44.038303 7.1162219
-43.005814 44.037014 7.038662
-43.005951 44.035175 6.9611983
-43.006493 44.032784 6.8838382
-43.001541 44.037872 6.807466
-43.002892 44.034389 6.7302432
-42.998737 44.038395 6.6538458
-43.000889 44.033825 6.5767837
-43.003445 44.028709 6.4998546
-43.000484 44.031097 6.4235077
-42.997917 44.032951 6.3471317
-43.001671 44.026215 6.270462
-43.005825 44.018944 6.1939492
-42.998516 44.027233 6.1177883
-42.997532 44.026939 6.0414391
-43.002876 44.018055 5.965169
-43.002682 44.016689 5.8889122
-43.002884 44.014786 5.8126659
-42.997547 44.020393 5.7360954
-42.998539 44.017414 5.6598015
-42.999928 44.013901 5.5835366
-43.001709 44.009853 5.5073061
-42.992039 44.021324 5.4297352
-42.988693 44.024216 5.3526397
-42.997589 44.010529 5.2771502
-43.354691 43.720505 11.040072
-43.343418 43.73391 10.952043
-43.33268 43.746586 10.864088
-43.332672 43.744442 10.766363
-43.323048 43.755608 10.678741
-43.272747 43.822998 10.629428
-43.17598 43.954548 10.621284
-43.115303 44.036198 10.578285
-43.096478 44.060043 10.497507
-43.078087 44.08329 10.416544
-43.070686 44.091377 10.326628
-43.074417 44.084133 10.228237
-43.073448 44.083385 10.134544
-43.073055 44.081863 10.041173
-43.073231 44.079571 9.9481306
-43.063206 44.091354 9.8634119
-43.069878 44.080147 9.7669868
-43.071728 44.0756 9.6749115
-43.068687 44.077801 9.5869541
-43.088039 44.04921 9.4845352
-43.086102 44.049927 9.3973417
-43.07917 44.057529 9.3138866
-43.072701 44.064499 9.2305088
-43.072247 44.063213 9.1438732
-43.077858 44.053608 9.0542345
-43.072842 44.058617 8.9713802
-43.068287 44.062996 8.8886337
-43.06419 44.066753 8.8060017
-43.054924 44.077618 8.7264204
-43.057381 44.072407 8.6411104
-43.060322 44.066536 8.5561047
-43.063747 44.060017 8.4714108
-43.061962 44.06065 8.3896275
-43.066334 44.052853 8.3054943
-43.054028 44.067924 8.2289658
-43.059311 44.058899 8.1452541
-43.059319 44.05711 8.0641441
-43.054016 44.062599 7.9853888
-43.060669 44.051727 7.9024878
-43.050442 44.063969 7.8259516
-43.057987 44.051895 7.7435412
-43.060188 44.047142 7.6633415
-43.057014 44.049751 7.5851021
-43.060074 44.043839 7.5052609
-43.063564 44.037342 7.4256525
-43.055805 44.04623 7.3492484
-43.054287 44.046589 7.271348
-43.053181 44.046391 7.1935263
-43.05835 44.037628 7.1145654
-43.058067 44.036312 7.0370059
-43.058197 44.034447 6.9595437
-43.058727 44.032024 6.8821845
-43.05378 44.03709 6.8058109
-43.061012 44.025539 6.7277999
-43.056862 44.029522 6.6514888
-43.053101 44.032967 6.5751309
-43.055645 44.027821 6.4982033
-43.052681 44.030186 6.4218564
-43.05011 44.032013 6.3454795
-43.053848 44.025246 6.2688127
-43.052071 44.026001 6.192482
-43.050686 44.026215 6.1161394
-43.055614 44.017834 6.0397854
-43.049099 44.025036 5.9634414
-43.048897 44.02364 5.8870974
-43.049088 44.021706 5.8107653
-43.049675 44.019238 5.7344499
-43.050659 44.016232 5.6581573
-43.046116 44.020733 5.5813751
-43.04789 44.016651 5.5050592
-43.055973 44.004002 5.4294758
-43.046707 44.014908 5.3517742
-43.043758 44.017231 5.2746429
-43.410717 43.713596 11.034601
-43.399471 43.726952 10.946644
-43.393826 43.732555 10.853761
-43.383675 43.744427 10.766042
-43.37405 43.755581 10.678419
-43.323818 43.823013 10.629094
-43.227196 43.954666 10.620929
-43.161411 44.043564 10.582538
-43.13736 44.074657 10.50622
-43.118938 44.097961 10.425097
-43.122017 44.09153 10.326251
-43.120434 44.091564 10.23217
-43.119431 44.09082 10.138399
-43.118999 44.089302 10.044949
-43.119137 44.087009 9.951828
-43.114468 44.091381 9.8630371
-43.110317 44.095047 9.774435
-43.11211 44.090523 9.6822004
-43.114456 44.085251 9.590333
-43.133739 44.056633 9.4878378
-43.131775 44.05735 9.4005623
-43.113819 44.080128 9.3240356
-43.112808 44.079544 9.2369881
-43.11784 44.070652 9.1468477
-43.112301 44.07634 9.0636463
-43.112797 44.073723 8.9773684
-43.1082 44.078129 8.8944559
-43.109673 44.074192 8.8086472
-43.106014 44.077328 8.7260532
-43.10281 44.079845 8.643589
-43.100067 44.081741 8.5612602
-43.097775 44.083019 8.4790745
-43.1073 44.068066 8.3918571
-43.105942 44.068085 8.3101482
-43.105034 44.067493 8.2286034
-43.104572 44.066299 8.1472311
-43.104557 44.064499 8.0660372
-43.093487 44.077881 7.9893637
-43.10585 44.059101 7.904212
-43.095619 44.071342 7.8275886
-43.10891 44.051319 7.7431836
-43.105301 44.054485 7.6648107
-43.102108 44.057087 7.5864854
-43.099327 44.059124 7.5082135
-43.102779 44.052624 7.4284344
-43.100834 44.053532 7.3503752
-43.105137 44.045879 7.2709937
-43.104023 44.045662 7.193172
-43.103313 44.044888 7.1154356
-43.103012 44.043556 7.0377898
-43.103123 44.041672 6.9602418
-43.103634 44.039238 6.8827963
-43.104553 44.036251 6.8054605
-43.099991 44.040764 6.7290277
-43.095825 44.044735 6.6525426
-43.097946 44.040115 6.5753961
-43.088673 44.051064 6.4994369
-43.091591 44.045357 6.4223881
-43.09491 44.039108 6.3454847
-43.092724 44.040379 6.2689977
-43.09684 44.033051 6.1923146
-43.09544 44.033245 6.1158848
-43.088524 44.040966 6.0394526
-43.09383 44.032021 5.9630132
-43.093616 44.030602 5.8865829
-43.087883 44.036705 5.8099055
-43.088459 44.03421 5.7334166
-43.095341 44.023121 5.6573834
-43.090794 44.027599 5.580514
-43.086647 44.031536 5.5035048
-43.088802 44.026882 5.4270558
-43.091354 44.02169 5.3506536
-43.088402 44.023991 5.2734356
-43.467312 43.705189 11.030223
-43.45108 43.725513 10.947417
-43.435329 43.745182 10.864539
-43.435307 43.743004 10.766816
-43.425697 43.754162 10.679193
-43.380672 43.814518 10.625092
-43.279068 43.953415 10.621697
-43.208202 44.04958 10.587923
-43.178951 44.087959 10.516069
-43.160507 44.111343 10.434791
-43.158276 44.112255 10.340175
-43.156628 44.112377 10.245857
-43.155552 44.111721 10.15185
-43.160378 44.102909 10.054012
-43.155125 44.108078 9.9648027
-43.161133 44.097668 9.8677921
-43.156967 44.10136 9.779109
-43.158733 44.096859 9.6867943
-43.155624 44.099121 9.5985947
-43.169388 44.078068 9.4996061
-43.167362 44.078857 9.4120874
-43.165848 44.07896 9.3248005
-43.15382 44.093601 9.2445993
-43.153278 44.092381 9.1576357
-43.153236 44.090481 9.0709286
-43.15926 44.080227 8.9813089
-43.154652 44.084656 8.8983135
-43.156105 44.080738 8.8124228
-43.152431 44.083897 8.7297449
-43.14922 44.086433 8.6471968
-43.140816 44.09613 8.567544
-43.144157 44.089645 8.4825153
-43.14798 44.082512 8.3978052
-43.146595 44.082565 8.3159275
-43.145657 44.082008 8.2342138
-43.145168 44.080841 8.1526718
-43.145126 44.079071 8.0713081
-43.145527 44.076698 7.990129
-43.140617 44.081635 7.9112248
-43.141891 44.078079 7.8303514
-43.137829 44.081863 7.751595
-43.151535 44.06123 7.6674027
-43.148335 44.063843 7.5889912
-43.145546 44.065895 7.5106335
-43.148987 44.059399 7.4307685
-43.147034 44.060314 7.352623
-43.13966 44.068676 7.2759452
-43.144356 44.060467 7.1965561
-43.143635 44.059708 7.1186461
-43.143318 44.058392 7.0408278
-43.143414 44.056519 6.9631057
-43.14978 44.046051 6.8845253
-43.144817 44.051117 6.8079777
-43.152008 44.039536 6.729795
-43.147842 44.04351 6.6533098
-43.144073 44.046944 6.5767775
-43.140701 44.049839 6.5002041
-43.143612 44.044128 6.4231558
-43.135136 44.054012 6.3469572
-43.132942 44.055286 6.2702951
-43.137047 44.047951 6.1934381
-43.141552 44.040073 6.1167431
-43.134644 44.047802 6.0402236
-43.134033 44.046917 5.9636135
-43.139725 44.037426 5.8871799
-43.133999 44.04353 5.8104153
-43.134571 44.041027 5.733839
-43.129639 44.046043 5.6568532
-43.125099 44.050514 5.5797224
-43.126862 44.046387 5.5030589
-43.134918 44.033672 5.4271302
-43.137466 44.028469 5.3506408
-43.508408 43.715725 11.042722
-43.502209 43.722168 10.949613
-43.491543 43.734848 10.861733
-43.496635 43.725597 10.759157
-43.476906 43.750935 10.681391
-43.426834 43.818493 10.632074
-43.335667 43.943207 10.61923
-43.249413 44.061031 10.599412
-43.220169 44.099533 10.52741
-43.201721 44.123028 10.445979
-43.199459 44.124031 10.351206
-43.203053 44.116924 10.252422
-43.201973 44.116329 10.158336
-43.201466 44.114952 10.064568
-43.19619 44.120213 9.9751997
-43.202164 44.109882 9.878027
-43.192593 44.121128 9.7930956
-43.188904 44.124226 9.7043686
-43.191158 44.119106 9.6120958
-43.199406 44.105686 9.51653
-43.213711 44.083904 9.417922
-43.206711 44.091652 9.3340597
-43.194679 44.10638 9.2536964
-43.199631 44.097595 9.1632261
-43.199589 44.095745 9.076436
-43.200043 44.09322 8.9899092
-43.195419 44.097725 8.9067488
-43.185673 44.109325 8.8267126
-43.193165 44.097103 8.7378464
-43.189938 44.099709 8.6551313
-43.18153 44.109478 8.5753117
-43.184849 44.103054 8.4901142
-43.182983 44.103802 8.4078264
-43.187248 44.096092 8.3231869
-43.186298 44.095596 8.2413034
-43.185799 44.09449 8.1595917
-43.185741 44.092777 8.0780573
-43.186131 44.090458 7.9967079
-43.181217 44.095455 7.9176331
-43.182476 44.091949 7.8365884
-43.184177 44.087845 7.7557483
-43.186314 44.083149 7.6751199
-43.188885 44.077858 7.5947104
-43.191887 44.07198 7.5145259
-43.183716 44.081497 7.4377108
-43.187565 44.074471 7.3578238
-43.18602 44.074871 7.2795782
-43.184883 44.074715 7.2014108
-43.184158 44.073994 7.1233273
-43.189686 44.064682 7.044198
-43.183933 44.070885 6.9674387
-43.178577 44.076546 6.8906088
-43.185337 44.065552 6.8119617
-43.180779 44.070118 6.7351813
-43.182487 44.066074 6.6576462
-43.178722 44.069553 6.580853
-43.181236 44.064415 6.5034904
-43.178265 44.066803 6.4267073
-43.181576 44.060574 6.3495412
-43.179398 44.061878 6.2727923
-43.177612 44.062641 6.1960254
-43.176224 44.062862 6.1192465
-43.175228 44.062542 6.0424614
-43.174629 44.061684 5.9656758
-43.174427 44.06028 5.888896
-43.180511 44.050262 5.8123846
-43.175201 44.055851 5.7353764
-43.176182 44.052826 5.6586485
-43.177559 44.049259 5.5819492
-43.173439 44.053211 5.5046787
-43.17561 44.048557 5.427968
-43.178169 44.043365 5.3513036
-43.567005 43.696377 11.03644
-43.555885 43.709824 10.948565
-43.53521 43.73661 10.870779
-43.540298 43.727459 10.768123
-43.525696 43.7458 10.685435
-43.475727 43.813454 10.636148
-43.384716 43.938282 10.623357
-43.283096 44.077835 10.617463
-43.253853 44.116516 10.545244
-43.240608 44.132912 10.45912
-43.233097 44.141342 10.368581
-43.23138 44.141716 10.27387
-43.235531 44.133945 10.175234
-43.229679 44.140106 10.085382
-43.229683 44.13813 9.991622
-43.230259 44.135384 9.8982
-43.2314 44.13187 9.8051233
-43.227703 44.13509 9.7162361
-43.229942 44.130077 9.6237993
-43.238171 44.116768 9.5280647
-43.252445 44.095081 9.429285
-43.234497 44.118141 9.3522806
-43.238914 44.110168 9.2613134
-43.232853 44.116749 9.1774473
-43.23278 44.115028 9.0904093
-43.233212 44.112625 9.0036325
-43.234138 44.109547 8.9171267
-43.2244 44.121254 8.8369293
-43.22628 44.116875 8.7508221
-43.234261 44.104057 8.6621618
-43.220253 44.1217 8.5850258
-43.223564 44.115368 8.4996567
-43.221703 44.116207 8.4172001
-43.220291 44.116432 8.3348999
-43.225014 44.108181 8.2503357
-43.224514 44.107162 8.1684532
-43.21875 44.113426 8.0890055
-43.22485 44.103302 8.0052261
-43.219948 44.108387 7.925983
-43.221207 44.104961 7.8447652
-43.217152 44.108887 7.7656679
-43.21928 44.104279 7.6847801
-43.221844 44.099075 7.6041102
-43.213272 44.109253 7.5269814
-43.222477 44.094898 7.4450226
-43.220524 44.095947 7.3664455
-43.218983 44.096432 7.2879405
-43.217854 44.096352 7.2095132
-43.217133 44.095711 7.1311693
-43.216824 44.094513 7.052916
-43.216919 44.092754 6.9747586
-43.22327 44.082382 6.8957372
-43.218338 44.087563 6.8187571
-43.219654 44.084133 6.7409248
-43.215515 44.088223 6.663919
-43.217636 44.083691 6.5862465
-43.220161 44.078609 6.508707
-43.217213 44.081059 6.4317503
-43.214661 44.082966 6.354764
-43.218384 44.076244 6.2774835
-43.216625 44.077065 6.200542
-43.221146 44.069256 6.1234927
-43.214291 44.077072 6.046628
-43.213718 44.076263 5.9696674
-43.219425 44.066826 5.8928781
-43.213757 44.073013 5.8157678
-43.208481 44.078651 5.7384996
-43.215374 44.067593 5.6619363
-43.210896 44.072136 5.5845451
-43.212696 44.068066 5.5076175
-43.209011 44.071514 5.4300404
-43.211605 44.066353 5.3531122
-43.617516 43.690483 11.04165
-43.601429 43.711014 10.958868
-43.590851 43.723846 10.871001
-43.590923 43.721809 10.77335
-43.576366 43.740234 10.690674
-43.526493 43.807991 10.641427
-43.435638 43.932941 10.628712
-43.334198 44.072624 10.622902
-43.294647 44.125874 10.559809
-43.276188 44.149689 10.478011
-43.268639 44.158291 10.387242
-43.261623 44.166164 10.296613
-43.265701 44.158585 10.197656
-43.270397 44.150162 10.099173
-43.26506 44.155739 10.009332
-43.270939 44.145706 9.9116678
-43.272057 44.142319 9.818429
-43.273739 44.138165 9.725544
-43.25975 44.15583 9.6442966
-43.262486 44.150238 9.5519056
-43.282108 44.121166 9.44911
-43.275066 44.129204 9.3647652
-43.268494 44.136597 9.2804937
-43.267891 44.1357 9.1929531
-43.262268 44.141785 9.1089334
-43.273727 44.124153 9.0154552
-43.263531 44.136616 8.9349861
-43.270477 44.125278 8.8454046
-43.266773 44.128742 8.7621469
-43.269127 44.123798 8.6761637
-43.266354 44.125988 8.5932503
-43.2584 44.135368 8.5131617
-43.256519 44.136333 8.4304533
-43.255089 44.136677 8.3478994
-43.259785 44.128536 8.2630758
-43.253578 44.135517 8.1832857
-43.253494 44.134014 8.1012392
-43.253853 44.131908 8.0193758
-43.260384 44.121262 7.9356103
-43.255905 44.12587 7.8562255
-43.257591 44.121948 7.7749524
-43.259716 44.117428 7.6938901
-43.244972 44.136253 7.6182923
-43.24794 44.130577 7.5374131
-43.251335 44.12431 7.4567642
-43.249371 44.125465 7.3778424
-43.259426 44.110008 7.2961826
-43.252491 44.118046 7.2189002
-43.257587 44.109455 7.1390643
-43.251461 44.116379 7.0617814
-43.251556 44.114704 6.9833627
-43.252064 44.112469 6.905045
-43.252975 44.109673 6.8268356
-43.254295 44.106323 6.7487402
-43.250168 44.110489 6.6714754
-43.252293 44.106033 6.5935388
-43.248962 44.109104 6.5162711
-43.251892 44.103546 6.4385176
-43.255222 44.097435 6.360908
-43.253082 44.098866 6.2837234
-43.25721 44.091656 6.2063327
-43.249992 44.10009 6.1293049
-43.260792 44.083698 6.0520558
-43.248486 44.099133 5.9748588
-43.248325 44.097839 5.8976402
-43.248562 44.095997 5.8204327
-43.249195 44.093609 5.7432423
-43.256096 44.082596 5.6664972
-43.251648 44.087204 5.5889344
-43.247597 44.091255 5.5112319
-43.249813 44.086685 5.4340796
-43.246563 44.089634 5.3562026
-43.669712 43.686249 11.045623
-43.648655 43.713852 10.967939
-43.643105 43.719742 10.874989
-43.643181 43.717754 10.777336
-43.628654 43.736244 10.694668
-43.589077 43.789799 10.63588
-43.493301 43.921986 10.628081
-43.386906 44.068974 10.627043
-43.342251 44.129551 10.568527
-43.3186 44.160736 10.491139
-43.305798 44.176765 10.404615
-43.303982 44.177448 10.309434
-43.302738 44.177345 10.214556
-43.302074 44.176449 10.119993
-43.301979 44.174774 10.025754
-43.302452 44.172318 9.9318485
-43.30349 44.16909 9.8382874
-43.299713 44.1726 9.7489204
-43.307251 44.160332 9.6522322
-43.299126 44.169926 9.5671186
-43.318665 44.140961 9.4640656
-43.306126 44.156731 9.3829966
-43.299496 44.164276 9.2984009
-43.298828 44.163517 9.2105312
-43.304173 44.154396 9.1196423
-43.304523 44.152241 9.0323677
-43.299828 44.157127 8.9484663
-43.301155 44.153633 8.8616533
-43.302975 44.149464 8.7751245
-43.299694 44.152409 8.6917439
-43.296867 44.154724 8.6084967
-43.294495 44.15641 8.5253878
-43.298218 44.149639 8.4398232
-43.291115 44.157917 8.3596201
-43.2901 44.157742 8.2769747
-43.289536 44.156948 8.1944971
-43.295109 44.147636 8.1099291
-43.295452 44.145603 8.027895
-43.29052 44.15089 7.9481444
-43.291737 44.147655 7.8664098
-43.293392 44.143818 7.7848783
-43.289738 44.14735 7.7053952
-43.292255 44.142323 7.6242037
-43.289444 44.144695 7.5449023
-43.287048 44.146496 7.4656587
-43.285065 44.147728 7.3864789
-43.283497 44.148388 7.3073692
-43.282341 44.148483 7.2283359
-43.281593 44.14801 7.149385
-43.292892 44.130863 7.0682263
-43.287159 44.137302 6.9906945
-43.287651 44.135128 6.9121156
-43.288551 44.132393 6.8336439
-43.289856 44.129097 6.7552857
-43.285725 44.133327 6.6777616
-43.287838 44.128922 6.5995617
-43.284504 44.132053 6.5220332
-43.28157 44.134632 6.4444685
-43.284885 44.128567 6.3665071
-43.282745 44.130051 6.2889743
-43.286865 44.122883 6.2112312
-43.285519 44.123268 6.1337533
-43.284569 44.123108 6.0562687
-43.289883 44.114296 5.9788537
-43.283863 44.121136 5.9013019
-43.289967 44.111237 5.8240767
-43.278873 44.125072 5.7460456
-43.279911 44.122166 5.6685271
-43.281342 44.118713 5.5910368
-43.283173 44.114716 5.5135813
-43.279541 44.118248 5.4354844
-43.27631 44.12122 5.3572602
-43.273483 44.123631 5.278914
-43.715527 43.692131 11.051493
-43.70446 43.705769 10.963555
-43.70396 43.704582 10.865665
-43.699047 43.70961 10.773102
-43.679501 43.735199 10.695372
-43.629803 43.803108 10.646154
-43.544388 43.921112 10.628785
-43.438175 44.068233 10.627746
-43.372921 44.15786 10.587447
-43.34922 44.189201 10.509748
-43.336346 44.205368 10.422912
-43.339676 44.198837 10.323095
-43.333107 44.206192 10.232222
-43.332352 44.205418 10.137341
-43.337479 44.196426 10.038702
-43.332558 44.201511 9.9485598
-43.333511 44.198391 9.8546782
-43.329655 44.202011 9.7649889
-43.331707 44.19738 9.6717396
-43.328911 44.199551 9.5825396
-43.348335 44.170658 9.4791622
-43.34119 44.178932 9.394249
-43.329048 44.194191 9.3128433
-43.33379 44.185871 9.2212915
-43.333572 44.184494 9.1334267
-43.333855 44.182426 9.0458212
-43.334633 44.179676 8.9584837
-43.330357 44.183994 8.8744431
-43.332111 44.179905 8.7875814
-43.32877 44.182934 8.703867
-43.331486 44.177521 8.6175108
-43.323463 44.187096 8.5368395
-43.332748 44.172543 8.4483337
-43.319973 44.188747 8.3703966
-43.324562 44.180763 8.2849779
-43.318291 44.187912 8.2045965
-43.323807 44.178658 8.119689
-43.318405 44.184608 8.0394945
-43.319126 44.182037 7.9572225
-43.320293 44.178856 7.8751459
-43.321903 44.175068 7.793272
-43.318214 44.178658 7.7134457
-43.326435 44.16568 7.6301584
-43.323601 44.168091 7.5505986
-43.326946 44.161915 7.4695158
-43.319176 44.171192 7.3916578
-43.323368 44.163849 7.3108807
-43.316406 44.172009 7.232996
-43.315639 44.171562 7.1537852
-43.315285 44.170544 7.0746636
-43.315342 44.168961 6.995636
-43.30999 44.174889 6.9176846
-43.31086 44.17218 6.8387785
-43.312138 44.168911 6.7599854
-43.307991 44.173172 6.6820259
-43.321754 44.152592 6.6021366
-43.312576 44.163834 6.5248866
-43.315475 44.158329 6.4465199
-43.312931 44.160374 6.3686628
-43.316631 44.153759 6.2905021
-43.309032 44.162804 6.2128797
-43.313534 44.155087 6.1348615
-43.306728 44.163029 6.057044
-43.312031 44.154209 5.9791927
-43.306019 44.161049 5.9012046
-43.312115 44.151131 5.8235431
-43.3069 44.156868 5.7454076
-43.307938 44.15395 5.6675401
-43.30352 44.158573 5.5891943
-43.305355 44.154549 5.5113029
-43.30759 44.149975 5.4334517
-43.298534 44.161007 5.3541107
-43.301571 44.155319 5.2761846
-43.773369 43.687199 11.043472
-43.762337 43.700764 10.955604
-43.751831 43.7136 10.867811
-43.751923 43.711525 10.770234
-43.737457 43.729965 10.687633
-43.687862 43.797871 10.638459
-43.597504 43.923134 10.625814
-43.48634 44.077614 10.629333
-43.426331 44.160069 10.584362
-43.387108 44.213261 10.520066
-43.374172 44.229488 10.432987
-43.372181 44.230335 10.337255
-43.370773 44.230385 10.241825
-43.364666 44.237049 10.150866
-43.36438 44.235546 10.055991
-43.364666 44.233261 9.9614487
-43.36552 44.230194 9.8672476
-43.361576 44.233875 9.777235
-43.35815 44.236839 9.6874218
-43.360641 44.231514 9.5941401
-43.379944 44.202641 9.4904509
-43.372719 44.210972 9.4052076
-43.360512 44.226295 9.3234673
-43.359688 44.225677 9.2349415
-43.359367 44.224365 9.1466656
-43.359547 44.222359 9.0586472
-43.365757 44.211929 8.9677944
-43.361408 44.216286 8.8834209
-43.357521 44.220005 8.7991629
-43.359673 44.21529 8.7121763
-43.362309 44.2099 8.6254892
-43.354229 44.219513 8.5444765
-43.352188 44.22068 8.4608412
-43.356239 44.213345 8.3748436
-43.355122 44.213242 8.2916059
-43.354454 44.212517 8.2085352
-43.354237 44.21117 8.125639
-43.348785 44.217144 8.0451012
-43.343754 44.22253 7.964581
-43.344849 44.219368 7.8820791
-43.340672 44.223576 7.8016992
-43.34837 44.21122 7.7176876
-43.345051 44.214233 7.6375608
-43.347897 44.20866 7.5558214
-43.345425 44.210506 7.4758878
-43.343365 44.211781 7.3960171
-43.347496 44.204433 7.3148117
-43.340496 44.212601 7.2364907
-43.351261 44.196026 7.1543851
-43.345078 44.203056 7.076148
-43.350899 44.193382 6.995717
-43.345528 44.199287 6.9175019
-43.340553 44.204639 6.8392205
-43.335979 44.209438 6.7608786
-43.337627 44.205582 6.6817713
-43.339684 44.201164 6.6027899
-43.342144 44.196182 6.5239396
-43.33918 44.198746 6.4456763
-43.342449 44.192646 6.3670201
-43.340286 44.194103 6.2887883
-43.33852 44.195004 6.2105379
-43.337154 44.195351 6.1322746
-43.330341 44.203255 6.0540171
-43.335617 44.194382 5.9757333
-43.329601 44.201176 5.8973055
-43.335678 44.191193 5.8192124
-43.336308 44.18877 5.7409744
-43.331493 44.193897 5.6623363
-43.33292 44.190361 5.5840631
-43.328911 44.194366 5.5052271
-43.331142 44.189716 5.4269428
-43.327938 44.1926 5.3479333
-43.325138 44.194916 5.2688026
-43.831955 43.683033 11.034497
-43.820942 43.69651 10.946695
-43.810455 43.709255 10.858971
-43.805519 43.714172 10.766401
-43.786003 43.7397 10.688643
-43.736446 43.807663 10.639353
-43.646206 43.933052 10.626556
-43.540325 44.080463 10.62528
-43.480396 44.162956 10.580261
-43.446392 44.208847 10.511465
-43.417885 44.246979 10.437626
-43.415829 44.247814 10.341736
-43.414349 44.247852 10.246148
-43.408176 44.254513 10.155027
-43.407825 44.252995 10.059995
-43.402733 44.258167 9.9692879
-43.408821 44.247608 9.8709335
-43.410164 44.243748 9.7769251
-43.401333 44.254227 9.6907825
-43.403751 44.248882 9.5973415
-43.422951 44.219955 9.4935074
-43.41568 44.228279 9.4080963
-43.39254 44.258911 9.3330374
-43.391617 44.25832 9.2441835
-43.391201 44.25703 9.1555786
-43.391285 44.255047 9.0672321
-43.391872 44.252369 8.9791517
-43.387424 44.256775 8.8943596
-43.388988 44.252747 8.8067522
-43.391048 44.248043 8.7194347
-43.382439 44.258312 8.6379423
-43.385445 44.252296 8.5510607
-43.388935 44.245609 8.4644928
-43.387291 44.24614 8.3807573
-43.380459 44.253937 8.2996082
-43.385353 44.245316 8.2137728
-43.379402 44.2519 8.1327953
-43.379547 44.249947 8.0496559
-43.380138 44.247379 7.9667048
-43.381172 44.244194 7.8839488
-43.371239 44.256367 7.8052258
-43.373138 44.251984 7.7227082
-43.369755 44.255005 7.6421504
-43.378262 44.241398 7.5583262
-43.369984 44.251263 7.479619
-43.373619 44.244484 7.397831
-43.371922 44.245163 7.3176842
-43.376411 44.237198 7.2363
-43.375553 44.236713 7.1563978
-43.369328 44.243729 7.0777235
-43.37508 44.23402 6.9968643
-43.375462 44.231815 6.9172454
-43.376255 44.229042 6.8377342
-43.371651 44.233803 6.7591281
-43.373257 44.229897 6.6797628
-43.369453 44.233536 6.601141
-43.366055 44.236618 6.5224767
-43.368877 44.231026 6.4433317
-43.372108 44.224869 6.3643308
-43.369915 44.226273 6.285749
-43.368118 44.227119 6.207149
-43.366726 44.227409 6.1285367
-43.36573 44.227142 6.0499177
-43.365135 44.226315 5.9712977
-43.364944 44.224934 5.892684
-43.36515 44.222996 5.8140812
-43.359924 44.228611 5.7351546
-43.366764 44.217445 5.6569338
-43.362343 44.221943 5.5778861
-43.364151 44.217773 5.4993019
-43.366364 44.213047 5.4207587
-43.363148 44.215855 5.3414865
-43.366161 44.210007 5.2629576
-43.357891 44.211475 4.7849364
-43.878288 43.69138 11.03689
-43.872215 43.697815 10.943929
-43.861729 43.710522 10.856199
-43.856777 43.715389 10.763628
-43.842319 43.733757 10.681008
-43.792866 43.801716 10.631765
-43.697708 43.934383 10.623691
-43.592003 44.081917 10.622353
-43.527027 44.171734 10.581841
-43.498207 44.21035 10.508483
-43.46973 44.248474 10.434628
-43.467655 44.249256 10.338737
-43.46616 44.249241 10.24315
-43.459984 44.255859 10.152026
-43.45961 44.254288 10.056994
-43.459805 44.25193 9.9622946
-43.460567 44.248791 9.8679361
-43.461891 44.244877 9.7739286
-43.458416 44.247757 9.6840324
-43.455452 44.24992 9.5943432
-43.474602 44.220909 9.4905214
-43.478157 44.213917 9.3980951
-43.427898 44.282803 9.3403072
-43.415997 44.297604 9.2578907
-43.410004 44.304089 9.1721344
-43.415459 44.294453 9.0801163
-43.410435 44.299591 8.9947166
-43.40588 44.304077 8.9094238
-43.412868 44.292328 8.8183908
-43.414825 44.28767 8.7306576
-43.411709 44.290165 8.6459827
-43.403465 44.299873 8.5641203
-43.412449 44.285374 8.4744577
-43.410717 44.285946 8.3903008
-43.403816 44.293789 8.3087254
-43.408623 44.285194 8.2224693
-43.408249 44.283882 8.1388111
-43.402668 44.289894 8.0575008
-43.408855 44.279385 7.9720411
-43.404144 44.284187 7.8909426
-43.405552 44.280407 7.8079619
-43.395985 44.292023 7.7288427
-43.398258 44.287045 7.6461134
-43.389515 44.297512 7.566915
-43.392643 44.29134 7.4844637
-43.390469 44.292614 7.4037299
-43.38871 44.293301 7.3230648
-43.387371 44.293411 7.2424746
-43.392216 44.284863 7.1607437
-43.391716 44.283802 7.08041
-43.391628 44.282169 7.0001707
-43.391956 44.279957 6.9200325
-43.3927 44.277172 6.8400006
-43.393856 44.273815 6.7600822
-43.39542 44.269886 6.6802835
-43.39159 44.273506 6.6012244
-43.388161 44.276562 6.5221233
-43.390945 44.270935 6.4425449
-43.388321 44.272869 6.3634644
-43.391922 44.266113 6.2840924
-43.390102 44.266922 6.2050562
-43.388687 44.26717 6.1260071
-43.387676 44.266857 6.0469522
-43.387062 44.265984 5.9678965
-43.386852 44.264549 5.8888469
-43.381222 44.270679 5.8095512
-43.381813 44.26812 5.730444
-43.382813 44.264999 5.65136
-43.384212 44.261322 5.5723062
-43.380192 44.26519 5.4926825
-43.382397 44.260384 5.413619
-43.385006 44.255016 5.3346038
-43.382206 44.257183 5.254775
-43.37981 44.258774 5.1748328
-43.374355 44.259377 4.8540502
-43.374023 44.25808 4.7736325
-43.930313 43.6898 11.036877
-43.919281 43.703281 10.948994
-43.913754 43.708942 10.856185
-43.908802 43.71381 10.763614
-43.894356 43.732185 10.680994
-43.844971 43.800194 10.631751
-43.755047 43.925751 10.618977
-43.644432 44.080627 10.622334
-43.584686 44.163227 10.577279
-43.55077 44.209152 10.508464
-43.532688 44.232613 10.425834
-43.520248 44.248077 10.338717
-43.523964 44.24065 10.2389
-43.512562 44.254669 10.152006
-43.517445 44.245628 10.052903
-43.51236 44.250721 9.9622746
-43.513107 44.247574 9.8679161
-43.509087 44.251194 9.7777395
-43.510933 44.246521 9.6840124
-43.513332 44.241081 9.5906553
-43.521675 44.227261 9.4940901
-43.530605 44.212631 9.3980761
-43.45871 44.312248 9.3539839
-43.430412 44.350227 9.2812643
-43.435219 44.341438 9.1884127
-43.435085 44.339638 9.0991583
-43.435455 44.337139 9.0101671
-43.430813 44.341728 8.9244595
-43.432167 44.337864 8.8359365
-43.434021 44.333317 8.7477026
-43.425243 44.343761 8.6652851
-43.428051 44.337887 8.5774822
-43.425758 44.339211 8.4925842
-43.42392 44.339897 8.407836
-43.428158 44.332035 8.3208218
-43.42725 44.331436 8.2364807
-43.426792 44.330208 8.1523123
-43.426788 44.32835 8.0683241
-43.421566 44.333843 7.9866042
-43.422447 44.330753 7.9029098
-43.423779 44.327042 7.819416
-43.419853 44.330727 7.7379556
-43.422058 44.325794 7.6547971
-43.418991 44.328289 7.5735145
-43.41634 44.330193 7.4922872
-43.419849 44.323452 7.4096398
-43.418049 44.324173 7.328629
-43.416672 44.32431 7.2476935
-43.415707 44.323864 7.1668391
-43.409397 44.330929 7.0872087
-43.409264 44.32933 7.0064492
-43.409546 44.327148 6.9257898
-43.41024 44.32439 6.8452368
-43.41135 44.321053 6.7647967
-43.407082 44.325264 6.6851773
-43.409016 44.320782 6.6048946
-43.411358 44.315727 6.5247431
-43.408306 44.318233 6.4451694
