# .PCD v0.7 - Point Cloud Data file format
VERSION 0.7
FIELDS x y z
SIZE 4 4 4
TYPE F F F
COUNT 1 1 1
WIDTH 1559
HEIGHT 1
VIEWPOINT 0 0 0 1 0 0 0
POINTS 1559
DATA ascii
-25.087053 56.390503 22.703709
-25.03079 56.443996 22.436081
-25.202209 56.637077 34.733562
-25.40159 56.351467 31.973768
-25.34379 56.403637 31.601967
-25.336782 56.399605 31.160595
-25.300045 56.42873 30.769865
-25.155018 56.577965 30.538847
-25.318893 56.331905 27.83493
-25.248158 56.399792 27.534361
-25.252144 56.385353 27.144524
-25.238598 56.390388 26.781796
-25.138746 56.490631 26.526508
-25.29195 56.257492 23.876745
-25.199791 56.349907 23.636887
-25.176104 56.367237 23.328846
-25.160376 56.375923 23.016121
-25.16399 56.363503 22.688042
-25.096348 56.429237 22.431499
-24.961863 56.568184 22.238346
-25.269575 56.642689 34.725903
-25.477085 56.344982 31.952166
-25.409752 56.407295 31.594715
-25.40731 56.397686 31.146391
-25.365627 56.431839 30.762749
-25.196228 56.607765 30.566263
-25.367882 56.350014 27.847826
-25.31229 56.400787 27.527803
-25.290232 56.41465 27.169905
-25.307606 56.385143 26.769077
-25.212919 56.479355 26.507689
-25.326927 56.286377 23.899679
-25.245558 56.366608 23.648178
-25.216051 56.389957 23.345602
-25.228104 56.367794 23.004997
-25.21467 56.373695 22.693449
-25.152515 56.433086 22.431448
-25.04645 56.540615 22.211727
-25.304068 56.676991 34.76115
-25.532816 56.353062 31.950274
-25.455883 56.425686 31.606981
-25.462709 56.405354 31.144501
-25.416059 56.444641 30.767815
-25.2659 56.598953 30.543671
-25.427069 56.350395 27.839468
-25.361113 56.412304 27.532389
-25.344042 56.420311 27.168053
-25.366474 56.384853 26.760927
-25.266453 56.484669 26.505833
-25.11525 56.640942 26.311543
-25.384968 56.284363 23.892124
-25.303518 56.364418 23.640688
-25.27392 56.387573 23.338184
-25.274654 56.377525 23.008722
-25.277996 56.364727 22.680725
-25.210114 56.43013 22.424252
-25.098261 56.543755 22.209906
-25.370337 56.653297 34.74612
-25.575739 56.355087 31.971762
-25.4939 56.433075 31.635458
-25.50049 56.412933 31.172789
-25.463224 56.441715 30.782013
-25.298393 56.612209 30.57855
-25.473251 56.348122 27.853201
-25.396902 56.421436 27.55896
-25.405485 56.401047 27.162558
-25.381004 56.41732 26.812319
-25.306879 56.488472 26.525591
-25.435297 56.276928 23.899351
-25.342688 56.369167 23.659302
-25.31852 56.386303 23.351057
-25.319141 56.376328 23.021521
-25.316727 56.369797 22.698912
-25.265738 56.416615 22.426151
-25.136711 56.548977 22.227863
-25.41375 56.636002 34.765621
-25.618921 56.339672 31.990789
-25.551182 56.402153 31.633213
-25.524498 56.419201 31.219826
-25.501425 56.432434 30.807869
-25.351017 56.586975 30.583685
-25.51082 56.341129 27.878099
-25.449774 56.397682 27.564438
-25.448044 56.388897 27.180843
-25.433933 56.393917 26.817928
-25.354576 56.470966 26.537554
-25.466442 56.27911 23.92845
-25.373703 56.371578 23.68824
-25.360573 56.376762 23.36857
-25.361155 56.367012 23.038956
-25.353054 56.366886 22.721733
-25.307659 56.4077 22.443464
-25.155722 56.565197 22.266453
-25.449072 56.61779 34.782291
-25.659283 56.31826 31.999868
-25.558535 56.417618 31.691938
-25.560225 56.403538 31.235964
-25.546804 56.406414 30.81002
-25.396456 56.561028 30.585966
-25.551966 56.322262 27.887161
-25.496105 56.373341 27.567074
-25.489313 56.370457 27.189922
-25.475273 56.375702 26.827007
-25.395956 56.452911 26.546665
-25.491823 56.280823 23.954733
-25.415644 56.355305 23.697294
-25.413733 56.348457 23.3664
-25.403219 56.351139 23.048006
-25.400827 56.345028 22.725313
-25.33847 56.404617 22.463318
-25.192186 56.556015 22.280909
-25.499004 56.599377 34.767326
-25.700869 56.310204 31.999794
-25.623795 56.383408 31.656416
-25.592409 56.406136 31.249935
-25.607853 56.377213 30.782078
-25.438284 56.553135 30.585876
-25.594347 56.314785 27.887066
-25.517986 56.388538 27.592764
-25.526646 56.368771 27.196203
-25.50742 56.379841 26.839531
-25.443832 56.439827 26.540316
-25.551508 56.255783 23.937351
-25.447741 56.360561 23.708549
-25.451406 56.347721 23.371895
-25.440922 56.350483 23.053427
-25.438559 56.344452 22.730661
-25.393259 56.385468 22.452404
-25.22991 56.555546 22.286098
-25.540789 56.606003 34.770264
-25.737896 56.321686 32.009655
-25.656008 56.400131 31.673222
-25.648354 56.396492 31.231422
-25.635029 56.399334 30.805475
-25.465263 56.575356 30.608976
-25.640881 56.314972 27.882622
-25.564516 56.388653 27.588303
-25.552475 56.391598 27.21726
-25.538322 56.397011 26.854004
-25.474621 56.457035 26.554569
-25.603695 56.249069 23.927164
-25.499949 56.353745 23.698406
-25.481333 56.365242 23.384272
-25.487604 56.349598 23.048969
-25.473951 56.355858 22.737135
-25.434271 56.390656 22.453329
-25.270863 56.560703 22.286907
-25.574778 56.622971 34.789581
-25.766441 56.343956 32.035275
-25.698534 56.40678 31.677324
-25.686045 56.408367 31.242489
-25.672613 56.411201 30.816418
-25.52215 56.565765 30.592165
-25.662458 56.343651 27.912212
-25.611572 56.389153 27.585323
-25.589155 56.403416 27.227037
-25.590561 56.391602 26.844713
-25.516359 56.46307 26.557821
-25.645081 56.25481 23.929966
-25.546824 56.353378 23.695436
-25.522606 56.370914 23.386911
-25.534449 56.349087 23.046
-25.509476 56.367638 22.745096
-25.464025 56.408649 22.46653
-25.340509 56.535004 22.26263
-25.656715 56.576508 34.744972
-25.835613 56.312244 32.014099
-25.739471 56.406391 31.698952
-25.731619 56.402908 31.256968
-25.732538 56.389931 30.809942
-25.567554 56.560551 30.606581
-25.727757 56.316967 27.900108
-25.66667 56.373749 27.58633
-25.639072 56.393768 27.234497
-25.656092 56.364845 26.833233
-25.571457 56.447823 26.559061
-25.700178 56.240036 23.93162
-25.596371 56.344696 23.702885
-25.572119 56.362312 23.394367
-25.572693 56.352867 23.064529
-25.564573 56.353031 22.747086
-25.524807 56.387871 22.463215
-25.389889 56.526691 22.270151
-25.688877 56.577061 34.785622
-25.88088 56.299629 32.031956
-25.7894 56.388748 31.709705
-25.771994 56.396053 31.281778
-25.777626 56.378078 30.827656
-25.61743 56.543476 30.617422
-25.782667 56.295738 27.904299
-25.701042 56.375259 27.616419
-25.704391 56.361416 27.226097
-25.695423 56.361263 26.856598
-25.621206 56.432907 26.569841
-25.427292 56.636005 26.425005
-25.749859 56.22654 23.942286
-25.651583 56.325237 23.70792
-25.616184 56.355194 23.410717
-25.62233 56.339821 23.075258
-25.614201 56.340153 22.757814
-25.574421 56.375141 22.473963
-25.456635 56.495327 22.265007
-25.734993 56.570957 34.800179
-25.935863 56.284138 32.031811
-25.839657 56.378521 31.716751
-25.836514 56.370117 31.267733
-25.842226 56.352135 30.813791
-25.667555 56.533524 30.624527
-25.832518 56.28653 27.91132
-25.755995 56.360466 27.61702
-25.728264 56.380844 27.265072
-25.734716 56.363789 26.876284
-25.6709 56.424042 26.576918
-25.455772 56.650398 26.456884
-25.799284 56.218388 23.949295
-25.695425 56.323212 23.720657
-25.665541 56.347176 23.417776
-25.660416 56.34417 23.093403
-25.66914 56.326134 22.759398
-25.617989 56.373573 22.486431
-25.477262 56.518795 22.298752
-25.809246 56.567375 34.775906
-26.000261 56.288906 32.022793
-25.903955 56.383083 31.70779
-25.900663 56.374413 31.258841
-25.901417 56.361488 30.811937
-25.741205 56.526676 30.601942
-25.890474 56.294456 27.909504
-25.818956 56.362591 27.608747
-25.822178 56.348579 27.218561
-25.807875 56.353996 26.85552
-25.738785 56.419754 26.562607
-25.855558 56.224373 23.947529
-25.757139 56.323006 23.713196
-25.732742 56.340679 23.404768
-25.721931 56.343582 23.08609
-25.730551 56.325356 22.752163
-25.679312 56.37262 22.479269
-25.544243 56.511463 22.286327
-25.88817 56.574631 34.746445
-26.055002 56.319111 32.030125
-25.977318 56.392147 31.686609
-25.988163 56.367165 31.216705
-25.969662 56.374939 30.797991
-25.809362 56.539894 30.588003
-25.972731 56.28828 27.876526
-25.911472 56.344666 27.563116
-25.904369 56.341484 27.186108
-25.874386 56.363655 26.842283
-25.815674 56.417557 26.536926
-25.937332 56.213135 23.91766
-25.827827 56.323566 23.694956
-25.814491 56.328682 23.375441
-25.820486 56.312744 23.040426
-25.789627 56.337242 22.745312
-25.749598 56.371845 22.461613
-25.60305 56.522938 22.279417
-25.955498 56.586758 34.734962
-26.149244 56.298 31.976124
-26.052813 56.391457 31.661385
-26.049269 56.381882 31.212761
-26.040163 56.378716 30.780119
-25.865295 56.559547 30.590935
-26.021971 56.311989 27.885674
-25.950209 56.379566 27.585022
-25.947931 56.370586 27.20137
-25.943707 56.363922 26.825775
-25.879665 56.423321 26.526791
-25.983753 56.235001 23.925364
-25.879602 56.339268 23.696814
-25.866068 56.3442 23.37723
-25.871862 56.328072 23.04215
-25.857754 56.333855 22.730555
-25.817648 56.368198 22.446999
-25.659641 56.53159 22.275568
-26.000725 56.592155 34.767784
-26.197611 56.299549 32.000771
-26.091558 56.403648 31.700146
-26.078182 56.404922 31.265335
-26.092691 56.375481 30.79748
-25.937094 56.534912 30.580711
-26.088568 56.292866 27.883022
-26.001398 56.377419 27.601896
-26.014467 56.351463 27.199022
-25.978952 56.379257 26.861464
-25.925154 56.427319 26.549746
-25.731045 56.629971 26.405247
-26.049931 56.215973 23.924223
-25.956856 56.308064 23.684494
-25.915483 56.343494 23.39329
-25.921137 56.327477 23.058134
-25.91254 56.32719 22.740999
-25.878021 56.355381 22.452066
-25.73712 56.500034 22.264822
-26.064131 56.549545 34.762093
-26.224432 56.300228 32.052986
-26.132328 56.389118 31.730852
-26.123646 56.385593 31.288883
-26.099718 56.399181 30.876724
-26.001884 56.49482 30.576605
-26.13895 56.271271 27.899439
-26.036404 56.373051 27.637751
-26.033865 56.364658 27.253822
-26.018967 56.370049 26.890596
-25.970354 56.412693 26.572529
-25.807932 56.580635 26.391018
-26.106001 56.191872 23.934805
-25.968649 56.332722 23.74078
-25.954926 56.33812 23.42099
-25.954914 56.328613 23.091227
-25.951876 56.322533 22.768394
-25.917303 56.351055 22.479338
-25.770636 56.502186 22.2974
-26.106092 56.515095 34.779896
-26.257809 56.279263 32.084873
-26.151566 56.3843 31.783998
-26.133274 56.392048 31.355795
-26.137991 56.374538 30.901344
-26.025673 56.486649 30.621988
-26.157417 56.2728 27.949583
-26.080418 56.346844 27.655348
-26.062475 56.355968 27.29059
-26.068407 56.338978 26.901857
-26.01993 56.381954 26.583893
-25.868185 56.538467 26.390217
-26.14006 56.182003 23.963757
-26.024874 56.298897 23.746914
-25.989006 56.329002 23.449781
-25.983412 56.32608 23.125418
-25.974718 56.326649 22.807842
-25.951456 56.343235 22.507698
-25.83906 56.457233 22.293728
-26.122669 56.5158 34.839191
-26.320526 56.232201 32.070534
-26.190956 56.363464 31.805504
-26.187027 56.355885 31.356112
-26.167927 56.365269 30.936676
-26.074959 56.456387 30.629536
-26.207666 56.244881 27.957346
-26.094864 56.358685 27.708485
-26.092306 56.351357 27.324137
-26.07217 56.363487 26.966841
-26.049726 56.378273 26.617048
-25.908512 56.523502 26.410889
-26.158772 56.193703 24.00684
-26.071196 56.280693 23.7612
-26.02426 56.323288 23.475353
-26.013073 56.326881 23.156401
-26.015657 56.315533 22.827631
-26.009485 56.31385 22.511179
-25.880089 56.446697 22.313459
-26.18668 56.48222 34.814949
-26.343988 56.245617 32.1119
-26.228447 56.361603 31.825277
-26.224543 56.35434 31.375755
-26.234301 56.332195 30.914299
-26.107655 56.460751 30.655872
-26.25045 56.24012 27.969383
-26.163355 56.325905 27.68815
-26.150702 56.329971 27.316864
-26.135948 56.336483 26.953373
-26.097956 56.368614 26.622578
-25.94095 56.531372 26.435043
-26.224148 56.167271 23.994972
-26.103493 56.290649 23.783804
-26.084417 56.303024 23.46958
-26.084604 56.294456 23.139648
-26.059174 56.313953 22.83861
-26.041687 56.324856 22.532913
-25.929398 56.439236 22.318979
-26.224701 56.491055 34.815685
-26.391932 56.244068 32.098072
-26.271818 56.365223 31.818569
-26.268051 56.357918 31.369047
-26.258718 56.356956 30.935518
-26.1611 56.453583 30.635281
-26.300079 56.237789 27.95616
-26.19772 56.340446 27.694351
-26.210974 56.316147 27.290939
-26.186022 56.333954 26.940304
-26.148174 56.366028 26.609564
-26.001869 56.517147 26.409645
-26.2754 56.164165 23.9825
-26.160406 56.281445 23.765652
-26.130342 56.30592 23.462828
-26.113791 56.315712 23.149574
-26.110941 56.310631 22.826361
-26.121984 56.290482 22.493664
-25.981411 56.435818 22.306826
-26.281782 56.488811 34.767704
-26.451103 56.239426 32.051491
-26.345488 56.344604 31.750811
-26.342226 56.33675 31.301723
-26.328579 56.340565 30.875601
-26.211966 56.458206 30.603298
-26.342434 56.251667 27.938179
-26.271034 56.32032 27.637514
-26.264 56.318314 27.260092
-26.249722 56.324406 26.896919
-26.196426 56.373451 26.585186
-25.992079 56.588314 26.453268
-26.336102 56.157845 23.947237
-26.23243 56.262794 23.719091
-26.202682 56.286938 23.416601
-26.192062 56.290257 23.098143
-26.183916 56.290966 22.780848
-26.166868 56.301483 22.475571
-26.032124 56.44051 22.283257
-26.322998 56.509495 34.747757
-26.493471 56.258377 32.031773
-26.383282 56.368622 31.738075
-26.39448 56.344711 31.267832
-26.381107 56.348179 30.841827
-26.255014 56.476303 30.583338
-26.407013 56.245628 27.892326
-26.320501 56.330902 27.611212
-26.324028 56.317238 27.221081
-26.325674 56.30579 26.839144
-26.262249 56.365955 26.540266
-26.382023 56.171764 23.927517
-26.284016 56.270523 23.693567
-26.254442 56.294445 23.391121
-26.243996 56.297535 23.072727
-26.252972 56.279491 22.739077
-26.264608 56.258652 22.407072
-26.348824 56.549381 34.760468
-26.519194 56.297539 32.043495
-26.442034 56.371174 31.699823
-26.443962 56.35741 31.243837
-26.454826 56.333973 30.78306
-26.329094 56.461716 30.524834
-26.452745 56.2616 27.875423
-26.397175 56.312786 27.555542
-26.385519 56.315739 27.184965
-26.366529 56.326897 26.828495
-26.297916 56.392715 26.53574
-26.428967 56.185398 23.91065
-26.336601 56.277966 23.670925
-26.312744 56.295574 23.362911
-26.32493 56.27383 23.02249
-26.294659 56.29863 22.727575
-26.294992 56.290047 22.406305
-26.432383 56.11599 21.342369
-26.395199 56.567093 34.732719
-27.019287 55.847569 32.718044
-27.01874 55.835926 32.246094
-27.017902 55.824833 31.783546
-26.543404 56.339142 32.052013
-26.504059 56.370831 31.65134
-26.50634 56.356583 31.195612
-26.960434 55.842537 30.094765
-26.916578 55.880035 29.732084
-26.507587 56.268421 27.84234
-26.45738 56.31366 27.516092
-26.451172 56.310547 27.139336
-26.458576 56.292599 26.751577
-26.358904 56.392578 26.496803
-26.508284 56.164566 23.856117
-26.41625 56.256783 23.616724
-26.403894 56.261753 23.297905
-26.399637 56.25795 22.974689
-26.375313 56.276207 22.674648
-26.410078 56.229908 22.321487
-27.09424 55.867668 33.612835
-27.098848 55.849609 33.114815
-27.108122 55.826626 32.619202
-27.076036 55.849873 32.198681
-27.089476 55.822742 31.714724
-27.04648 55.858505 31.326094
-27.030483 55.864475 30.903078
-27.042114 55.840012 30.446663
-27.038651 55.832489 30.020426
-27.029274 55.831711 29.609901
-27.04801 55.800003 29.166985
-27.001583 55.840572 28.821186
-26.992861 55.839581 28.429205
-26.98251 55.840557 28.045517
-26.965324 55.849232 27.67655
-26.803286 56.017887 27.497496
-26.82202 55.987141 27.09079
-26.77178 56.032597 26.775499
-26.770969 56.023689 26.40394
-26.962568 55.803059 25.809717
-26.916412 55.844448 25.505707
-26.909918 55.842289 25.159472
-26.938484 55.801704 24.778528
-26.921658 55.811165 24.453514
-26.89653 55.829842 24.141388
-26.89027 55.827896 23.812693
-26.715706 56.010738 23.663383
-26.708061 56.010441 23.34086
-26.635956 56.080906 23.0868
-26.610504 56.100288 22.788088
-26.694677 55.999676 22.386499
-26.702768 55.982544 22.063824
-26.816322 55.850105 21.647188
-26.853077 55.801872 21.308096
-26.805864 55.84557 21.048634
-26.80114 55.842876 20.753635
-26.775261 55.863373 20.479799
-26.810099 55.817627 20.157196
-27.169563 55.875893 33.542259
-27.156515 55.877098 33.0741
-27.147772 55.873753 32.607887
-27.134108 55.876125 32.158199
-27.133814 55.863842 31.695978
-27.109632 55.878365 31.278708
-27.098604 55.878456 30.848797
-27.081873 55.88509 30.434711
-27.088057 55.866474 29.994465
-27.083639 55.859833 29.577057
-27.073122 55.860149 29.175159
-27.056231 55.867702 28.788454
-27.057611 55.85519 28.383156
-27.052498 55.85004 27.993034
-27.03557 55.858131 27.624315
-26.919714 55.975716 27.386848
-26.913342 55.972366 27.013184
-26.920494 55.954239 26.628407
-26.910069 55.955666 26.270727
-27.002499 55.843784 25.796225
-26.998716 55.838219 25.442774
-27.013863 55.811932 25.072605
-26.989185 55.829647 24.752584
-26.988661 55.820885 24.409714
-26.974611 55.827122 24.086018
-26.957655 55.836666 23.769291
-26.843948 55.952637 23.556854
-26.842421 55.945377 23.229671
-26.821167 55.959885 22.926271
-26.824699 55.947281 22.601679
-26.830805 55.931961 22.278585
-26.822418 55.93264 21.973148
-26.924988 55.81181 21.568178
-26.910393 55.819523 21.276911
-26.886417 55.837585 20.996862
-26.870296 55.847118 20.712391
-26.897179 55.809681 20.393757
-26.879581 55.820988 20.11644
-27.241068 55.901291 33.497704
-27.219124 55.911877 33.044453
-27.210407 55.907917 32.578304
-27.219763 55.884033 32.092442
-27.191866 55.901985 31.673714
-27.191101 55.889889 31.220802
-27.175547 55.894508 30.798264
-27.178059 55.879215 30.356411
-27.174934 55.870422 29.930567
-27.17561 55.857616 29.50667
-27.155577 55.868031 29.118843
-27.138885 55.874905 28.732449
-27.115559 55.889317 28.36091
-27.12047 55.872559 27.957558
-27.123852 55.857685 27.562748
-27.094965 55.878742 27.215263
-27.07921 55.885391 26.855976
-27.081984 55.871681 26.478983
-27.056671 55.889194 26.141512
-27.060364 55.874771 25.773996
-27.07774 55.845387 25.395958
-27.050375 55.865566 25.074736
-27.057749 55.847519 24.718355
-27.05188 55.844223 24.381575
-27.065058 55.820053 24.028593
-27.026411 55.853127 23.735476
-26.984453 55.889927 23.448584
-26.950163 55.918358 23.156422
-26.934797 55.926052 22.848072
-26.944269 55.906532 22.518709
-26.939434 55.902855 22.207314
-26.99951 55.827976 21.83816
-26.999861 55.81884 21.530123
-26.985357 55.826103 21.239071
-26.973032 55.831062 20.94894
-26.957066 55.840096 20.664833
-26.966557 55.821304 20.361597
-26.954889 55.825787 20.0795
-27.31938 55.916615 33.463028
-27.297491 55.926693 33.009949
-27.307016 55.901833 32.514771
-27.289017 55.90807 32.072803
-27.288918 55.89452 31.611032
-27.264961 55.907894 31.194166
-27.258863 55.901527 30.757629
-27.22809 55.922935 30.365025
-27.234375 55.903191 29.925129
-27.234921 55.890076 29.501179
-27.219671 55.894768 29.106476
-27.212778 55.890347 28.706591
-27.194445 55.898842 28.328493
-27.189363 55.892773 27.93858
-27.192703 55.877529 27.543848
-27.168896 55.892612 27.189932
-27.158289 55.893192 26.82436
-27.176624 55.861835 26.428532
-27.1567 55.87307 26.085175
-27.160585 55.858067 25.718147
-27.151697 55.857361 25.371336
-27.145658 55.853642 25.025936
-27.126364 55.864719 24.700018
-27.136663 55.843208 24.345503
-27.12273 55.84861 24.02215
-27.105892 55.857334 23.705761
-27.108057 55.845203 23.37327
-27.112902 55.830242 23.042316
-27.070221 55.867786 22.763163
-27.091284 55.835182 22.423742
-27.075605 55.843166 22.124315
-27.067883 55.842491 21.820496
-27.079622 55.820503 21.501966
-27.076649 55.814812 21.200708
-27.058657 55.825718 20.916088
-27.060183 55.815266 20.617088
-27.046476 55.821632 20.334345
-27.034849 55.825794 20.052473
-27.37447 55.938412 33.478374
-27.374916 55.92326 32.988369
-27.366291 55.918579 32.522587
-27.357347 55.91452 32.066078
-27.352568 55.906048 31.611551
-27.351925 55.893196 31.159081
-27.34124 55.89183 30.729916
-27.305813 55.918339 30.344563
-27.312132 55.898399 29.90486
-27.307875 55.890503 29.487974
-27.302416 55.884155 29.079784
-27.29068 55.885002 28.686905
-27.282347 55.882252 28.295645
-27.257347 55.898235 27.932522
-27.255596 55.888512 27.544409
-27.247005 55.886574 27.171047
-27.23645 55.886986 26.805679
-27.228964 55.884148 26.441803
-27.229738 55.872299 26.073187
-27.223131 55.868801 25.718729
-27.203611 55.879765 25.384209
-27.208076 55.864285 25.026524
-27.215521 55.845654 24.670578
-27.193556 55.859726 24.352036
-27.190393 55.853111 24.016882
-27.173538 55.861759 23.700569
-27.170168 55.855621 23.373877
-27.180481 55.834496 23.037275
-27.160091 55.847389 22.735876
-27.142004 55.857841 22.435375
-27.165686 55.822334 22.097765
-27.146727 55.833954 21.805038
-27.141378 55.830669 21.502594
-27.144083 55.818615 21.196127
-27.126078 55.82946 20.911585
-27.121775 55.82531 20.617727
-27.119684 55.818821 20.32501
-27.46048 55.908417 33.440556
-27.465721 55.8881 32.943539
-27.457438 55.883259 32.478168
-27.421312 55.909908 32.065548
-27.416605 55.901546 31.611082
-27.406683 55.899273 31.172916
-27.39127 55.903381 30.750751
-27.384361 55.898186 30.323286
-27.357254 55.915791 29.93239
-27.377119 55.881107 29.480944
-27.366884 55.880268 29.079693
-27.360147 55.875721 28.680132
-27.351923 55.87302 28.289001
-27.342068 55.872322 27.906164
-27.34054 55.862522 27.518379
-27.31691 55.877499 27.164804
-27.316717 55.866554 26.786736
-27.319746 55.8522 26.410425
-27.310362 55.851799 26.054781
-27.293446 55.859909 25.713026
-27.284595 55.859203 25.366356
-27.273272 55.861378 25.027178
-27.296837 55.825024 24.653273
-27.269659 55.845036 24.340954
-27.261198 55.844433 24.011879
-27.249907 55.847084 23.689915
-27.252163 55.834869 23.357712
-27.257095 55.819828 23.027046
-27.231272 55.838879 22.731451
-27.241295 55.818447 22.403555
-27.220125 55.832558 22.109936
-27.229511 55.813053 21.790327
-27.218613 55.816029 21.493469
-27.209963 55.816616 21.197651
-27.22085 55.795784 20.887489
-27.19936 55.810692 20.609276
-27.197382 55.804211 20.316788
-27.544184 55.887676 33.40976
-27.531683 55.887451 32.942486
-27.518929 55.887772 32.484474
-27.505766 55.888798 32.035625
-27.478159 55.906273 31.617382
-27.477606 55.893627 31.164963
-27.462303 55.897747 30.742918
-27.479292 55.865936 30.280565
-27.447714 55.888702 29.897043
-27.438786 55.886322 29.487217
-27.45299 55.858303 29.051903
-27.42186 55.881119 28.686394
-27.438482 55.850811 28.261845
-27.408829 55.872318 27.905798
-27.41745 55.851318 27.504969
-27.399052 55.8606 27.145105
-27.399033 55.849575 26.767296
-27.386738 55.852371 26.410303
-27.393021 55.834667 26.03587
-27.365799 55.854351 25.706816
-27.357044 55.853645 25.360277
-27.367079 55.83223 24.996918
-27.364101 55.825397 24.653463
-27.358545 55.821564 24.317457
-27.361134 55.808834 23.976994
-27.33919 55.823399 23.667118
-27.33614 55.817158 23.34099
-27.319096 55.826515 23.033224
-27.321127 55.814884 22.709713
-27.308929 55.819092 22.404213
-27.315983 55.802135 22.083479
-27.308575 55.801262 21.780394
-27.303492 55.79792 21.478464
-27.277794 55.81741 21.198586
-27.282953 55.802956 20.893631
-27.296255 55.779633 20.58502
-27.277 55.792274 20.307949
-27.639324 55.870605 33.354156
-27.618114 55.880047 32.902023
-27.619152 55.864693 32.422398
-27.592566 55.880688 31.995762
-27.579023 55.882244 31.556265
-27.56477 55.884834 31.125706
-27.568493 55.86747 30.675722
-27.543024 55.883091 30.276932
-27.55459 55.857399 29.830975
-27.536327 55.865353 29.435465
-27.526373 55.864197 29.034655
-27.51499 55.86483 28.642284
-27.511957 55.856316 28.244858
-27.502375 55.855309 27.862473
-27.506147 55.839569 27.468594
-27.482843 55.854221 27.115543
-27.488062 55.837215 26.731586
-27.486254 55.82822 26.36223
-27.466772 55.839066 26.019688
-27.465794 55.829456 25.659693
-27.457272 55.828388 25.313635
-27.440968 55.836113 24.981152
-27.438032 55.829109 24.63784
-27.421749 55.837063 24.31385
-27.42972 55.818214 23.967524
-27.418709 55.820564 23.646122
-27.415733 55.814125 23.32021
-27.409828 55.81105 23.00135
-27.406435 55.805305 22.683786
-27.388756 55.815487 22.384085
-27.384615 55.810787 22.074446
-27.377214 55.809795 21.771437
-27.377831 55.800041 21.464293
-27.375093 55.794098 21.163702
-27.374653 55.785717 20.864338
-27.353333 55.800476 20.586496
-27.357313 55.787399 20.289392
-27.730627 55.878963 33.318954
-27.704948 55.893005 32.87442
-27.710459 55.872086 32.38768
-27.674751 55.897957 31.975767
-27.684223 55.873119 31.500484
-27.665451 55.880371 31.077477
-27.645729 55.888916 30.663172
-27.65814 55.861542 30.208462
-27.645956 55.862068 29.797754
-27.647045 55.8479 29.375011
-27.63727 55.846146 28.974714
-27.621157 55.851704 28.589605
-27.598436 55.864849 28.219357
-27.593826 55.857876 27.830559
-27.597601 55.841713 27.436951
-27.584484 55.844631 27.071199
-27.559097 55.861435 26.726147
-27.562298 55.846439 26.350449
-27.573885 55.822262 25.970287
-27.552113 55.835484 25.635628
-27.548841 55.828205 25.283636
-27.537872 55.829659 24.945354
-27.534988 55.822243 24.602396
-27.540285 55.805862 24.255014
-27.526783 55.810547 23.932793
-27.499481 55.830692 23.629131
-27.512905 55.805683 23.286198
-27.501534 55.808357 22.973354
-27.492601 55.808434 22.661663
-27.486097 55.805931 22.351164
-27.465139 55.819561 22.058199
-27.485968 55.786972 21.728537
-27.469627 55.795689 21.437775
-27.455463 55.802086 21.147911
-27.46072 55.787083 20.843567
-27.456751 55.782387 20.55076
-27.449169 55.78178 20.26409
-27.806793 55.904613 33.315895
-27.794378 55.90321 32.849277
-27.786242 55.897247 32.384632
-27.77322 55.897087 31.93651
-27.768866 55.887394 31.483082
-27.759323 55.883831 31.045961
-27.753704 55.876083 30.610729
-27.728289 55.890911 30.212437
-27.730242 55.875099 29.780869
-27.69746 55.898643 29.406357
-27.721376 55.858566 28.958094
-27.715006 55.85281 28.559631
-27.707151 55.848923 28.169607
-27.682707 55.863857 27.807724
-27.686428 55.847355 27.41432
-27.68342 55.8386 27.035809
-27.6581 55.85503 26.69109
-27.656185 55.845394 26.322083
-27.647015 55.844059 25.967321
-27.65123 55.827904 25.601603
-27.637476 55.832005 25.262247
-27.642376 55.815414 24.905952
-27.628899 55.819504 24.575426
-27.628815 55.808777 24.234264
-27.59907 55.831276 23.929852
-27.593431 55.827011 23.603016
-27.601358 55.807766 23.266098
-27.584452 55.816311 22.959124
-27.586555 55.80381 22.636423
-27.574476 55.807213 22.331726
-27.553509 55.820599 22.038979
-27.56863 55.793991 21.714907
-27.563604 55.789879 21.413723
-27.549456 55.796001 21.124159
-27.554703 55.780701 20.820118
-27.539183 55.788532 20.537739
-27.531544 55.787712 20.251223
-27.891113 55.897552 33.287167
-27.874348 55.901016 32.828148
-27.884359 55.874386 32.334473
-27.867033 55.879055 31.894012
-27.849062 55.884708 31.462494
-27.844244 55.875721 31.018435
-27.834047 55.873074 30.590509
-27.818195 55.87706 30.178411
-27.805965 55.877174 29.767962
-27.821436 55.846264 29.324863
-27.802019 55.854935 28.938635
-27.785917 55.860069 28.553852
-27.778055 55.856113 28.163893
-27.768572 55.854187 27.782236
-27.762348 55.848778 27.402191
-27.749243 55.851288 27.036776
-27.739202 55.850529 26.672815
-27.737354 55.840748 26.304008
-27.717896 55.850887 25.962013
-27.722095 55.834663 25.596363
-27.718855 55.826942 25.244789
-27.718519 55.816128 24.894777
-27.699751 55.826088 24.570396
-27.69429 55.821297 24.235241
-27.691536 55.813622 23.901505
-27.680599 55.815228 23.58082
-27.694086 55.7897 23.238466
-27.655293 55.822628 22.954453
-27.66847 55.79771 22.620668
-27.65646 55.800995 22.316189
-27.646788 55.801781 22.012798
-27.633802 55.806366 21.715889
-27.645765 55.783298 21.398851
-27.620268 55.802002 21.119934
-27.614021 55.799397 20.826241
-27.609985 55.794434 20.533665
-27.625553 55.767807 20.22728
-27.95108 55.890549 33.283562
-27.956871 55.868793 32.787788
-27.953733 55.857487 32.316368
-27.945803 55.851891 31.861601
-27.918982 55.867962 31.444744
-27.905132 55.869572 31.015106
-27.904493 55.856476 30.573118
-27.893635 55.855179 30.154205
-27.88648 55.849926 29.737066
-27.868555 55.857048 29.342381
-27.858902 55.855042 28.942404
-27.862524 55.838272 28.530642
-27.850006 55.839901 28.147617
-27.840761 55.838028 27.766151
-27.849838 55.815735 27.366652
-27.811785 55.846622 27.034046
-27.801899 55.846001 26.670147
-27.805338 55.830582 26.295053
-27.822311 55.800152 25.909222
-27.790451 55.824677 25.587671
-27.787392 55.817043 25.236231
-27.781942 55.812241 24.892427
-27.757994 55.828289 24.574121
-27.763363 55.811657 24.227089
-27.755383 55.810101 23.899357
-27.755453 55.799679 23.567148
-27.752726 55.792515 23.242172
-27.736067 55.801029 22.935555
-27.73839 55.788475 22.613211
-27.715399 55.804268 22.319889
-27.728252 55.780212 21.994759
-27.698576 55.803654 21.714224
-27.704985 55.787006 21.40254
-27.708115 55.77412 21.097559
-27.702118 55.771492 20.804237
-27.692558 55.772923 20.517096
-27.690931 55.765629 20.225967
-28.019073 55.87051 33.265759
-28.007294 55.869217 32.799603
-28.013321 55.84798 32.313507
-27.991934 55.85812 31.880526
-27.992823 55.84325 31.420446
-27.979319 55.844944 30.991047
-27.964951 55.847839 30.57048
-27.959032 55.841404 30.144625
-27.94735 55.841702 29.734541
-27.948893 55.827278 29.312424
-27.92989 55.836258 28.926378
-27.914194 55.841686 28.541784
-27.906727 55.838028 28.15201
-27.892654 55.841991 27.777155
-27.896814 55.825611 27.38413
-27.88413 55.828362 27.018974
-27.884703 55.816376 26.642437
-27.883335 55.80674 26.274023
-27.864368 55.817032 25.932428
-27.853392 55.818493 25.585817
-27.850504 55.811024 25.23444
-27.850512 55.800465 24.884624
-27.842751 55.798748 24.548433
-27.826982 55.806133 24.225494
-27.835358 55.786625 23.880226
-27.813965 55.800545 23.571482
-27.827763 55.775242 23.229324
-27.805834 55.789986 22.928574
-27.791733 55.796089 22.623112
-27.791121 55.787247 22.307684
-27.787373 55.782013 21.999069
-27.780375 55.78051 21.697088
-27.770014 55.782852 21.401556
-27.773285 55.770111 21.096645
-27.773169 55.761246 20.798254
-27.763788 55.762787 20.511259
-27.75074 55.768486 20.230253
-28.109846 55.839859 33.216225
-28.098455 55.838367 32.750477
-28.073267 55.852814 32.315926
-28.070187 55.842396 31.853962
-28.057516 55.843121 31.415674
-28.04413 55.844887 30.986334
-28.057993 55.816017 30.523457
-28.024069 55.841496 30.140032
-28.022039 55.831078 29.716135
-28.014141 55.827511 29.307949
-28.009813 55.820114 28.901537
-27.984562 55.836536 28.530689
-27.98711 55.821766 28.12768
-27.993168 55.803234 27.726618
-27.977636 55.809227 27.360319
-27.970232 55.806225 26.988941
-27.95577 55.811333 26.631989
-27.949402 55.807487 26.270058
-27.961567 55.78297 25.890831
-27.935287 55.801811 25.563341
-27.932604 55.794285 25.212234
-27.927528 55.789585 24.868771
-27.919931 55.787853 24.532785
-27.915049 55.783215 24.198179
-27.907467 55.781727 23.870863
-27.913349 55.765285 23.533276
-27.900112 55.770378 23.220242
-27.894812 55.766701 22.902674
-27.903069 55.747986 22.575245
-27.880543 55.763786 22.282505
-27.86581 55.770969 21.985126
-27.864594 55.763165 21.678001
-27.860081 55.759144 21.377474
-27.835068 55.778072 21.099005
-27.834995 55.769287 20.800611
-27.842945 55.751659 20.498421
-27.835835 55.750904 20.212652
-28.20142 55.837288 33.174782
-28.185728 55.840488 32.716694
-28.169689 55.844345 32.267773
-28.171354 55.828308 31.798931
-28.163528 55.823338 31.353884
-28.145796 55.829872 30.932156
-28.136473 55.827076 30.505018
-28.126221 55.825565 30.086721
-28.110128 55.830894 29.684074
-28.13599 55.788887 29.228035
-28.117516 55.79734 28.842752
-28.082781 55.824375 28.485907
-28.095369 55.79805 28.069927
-28.086771 55.795883 27.68924
-28.066389 55.807201 27.329819
-28.06414 55.79821 26.952225
-28.060011 55.791519 26.582771
-28.058992 55.78149 26.214962
-28.050734 55.779781 25.861414
-28.024582 55.798367 25.534191
-28.027237 55.78466 25.177217
-28.011744 55.791523 24.846254
-28.014843 55.777615 24.498466
-28.015446 55.766659 24.158276
-28.008038 55.764839 23.831385
-27.99781 55.766304 23.511614
-27.99556 55.758942 23.187346
-27.984898 55.761131 22.87579
-27.982182 55.754532 22.559816
-27.970819 55.757725 22.256203
-27.950596 55.770939 21.96455
-27.960686 55.750336 21.646927
-27.944977 55.758694 21.357346
-27.954189 55.739292 21.047817
-27.942911 55.742889 20.760376
-27.939518 55.73777 20.468843
-27.932526 55.736759 20.183453
-28.330156 55.809063 33.064373
-28.306067 55.821461 32.621765
-28.285954 55.829571 32.180794
-28.269794 55.833412 31.741522
-28.257574 55.833019 31.304022
-28.258532 55.817848 30.854124
-28.244856 55.819607 30.434603
-28.239599 55.812008 30.009809
-28.223833 55.816601 29.607723
-28.240366 55.784687 29.166023
-28.217291 55.798016 28.787987
-28.207191 55.796795 28.397802
-28.190601 55.803135 28.022614
-28.177185 55.806053 27.648867
-28.18194 55.78857 27.256975
-28.169899 55.790295 26.892942
-28.145655 55.805992 26.549612
-28.154932 55.783939 26.169325
-28.136494 55.793385 25.828671
-28.131214 55.788116 25.476803
-28.139303 55.767914 25.114182
-28.118793 55.780136 24.789837
-28.127398 55.759666 24.436546
-28.112196 55.766174 24.114723
-28.104919 55.763882 23.788185
-28.094826 55.764893 23.468769
-28.081793 55.769325 23.156303
-28.071192 55.771145 22.844963
-28.085087 55.745556 22.512487
-28.06278 55.760754 22.220314
-28.048248 55.767323 21.923513
-28.069679 55.733654 21.595562
-28.042858 55.754211 21.317059
-28.040798 55.747101 21.018333
-28.046724 55.731155 20.715714
-28.049221 55.719158 20.419579
-28.025066 55.737076 20.149666
-28.385815 55.858894 33.060841
-28.388378 55.840321 32.573978
-28.377455 55.837521 32.118649
-28.366117 55.835472 31.672499
-28.367966 55.818604 31.213902
-28.350843 55.823704 30.793079
-28.332767 55.830128 30.380976
-28.332441 55.816517 29.949512
-28.321697 55.815041 29.540871
-28.314526 55.809715 29.133961
-28.301231 55.811584 28.742439
-28.286427 55.815372 28.359247
-28.274893 55.815639 27.977577
-28.27157 55.806763 27.590876
-28.261562 55.805676 27.219015
-28.264767 55.789776 26.83576
-28.256012 55.787632 26.473595
-28.234934 55.799637 26.131969
-28.237246 55.785286 25.766422
-28.227043 55.785282 25.421242
-28.230122 55.770401 25.065186
-28.22035 55.770222 24.729044
-28.197384 55.785095 24.412237
-28.192913 55.779202 24.078623
-28.191128 55.770416 23.746445
-28.192007 55.758766 23.415743
-28.19009 55.750412 23.092274
-28.174295 55.757824 22.787148
-28.160845 55.762707 22.483047
-28.138628 55.777569 22.191004
-28.146503 55.758671 21.87265
-28.156881 55.737087 21.555874
-28.141512 55.744568 21.267092
-28.13397 55.743351 20.974022
-28.128628 55.739765 20.682045
-28.108248 55.753151 20.406353
-28.101404 55.751434 20.12142
-28.452892 55.879929 33.042446
-28.451103 55.866188 32.563007
-28.440241 55.863174 32.107674
-28.447113 55.840088 31.632601
-28.417118 55.859585 31.224447
-28.418427 55.843437 30.774998
-28.40979 55.838947 30.348856
-28.40493 55.830383 29.92457
-28.394325 55.828629 29.516054
-28.387289 55.823025 29.109272
-28.388634 55.808075 28.697487
-28.378967 55.805916 28.30788
-28.372644 55.800148 27.91993
-28.344875 55.819019 27.566698
-28.334997 55.81768 27.194969
-28.33832 55.801506 26.811853
-28.319548 55.81065 26.462627
-28.329197 55.787659 26.082979
-28.321478 55.784588 25.730381
-28.30629 55.790154 25.391672
-28.299065 55.786831 25.048092
-28.289379 55.786457 24.712017
-28.303596 55.759151 24.353323
-28.27812 55.776955 24.043962
-28.260405 55.786091 23.729626
-28.26676 55.768127 23.393219
-28.264952 55.759544 23.069897
-28.232851 55.785301 22.78182
-28.246962 55.758991 22.449818
-28.230478 55.767342 22.152561
-28.232971 55.754398 21.840004
-28.237898 55.738834 21.528879
-28.222673 55.74609 21.240313
-28.215267 55.74464 20.947466
-28.215765 55.734402 20.650591
-28.21277 55.728191 20.360046
-28.194647 55.739086 20.085585
-28.522062 55.883892 33.035858
-28.498127 55.89576 32.593227
-28.496113 55.882668 32.123074
-28.484793 55.880573 31.676804
-28.477482 55.874138 31.232433
-28.474159 55.863388 30.790031
-28.47014 55.853703 30.356716
-28.455866 55.856022 29.946339
-28.459415 55.838158 29.516863
-28.452415 55.832607 29.110079
-28.434473 55.839794 28.725477
-28.434422 55.826736 28.322149
-28.432962 55.815498 27.927401
-28.425009 55.811886 27.547695
-28.425268 55.799095 27.16309
-28.413723 55.799957 26.799713
-28.40521 55.797539 26.437815
-28.39971 55.791862 26.07744
-28.402351 55.777096 25.712372
-28.3925 55.776707 25.367666
-28.380238 55.779213 25.030491
-28.375954 55.772804 24.68856
-28.374447 55.763397 24.348122
-28.359715 55.769135 24.026985
-28.347511 55.772137 23.707006
-28.348627 55.760181 23.376663
-28.330641 55.769989 23.070683
-28.331415 55.758682 22.748779
-28.329226 55.750862 22.433905
-28.329496 55.740383 22.120388
-28.326637 55.733562 21.813686
-28.309328 55.743168 21.524313
-28.311081 55.731365 21.220005
-28.298162 55.736217 20.93265
-28.293074 55.732342 20.641123
-28.278704 55.739017 20.360825
-28.272141 55.736992 20.076416
-28.557474 55.914951 33.086311
-28.542219 55.917061 32.628624
-28.549046 55.894012 32.143642
-28.537689 55.892197 31.69725
-28.53034 55.88604 31.252756
-28.508512 55.896778 30.838673
-28.513597 55.876842 30.390882
-28.508606 55.868732 29.966282
-28.502623 55.861996 29.550524
-28.485935 55.867756 29.157207
-28.487099 55.853279 28.745033
-28.487001 55.840466 28.341572
-28.4855 55.829475 27.946688
-28.472561 55.831757 27.573454
-28.462765 55.830631 27.201721
-28.461119 55.820385 26.825071
-28.45253 55.818245 26.462969
-28.457159 55.801208 26.089716
-28.464933 55.780777 25.718306
-28.43441 55.804108 25.398405
-28.427258 55.800983 25.054823
-28.417645 55.8008 24.718746
-28.421314 55.785675 24.37203
-28.417168 55.779579 24.038836
-28.394249 55.794922 23.730494
-28.416872 55.758736 23.376801
-28.404398 55.762489 23.065182
-28.388872 55.769814 22.760338
-28.403181 55.743477 22.428686
-28.381413 55.758099 22.137289
-28.372953 55.757771 21.835861
-28.372387 55.748623 21.530224
-28.368534 55.743301 21.231184
-28.361286 55.74192 20.938557
-28.350536 55.744591 20.652153
-28.3419 55.744968 20.36673
-28.606977 55.94397 33.119045
-28.609301 55.925854 32.631714
-28.593706 55.928722 32.183197
-28.582136 55.927212 31.736502
-28.570002 55.926617 31.298878
-28.566374 55.916481 30.855982
-28.57136 55.896698 30.408066
-28.55689 55.899536 29.997316
-28.550737 55.893044 29.581306
-28.538671 55.893566 29.180876
-28.544523 55.873753 28.761711
-28.534616 55.872227 28.371588
-28.528048 55.867077 27.983112
-28.519855 55.863979 27.602949
-28.514885 55.857391 27.224415
-28.503077 55.858799 26.860508
-28.504414 55.845367 26.485262
-28.503817 55.83432 26.118141
-28.490885 55.837524 25.771542
-28.480778 55.837658 25.426289
-28.483896 55.822876 25.070162
-28.474215 55.82283 24.733948
-28.461952 55.825863 24.405077
-28.462942 55.813961 24.065605
-28.445253 55.823433 23.751129
-28.44618 55.811878 23.420355
-28.438894 55.809784 23.102524
-28.434093 55.804993 22.785969
-28.431763 55.797523 22.47073
-28.426359 55.793655 22.162338
-28.42333 55.787216 21.855196
-28.433847 55.765553 21.538639
-28.418713 55.773045 21.250076
-28.411371 55.771812 20.957226
-28.417599 55.755341 20.655218
-28.397528 55.768692 20.379898
-28.656282 55.99229 33.164684
-28.644922 55.989765 32.699059
-28.651207 55.967121 32.213543
-28.625809 55.981407 31.788313
-28.617834 55.975811 31.343094
-28.618444 55.960571 30.892721
-28.604513 55.962368 30.472702
-28.598953 55.954754 30.047419
-28.60187 55.937622 29.617123
-28.594278 55.932827 29.209517
-28.590227 55.924179 28.803696
-28.589695 55.911709 28.399719
-28.577978 55.912296 28.017658
-28.574432 55.903702 27.630566
-28.574184 55.891521 27.245232
-28.56218 55.893009 26.881128
-28.55825 55.885426 26.512089
-28.557407 55.874485 26.144703
-28.554502 55.866081 25.785292
-28.544243 55.866253 25.439905
-28.54199 55.85743 25.089777
-28.526882 55.863441 24.759422
-28.524956 55.854553 24.418283
-28.504536 55.866894 24.102377
-28.502617 55.85828 23.769915
-28.508734 55.840652 23.433146
-28.506721 55.832424 23.109461
-28.485455 55.84623 22.809759
-28.477423 55.845093 22.4998
-28.488337 55.822544 22.174561
-28.496271 55.80352 21.856426
-28.467596 55.826172 21.577316
-28.46903 55.814751 21.272411
-28.461494 55.81361 20.979265
-28.473192 55.790779 20.671835
-28.464405 55.791267 20.38619
-28.691345 56.063984 33.241241
-28.683779 56.056694 32.767681
-28.684988 56.039524 32.288925
-28.672529 56.038509 31.841402
-28.668623 56.027859 31.38859
-28.668783 56.012779 30.937855
-28.659071 56.009392 30.510422
-28.653124 56.001904 30.084831
-28.655643 55.984882 29.654224
-28.638155 55.991203 29.260033
-28.633646 55.982765 28.853769
-28.627811 55.976082 28.456081
-28.635162 55.954426 28.046825
-28.621445 55.957241 27.672686
-28.615831 55.950924 27.293501
-28.618422 55.935375 26.909519
-28.614183 55.927868 26.540216
-28.602867 55.928661 26.185242
-28.604706 55.914539 25.819157
-28.57865 55.932564 25.492043
-28.58634 55.912071 25.129099
-28.59181 55.894299 24.774071
-28.579132 55.897453 24.444788
-28.569065 55.897766 24.116755
-28.572271 55.883045 23.778299
-28.556705 55.889912 23.464598
-28.554384 55.881786 23.14056
-28.538284 55.889511 22.834862
-28.546427 55.869717 22.50791
-28.546133 55.859669 22.193592
-28.531647 55.86591 21.896935
-28.524963 55.863373 21.595915
-28.531778 55.845596 21.285515
-28.529703 55.838047 20.987022
-28.512861 55.847382 20.705153
-28.520887 55.828571 20.403904
-28.721994 56.139915 33.338291
-28.718058 56.128033 32.856674
-28.736345 56.090603 32.348083
-28.718847 56.095135 31.907381
-28.723438 56.074276 31.439735
-28.704746 56.080742 31.017094
-28.699013 56.072426 30.581997
-28.687786 56.070736 30.162842
-28.684937 56.059593 29.738537
-28.695316 56.033382 29.302467
-28.690384 56.025146 28.895887
-28.674459 56.029839 28.511358
-28.666666 56.025341 28.121664
-28.672022 56.005886 27.720449
-28.665968 55.999805 27.340872
-28.673101 55.978729 26.950016
-28.643303 56.000385 26.612427
-28.661852 55.966564 26.218737
-28.648003 55.970207 25.871201
-28.642122 55.964855 25.518799
-28.633938 55.962318 25.174059
-28.638987 55.944752 24.818615
-28.631178 55.942104 24.482922
-28.626055 55.936527 24.148613
-28.607611 55.946358 23.833307
-28.618431 55.92281 23.490112
-28.60503 55.927135 23.177292
-28.610344 55.910183 22.848667
-28.601856 55.909145 22.538355
-28.590254 55.911793 22.234745
-28.597561 55.892963 21.915953
-28.590652 55.890488 21.61479
-28.586023 55.885529 21.314796
-28.583658 55.878098 21.016006
-28.572218 55.881115 20.728718
-28.57428 55.868858 20.432295
-28.751017 56.209808 33.437511
-28.755154 56.188293 32.940472
-28.781654 56.141026 32.416672
-28.772619 56.135551 31.961021
-28.763134 56.13089 31.514544
-28.748468 56.132538 31.084244
-28.737591 56.130039 30.65571
-28.721151 56.134254 30.242996
-28.717699 56.123631 29.818064
-28.713224 56.114445 29.401957
-28.71237 56.101303 28.987747
-28.705462 56.095409 28.588972
-28.726309 56.057617 28.158579
-28.706783 56.066772 27.79015
-28.695265 56.06686 27.416527
-28.681883 56.069294 27.050919
-28.6866 56.051018 26.667526
-28.689495 56.035049 26.292387
-28.680227 56.033291 25.937904
-28.678999 56.022446 25.578682
-28.675549 56.014332 25.227253
-28.66975 56.00909 24.883463
-28.661474 56.006851 24.547146
-28.661169 55.995605 24.206278
-28.658283 55.98748 23.872833
-28.652695 55.982605 23.546644
-28.655066 55.968742 23.216105
-28.660055 55.952023 22.887114
-28.656729 55.944977 22.570869
-28.644871 55.947826 22.266973
-28.635315 55.948154 21.96417
-28.633612 55.939621 21.657139
-28.623068 55.941311 21.361984
-28.631598 55.921318 21.052259
-28.62554 55.918106 20.75947
-28.627342 55.906029 20.462742
-28.779039 56.267235 33.518967
-28.773869 56.256626 33.036053
-28.821957 56.184082 32.475021
-28.826027 56.163361 31.997227
-28.79821 56.180168 31.579229
-28.796881 56.166332 31.127085
-28.771908 56.180325 30.719418
-28.745789 56.195881 30.3202
-28.737171 56.191296 29.901573
-28.736935 56.177216 29.4779
-28.726059 56.175735 29.076662
-28.723442 56.16489 28.670374
-28.753487 56.116394 28.225901
-28.738482 56.120384 27.850277
-28.726614 56.120934 27.47613
-28.722847 56.112293 27.097031
-28.717241 56.10598 26.726061
-28.704609 56.107975 26.369419
-28.694893 56.10677 26.014193
-28.688074 56.10239 25.660427
-28.689306 56.088894 25.302032
-28.683065 56.084187 24.957479
-28.684843 56.0704 24.608391
-28.678892 56.06567 24.272823
-28.691555 56.03968 23.92108
-28.674986 56.047466 23.60598
-28.687767 56.021652 23.26335
-28.665377 56.036392 22.962101
-28.661608 56.029865 22.644987
-28.665779 56.014362 22.323708
-28.661419 56.008774 22.014816
-28.659416 56.000603 21.707195
-28.654175 55.996265 21.406166
-28.645584 55.995872 21.111546
-28.650476 55.980156 20.807735
-28.646315 55.974915 20.515465
-28.783474 56.350288 33.622112
-28.777744 56.340389 33.138374
-28.86516 56.221725 32.510803
-28.878019 56.190788 32.018227
-28.877295 56.176067 31.556963
-28.853308 56.188808 31.140598
-28.819103 56.213711 30.746922
-28.764982 56.262058 30.389429
-28.741926 56.274368 29.990973
-28.741196 56.260891 29.566479
-28.725069 56.265579 29.171217
-28.736376 56.238583 28.743803
-28.795124 56.156712 28.258553
-28.794662 56.143909 27.862762
-28.787704 56.138859 27.481936
-28.778969 56.136066 27.109249
-28.773331 56.129871 26.738144
-28.710165 56.190475 26.444836
-28.70513 56.183907 26.082516
-28.70307 56.174076 25.72179
-28.698805 56.166965 25.368849
-28.697403 56.156712 25.017464
-28.688377 56.155426 24.679686
-28.687311 56.145103 24.337341
-28.731453 56.082825 23.949644
-28.704077 56.103153 23.645773
-28.705877 56.089996 23.314085
-28.699474 56.086426 22.995239
-28.684647 56.09267 22.688845
-28.67762 56.090065 22.377993
-28.66194 56.097519 22.079233
-28.665127 56.08342 21.765371
-28.659569 56.079479 21.46353
-28.650669 56.079483 21.168089
-28.660883 56.057682 20.858322
-28.667791 56.039795 20.55518
-29.137339 56.00597 32.166946
-28.977625 56.177479 31.959444
-28.972691 56.167564 31.505787
-28.95356 56.174568 31.082663
-28.887472 56.236763 30.738796
-28.768379 56.361084 30.479195
-28.768213 56.346516 30.0452
-28.776579 56.322243 29.606407
-28.760193 56.32711 29.210697
-28.751972 56.322678 28.809805
-28.907223 56.128052 28.190367
-28.872898 56.154568 27.84144
-28.885752 56.126373 27.434568
-28.842489 56.163631 27.107628
-28.83182 56.16317 26.74287
-28.763611 56.229671 26.455744
-28.727978 56.258476 26.130884
-28.720469 56.254807 25.775757
-28.731316 56.230042 25.403713
-28.703695 56.250004 25.082201
-28.725636 56.212753 24.707581
-28.713827 56.214718 24.376682
-28.800058 56.103539 23.941559
-28.788731 56.105297 23.62031
-28.769152 56.116711 23.311714
-28.762728 56.113064 22.992798
-28.74789 56.119251 22.686329
-28.708002 56.154415 22.408417
-28.692114 56.162022 22.10914
-28.683996 56.160793 21.805481
-28.683731 56.150642 21.497694
-28.674591 56.150818 21.20166
-28.673281 56.142101 20.901569
-28.674212 56.130924 20.602741
-29.222897 56.025055 32.132679
-29.08581 56.170128 31.889074
-29.072113 56.170116 31.450258
-29.05773 56.171185 31.020386
-28.978159 56.249058 30.698069
-29.061327 56.063721 28.064512
-28.983706 56.140606 27.776136
-28.962324 56.151951 27.415596
-28.953815 56.148468 27.043379
-28.938396 56.153229 26.685564
-28.830179 56.266232 26.449594
-28.807903 56.253967 25.385092
-28.738794 56.321861 25.112173
-28.697701 56.357311 24.809061
-28.727234 56.310947 24.429415
-28.897598 56.101555 23.899878
-28.881067 56.109066 23.584768
-28.866955 56.113903 23.270739
-28.855249 56.116085 22.957829
-28.840504 56.12191 22.651646
-28.767948 56.194656 22.40699
-28.718962 56.240219 22.140116
-28.705 56.245422 21.841221
-28.704386 56.235336 21.532778
-28.7117 56.216232 21.220467
-28.693264 56.226929 20.93532
-28.693857 56.215805 20.635824
-29.314081 56.042938 32.08844
-29.181753 56.182484 31.837734
-29.1637 56.187176 31.406395
-29.163069 56.171593 30.955439
-29.074652 56.259766 30.647591
-29.197132 56.025257 27.962757
-29.066441 56.164261 27.747795
-29.074583 56.14069 27.348162
-29.041559 56.165527 27.008827
-29.041185 56.152344 26.632002
-28.898073 56.306156 26.440702
-29.038689 56.053276 23.808712
-28.979998 56.10952 23.540771
-28.97673 56.101463 23.215677
-28.959829 56.109379 22.908907
-28.945248 56.114727 22.603155
-28.86202 56.19978 22.369867
-28.670408 56.410423 22.244169
-28.683311 56.384132 21.916924
-28.811726 56.213333 21.179314
-28.737608 56.27734 20.645908
-29.39344 56.05788 32.05217
-29.27035 56.186718 31.787081
-29.257082 56.185604 31.348873
-29.238586 56.190968 30.926714
-29.136642 56.295212 30.640055
-29.268696 56.047821 27.941677
-29.172321 56.14674 27.68049
-29.151358 56.157166 27.320591
-29.128387 56.170135 26.968439
-29.103277 56.185795 26.623884
-28.975399 56.322025 26.413403
-29.137775 56.042202 23.759171
-29.084715 56.09193 23.485836
-29.054977 56.114578 23.189772
-29.038198 56.122253 22.883139
-29.023737 56.127361 22.577526
-28.935253 56.218628 22.349806
-29.450075 56.072857 32.044506
-29.340616 56.185966 31.757685
