# .PCD v0.7 - Point Cloud Data file format
VERSION 0.7
FIELDS x y z
SIZE 4 4 4
TYPE F F F
COUNT 1 1 1
WIDTH 1556
HEIGHT 1
VIEWPOINT 0 0 0 1 0 0 0
POINTS 1556
DATA ascii
-58.353718 55.665054 19.502508
-58.614586 55.58952 21.214603
-58.586464 55.588528 20.911869
-58.531483 55.584629 20.315527
-58.502144 55.598454 20.032738
-58.478466 55.575848 19.729317
-58.449375 55.591778 19.453878
-58.418434 55.621632 19.189674
-58.390686 55.631794 18.915682
-58.66856 55.58411 20.919643
-58.614555 55.572243 20.317507
-58.587566 55.569569 20.023758
-58.558914 55.580341 19.741911
-58.533451 55.571289 19.450359
-58.503754 55.59277 19.180935
-58.479778 55.577511 18.891567
-58.448872 55.610203 18.633955
-58.425049 55.597454 18.351759
-58.395393 55.624676 18.095404
-58.686676 55.593597 20.357206
-58.636959 55.560894 19.753849
-58.610275 55.560467 19.46752
-58.583096 55.565353 19.187494
-58.557873 55.55875 18.903273
-58.530853 55.566109 18.630356
-58.504505 55.57058 18.358313
-58.478828 55.572174 18.087173
-58.452515 55.579552 17.821825
-58.425507 55.592857 17.562071
-58.399113 55.603493 17.303005
-58.707375 55.576862 19.80117
-58.658428 55.548725 19.212971
-58.63203 55.55098 18.933748
-58.602573 55.575787 18.67078
-58.580067 55.555077 18.383316
-58.554462 55.557041 18.112019
-58.52953 55.556141 17.841654
-58.50526 55.552402 17.572252
-58.477669 55.571995 17.317972
-58.450649 55.589016 17.064257
-58.425568 55.594673 16.806572
-58.402462 55.588871 16.545179
-58.809135 55.571697 20.126915
-58.784111 55.558792 19.82802
-58.732807 55.548313 19.249975
-58.681992 55.542267 18.686815
-58.65451 55.556087 18.419409
-58.63147 55.541313 18.137913
-58.606583 55.540791 17.86739
-58.579758 55.554779 17.607412
-58.553532 55.566097 17.34812
-58.530563 55.557243 17.080257
-58.508255 55.545589 16.813442
-58.483887 55.548828 16.556679
-58.457367 55.567192 16.309526
-58.431389 55.583107 16.062885
-58.408756 55.578693 15.808275
-58.385303 55.580688 15.558712
-58.805664 55.551861 19.280884
-58.756023 55.538094 18.712017
-58.729805 55.543705 18.439365
-58.705494 55.537834 18.162657
-58.679333 55.546288 17.896778
-58.630188 55.546185 17.362738
-58.604599 55.555096 17.104082
-58.582268 55.54377 16.837027
-58.557899 55.547325 16.580029
-58.534126 55.548267 16.323824
-58.510944 55.546608 16.068439
-58.488358 55.542362 15.8139
-58.467762 55.526569 15.556056
-58.442127 55.544197 15.315668
-58.419857 55.541397 15.06769
-58.393818 55.56337 14.832325
-58.88203 55.545567 19.290178
-58.856834 55.540405 19.00503
-58.828724 55.557697 18.736315
-58.803684 55.555054 18.45826
-58.781803 55.532238 18.171343
-58.731384 55.53804 17.635283
-58.709053 55.523659 17.361515
-58.682205 55.541412 17.107506
-58.658546 55.539005 16.84494
-58.632847 55.551559 16.592279
-58.611736 55.534954 16.327007
-58.587204 55.54232 16.07588
-58.564598 55.538227 15.821181
-58.541199 55.540539 15.571535
-58.519756 55.531349 15.318529
-58.494659 55.546757 15.078512
-58.472919 55.541676 14.831084
-58.45174 55.534145 14.584471
-58.432568 55.515041 14.334916
-58.406643 55.539318 14.104894
-59.063778 55.557796 20.460356
-58.958973 55.544098 19.291941
-58.93372 55.539024 19.006645
-58.881714 55.545284 18.454552
-58.857319 55.539707 18.177465
-58.806789 55.54575 17.640951
-58.784374 55.531483 17.366957
-58.761353 55.523075 17.098778
-58.735077 55.538265 16.84535
-58.711983 55.533222 16.583549
-58.686852 55.543232 16.331524
-58.663612 55.541801 16.075825
-58.640961 55.537777 15.820972
-58.616154 55.549141 15.575348
-58.594639 55.540051 15.322106
-58.572311 55.537464 15.07381
-58.551949 55.523331 14.822362
-58.529316 55.524914 14.579612
-58.508648 55.514977 14.333761
-58.484177 55.530148 14.099874
-58.463108 55.524685 13.859154
-60.358356 55.874016 34.293655
-59.009624 55.548645 19.009758
-58.986115 55.532024 18.72028
-58.958565 55.546494 18.452206
-58.910198 55.532433 17.898829
-58.884544 55.538361 17.633377
-58.86076 55.532799 17.36404
-58.809971 55.548443 16.846704
-58.790642 55.516937 16.571213
-58.766758 55.518021 16.314781
-58.742134 55.525417 16.063501
-58.719398 55.521343 15.808656
-58.695889 55.523678 15.558859
-58.674297 55.5145 15.305706
-58.65052 55.520885 15.061514
-58.62727 55.524868 14.817954
-58.607357 55.508232 14.567333
-58.583755 55.516544 14.329048
-58.562084 55.513378 14.087608
-58.536587 55.535492 13.857745
-58.515919 55.527733 13.61754
-60.499725 55.853329 34.790535
-59.017326 55.526245 18.160776
-58.965111 55.54089 17.628788
-58.915329 55.544479 17.10013
-58.893879 55.524555 16.827997
-58.866695 55.545994 16.579521
-58.8465 55.520546 16.309488
-58.821735 55.527943 16.05806
-58.801487 55.505955 15.794568
-58.777859 55.508217 15.544782
-58.753426 55.51701 15.299831
-58.730881 55.514336 15.051475
-58.708881 55.509193 14.80391
-58.686035 55.510723 14.561016
-58.663708 55.50988 14.318804
-58.617744 55.519543 13.843741
-58.595501 55.520954 13.607082
-59.148338 55.537506 18.711346
-59.123989 55.526272 18.427937
-59.049068 55.51775 17.608965
-59.022533 55.529526 17.349007
-58.999046 55.521088 17.080484
-58.974937 55.518654 16.817568
-58.950169 55.522354 16.560055
-58.925976 55.52343 16.303333
-58.902351 55.521896 16.047434
-58.879303 55.517769 15.79238
-58.854187 55.529049 15.546538
-58.833588 55.510818 15.289009
-58.786018 55.521088 14.800817
-58.764381 55.513508 14.553844
-58.744678 55.494331 14.303942
-58.718529 55.518608 14.073517
-58.697067 55.513062 13.832508
-60.676662 55.846352 34.775505
-60.398056 55.812733 31.742365
-60.354717 55.808823 31.273161
-60.315632 55.764999 30.769129
-60.270355 55.802727 30.362804
-60.232288 55.766685 29.885197
-59.199867 55.536797 18.428965
-59.100273 55.522774 17.339741
-59.075439 55.523079 17.075788
-59.026325 55.524357 16.555067
-59.004536 55.507656 16.289398
-58.978268 55.523907 16.042152
-58.956387 55.510818 15.782707
-58.931183 55.522068 15.536792
-58.907814 55.521862 15.287373
-58.886318 55.510105 15.034714
-58.861351 55.523106 14.794789
-58.84095 55.506393 14.54382
-58.816994 55.514656 14.305155
-58.793522 55.520618 14.067034
-58.771938 55.515064 13.825873
-58.752281 55.497921 13.58194
-60.477417 55.804089 31.738144
-60.432373 55.820213 31.291161
-60.393673 55.769821 30.779545
-60.269661 55.771011 29.463102
-60.229752 55.771633 29.039898
-59.278275 55.519772 18.41744
-59.227737 55.514126 17.868414
-59.202843 55.511292 17.597828
-59.17738 55.514351 17.332935
-59.151306 55.523441 17.07354
-59.128242 55.512234 16.805775
-59.080235 55.508141 16.286695
-59.056469 55.506577 16.030649
-59.030716 55.520348 15.783937
-59.008053 55.513676 15.529457
-58.985954 55.504436 15.275877
-58.9631 55.501713 15.027228
-58.938122 55.514717 14.787223
-58.91497 55.516266 14.54387
-58.89233 55.515434 14.301199
-58.872936 55.493843 14.051864
-58.848568 55.506676 13.817995
-58.824657 55.517288 13.584554
-60.551834 55.801788 31.754658
-60.510029 55.778095 31.262949
-60.465782 55.79496 30.825172
-60.300274 55.812668 29.098101
-60.26334 55.787292 28.654919
-60.229 55.74192 28.19993
-60.195328 55.697735 27.754406
-59.352509 55.51627 18.421448
-59.251564 55.511299 17.33633
-59.2024 55.509399 16.808857
-59.177486 55.513218 16.550962
-59.154366 55.505516 16.289463
-59.084713 55.493347 15.523423
-59.06004 55.502209 15.27801
-59.03717 55.49958 15.029201
-59.013519 55.503582 14.785109
-58.991703 55.496056 14.537829
-58.966389 55.513584 14.302686
-58.946953 55.492077 14.053188
-58.921227 55.514229 13.822759
-58.900074 55.506447 13.582028
-60.578972 55.793976 31.316696
-60.536346 55.791264 30.856403
-60.261143 55.747204 27.832495
-60.222481 55.763023 27.450678
-60.192463 55.694008 26.995235
-60.155983 55.69973 26.616962
-59.448196 55.527599 18.721985
-59.373032 55.511803 17.888195
-59.346973 55.518021 17.622007
-59.297791 55.513374 17.087526
-59.273502 55.511288 16.824001
-59.225468 55.507851 16.304132
-59.202919 55.497681 16.043369
-59.177219 55.511738 15.79634
-59.153282 55.514347 15.545703
-59.13242 55.496376 15.287634
-59.109562 55.493923 15.038661
-59.085934 55.4981 14.794407
-59.061493 55.509014 14.554656
-59.04018 55.499275 14.307892
-59.016716 55.505497 14.069364
-58.993725 55.509422 13.831402
-58.973938 55.492546 13.586979
-60.648533 55.797318 31.368046
-60.608051 55.768333 30.877907
-60.334579 55.712753 27.839169
-60.292698 55.764927 27.491781
-60.259171 55.732868 27.070101
-60.22403 55.724743 26.677666
-60.187798 55.733871 26.307079
-60.157658 55.686306 25.891502
-60.09481 55.635777 25.119595
-59.445133 55.509731 17.90914
-59.369961 55.51218 17.107767
-59.322002 55.505848 16.581154
-59.27515 55.497608 16.062647
-59.251957 55.494003 15.806887
-59.228069 55.496811 15.556167
-59.205967 55.488071 15.302094
-59.159554 55.49025 14.80854
-59.136463 55.492252 14.564777
-59.113869 55.491871 14.321693
-59.09177 55.489113 14.079311
-59.068829 55.493221 13.841265
-59.04636 55.495045 13.603806
-60.714237 55.787518 31.403973
-60.672272 55.779293 30.935694
-60.40176 55.699982 27.866047
-60.359413 55.759789 27.525368
-60.322571 55.764603 27.137539
-60.287437 55.757244 26.744514
-60.220318 55.727768 25.963779
-60.188332 55.705715 25.576185
-60.157394 55.678829 25.190516
-60.129044 55.631916 24.793949
-60.09787 55.618359 24.431541
-59.440987 55.502304 17.122559
-59.415634 55.509567 16.863192
-59.368958 55.498356 16.33795
-59.276279 55.488892 15.319806
-59.253513 55.486927 15.070419
-59.206974 55.493843 14.581743
-59.163712 55.482002 14.09208
-59.142178 55.477097 13.850251
-59.119801 55.479099 13.612701
-60.773209 55.771988 31.418015
-60.732002 55.757324 30.942217
-60.683025 55.85183 30.592997
-60.419121 55.761173 27.551884
-60.381798 55.77364 27.170609
-60.348179 55.752041 26.763716
-60.18367 55.696732 24.870003
-60.152504 55.683952 24.506775
-60.126251 55.628143 24.113705
-60.093811 55.637386 23.779184
-60.066311 55.603558 23.415058
-59.410622 55.500977 16.092379
-59.295902 55.495903 14.835776
-59.275539 55.480068 14.583799
-59.208508 55.482132 13.859251
-59.187565 55.475052 13.617911
-60.839832 55.773708 31.430386
-60.798195 55.765942 30.961779
-60.750473 55.847118 30.597658
-60.529716 55.689693 27.889767
-60.486526 55.764374 27.562515
-60.451923 55.74789 27.153732
-60.414379 55.770226 26.78747
-60.187065 55.702187 24.179241
-60.159351 55.665394 23.806482
-60.129375 55.655342 23.460451
-60.099445 55.649048 23.122078
-60.07373 55.607025 22.761051
-60.047256 55.576595 22.414017
-59.600441 55.501976 17.399048
-59.436642 55.482082 15.57458
-59.390953 55.481079 15.074368
-59.368874 55.476841 14.825429
-59.299282 55.49538 14.102049
-59.280476 55.472263 13.852489
-59.258278 55.474461 13.614594
-60.829479 55.859154 30.614721
-60.566776 55.748642 27.550409
-60.493141 55.769035 26.788897
-60.171162 55.703445 23.164965
-60.142666 55.685619 22.821423
-60.11504 55.663712 22.479528
-60.088276 55.637756 22.13933
-60.062374 55.60778 21.800875
-60.036442 55.581951 21.469954
-60.010433 55.560436 21.146399
-59.956139 55.5476 20.531765
-59.930553 55.531822 20.223661
-59.628117 55.493279 16.862225
-59.53384 55.487843 15.826752
-59.486938 55.491974 15.324576
-59.440838 55.495205 14.829377
-59.420395 55.479435 14.577085
-59.396713 55.48867 14.337104
-59.376026 55.477173 14.090281
-59.354565 55.472477 13.847952
-59.332287 55.474693 13.609899
-60.959885 55.763504 30.979643
-60.911594 55.851784 30.622538
-60.647861 55.734951 27.550606
-60.610413 55.747589 27.169083
-60.575207 55.740803 26.775476
-60.310905 55.705948 23.850266
-60.133762 55.659779 21.846771
-60.109276 55.618118 21.503731
-60.084785 55.580578 21.168339
-60.054802 55.596722 20.87405
-60.029148 55.576504 20.558542
-60.002392 55.569336 20.255478
-59.977287 55.5504 19.948298
-59.95195 55.536423 19.647886
-59.927322 55.5191 19.34882
-59.902401 55.506954 19.056305
-59.679203 55.486313 16.601425
-59.560909 55.489429 15.326537
-59.539291 55.478729 15.072418
-59.516991 55.474583 14.823176
-59.471416 55.477238 14.334693
-59.449345 55.474983 14.091489
-59.427753 55.470356 13.849008
-59.404079 55.481907 13.614328
-61.080395 55.759789 31.458998
-60.99052 55.834148 30.625488
-60.723114 55.754345 27.587593
-60.687393 55.745544 27.185225
-60.651451 55.746338 26.798193
-60.390785 55.667023 23.833506
-60.152092 55.655857 21.232187
-60.126385 55.631462 20.909019
-60.100563 55.611618 20.59301
-60.074574 55.596493 20.283979
-60.048378 55.586254 19.981752
-60.021935 55.581055 19.686144
-59.997124 55.564129 19.386492
-59.972031 55.55238 19.093386
-59.948605 55.528862 18.796453
-59.924866 55.510651 18.505989
-59.87421 55.508099 17.953434
-59.682819 55.481014 15.833293
-59.545826 55.473751 14.338037
-59.478336 55.478722 13.617195
-61.421436 55.929035 34.656681
-61.113811 55.755192 31.014526
-61.069477 55.789574 30.598576
-60.798588 55.752296 27.603289
-60.762791 55.743729 27.200733
-60.726162 55.752094 26.820272
-60.466961 55.651611 23.834791
-60.091003 55.625809 19.723726
-60.038864 55.614937 19.14012
-60.01622 55.583336 18.837353
-59.99231 55.565548 18.546215
-59.967045 55.561844 18.266294
-59.941368 55.563824 17.992304
-59.919376 55.536758 17.704887
-59.89595 55.52409 17.428329
-59.872063 55.517277 17.157568
-59.849831 55.498795 16.883282
-59.686516 55.48024 15.083356
-59.575653 55.463799 13.854346
-59.55442 55.457001 13.612291
-61.499363 55.897797 34.631332
-61.189995 55.743034 31.012146
-61.143795 55.804691 30.62538
-60.874905 55.733208 27.593569
-60.837872 55.739193 27.204662
-60.802406 55.732967 26.81056
-60.542774 55.632294 23.825125
-59.938663 55.567947 17.185066
-59.916267 55.549751 16.91017
-59.893398 55.537525 16.640972
-59.873283 55.504669 16.364059
-59.851589 55.486774 16.097233
-59.827114 55.493061 15.844296
-59.626549 55.455624 13.609804
-61.575825 55.923042 34.68869
-61.222908 55.76651 30.606054
-60.950752 55.730724 27.609573
-60.915348 55.715073 27.200018
-60.878014 55.730938 26.826197
-60.618755 55.616394 23.826767
-60.010944 55.571548 17.194496
-59.96439 55.550301 16.654427
-59.941971 55.53545 16.386015
-59.917938 55.535706 16.127373
-59.896629 55.515358 15.861073
-59.874775 55.501278 15.60012
-59.852333 55.493584 15.344302
-59.832687 55.465126 15.081384
-59.764168 55.464706 14.341769
-61.659561 55.836647 34.617741
-61.300392 55.771893 30.641624
-61.029137 55.710148 27.615526
-60.991325 55.72382 27.233208
-60.954433 55.732735 26.85232
-60.690269 55.659721 23.881994
-59.898079 55.522621 15.116774
-59.876495 55.510082 14.862262
-59.856579 55.485828 14.604864
-59.834866 55.477348 14.356161
-59.814816 55.457188 14.104625
-61.374588 55.757404 30.654606
-61.100742 55.726242 27.655209
-61.065071 55.711216 27.245218
-61.028149 55.72036 26.864206
-60.989788 55.754383 26.511467
-60.766293 55.61787 23.867893
-60.384651 55.616604 19.760317
-61.440594 55.747879 30.67597
-61.165577 55.740654 27.695883
-61.129898 55.726112 27.285501
-61.092999 55.735725 26.9041
-61.055851 55.755413 26.537579
-60.829693 55.652424 23.917013
-61.504299 55.736778 30.69869
-61.233047 55.68858 27.675894
-61.195915 55.695877 27.286167
-61.158047 55.720325 26.918285
-61.121014 55.740273 26.551626
-60.895336 55.639019 23.930038
-60.859734 55.685772 23.625378
-60.517666 55.613335 19.791779
-61.295589 55.686569 27.704941
-61.258522 55.69426 27.314953
-61.220741 55.719097 26.946812
-61.183792 55.739422 26.579891
-60.962303 55.594025 23.91893
-60.583672 55.594002 19.798353
-61.360733 55.687393 27.731174
-61.323738 55.695427 27.340925
-61.286045 55.720612 26.972523
-61.250824 55.719074 26.585232
-61.027187 55.605938 23.948685
-60.988541 55.692276 23.674677
-61.426937 55.676571 27.740814
-61.389507 55.692074 27.357262
-61.353996 55.68811 26.961594
-61.317261 55.708782 26.594465
-61.094528 55.589012 23.950697
-61.056717 55.667629 23.670441
-60.715363 55.611496 19.835047
-61.492821 55.708668 27.792568
-61.459309 55.666409 27.35387
-61.421753 55.691895 26.985268
-61.386066 55.698055 26.604479
-61.163074 55.579468 23.959772
-61.124718 55.666096 23.685553
-61.062794 55.671715 23.016151
-61.228165 55.65279 24.040787
-61.195435 55.669632 23.71014
-61.164692 55.666824 23.368408
-61.134037 55.667919 23.034157
-60.855953 55.585629 19.84749
-61.26516 55.61919 23.705486
-61.322166 55.624668 23.757868
-61.287907 55.669952 23.452522
-61.259346 55.648296 23.099417
-61.228954 55.654366 22.771975
-61.351543 55.646023 23.478104
-61.321812 55.640648 23.136936
-61.291515 55.647217 22.809208
-61.263214 55.633904 22.470898
-61.017876 55.592266 19.659737
-61.085846 55.579582 19.673401
-3.9122217 57.595791 34.820114
-4.0311475 57.56031 33.051998
-4.1462617 57.53653 31.358749
-4.3668423 57.554489 34.113365
-4.8333712 57.519581 33.440182
-4.7719054 57.481918 30.680796
-4.9362278 57.481102 31.191282
-4.8993983 57.465157 29.602024
-5.4453974 57.720295 41.576672
-5.9452882 57.74305 42.183636
-8.8399734 57.153183 24.65184
-9.5501804 57.450779 38.781475
-9.5309553 57.466209 38.161053
-10.904661 57.531849 39.321308
-11.135813 57.514729 39.298931
-11.487458 57.499107 38.73753
-11.641426 57.244671 30.500319
-11.601385 57.094139 23.634983
-11.53779 57.08604 21.008986
-11.670975 57.075119 21.858381
-11.658144 57.090603 21.434906
-11.643343 57.04578 20.562346
-13.320743 56.965874 22.444921
-13.17932 56.910961 17.430189
-13.777726 57.303104 34.633461
-13.577958 57.107788 27.112282
-13.48448 57.07938 23.832859
-13.310401 56.952972 17.445
-13.30065 56.933846 17.041248
-13.289491 56.92944 16.645821
-13.281665 56.893066 16.241564
-13.269531 56.899731 15.855321
-13.257839 56.902714 15.470014
-13.247561 56.892567 15.082585
-13.22737 56.870708 14.314207
-13.916686 57.244514 30.723232
-14.530257 57.304039 38.891521
-14.529613 57.25045 34.579227
-14.751409 57.232529 34.5662
-14.744451 57.191189 30.174969
-14.984163 57.226692 34.585148
-15.10003 57.212753 34.56805
-15.087086 57.164204 30.153484
-15.318952 57.204266 34.571606
-15.209127 57.164059 30.687834
-15.627285 57.169796 34.630962
-15.540855 56.796635 15.54027
-15.609967 56.78096 14.022164
-18.227577 56.914249 26.258423
-18.518364 57.062851 29.842758
-18.829887 57.070133 29.875206
-21.666725 56.773163 21.488211
-21.941507 56.808552 25.572975
-22.032356 56.868027 25.604378
-21.913 56.773899 21.492157
-21.996525 56.764923 21.481247
-22.079325 56.746803 21.466051
-22.837893 56.704586 21.534157
-22.899551 56.703911 21.554144
-23.075571 56.761227 25.682764
-22.95896 56.684826 21.566423
-22.847004 56.664818 17.382555
-22.905642 56.638588 17.389158
-22.968098 56.651104 17.40617
-23.094418 56.660217 17.428635
-23.056616 56.60656 16.212135
-23.156393 56.627949 17.4258
-23.300926 56.675667 20.340614
-23.219631 56.634853 17.429205
-23.187347 56.628017 16.229147
-23.394308 56.640297 21.610889
-23.277777 56.596462 17.411623
-23.248894 56.617325 16.222179
-23.346916 56.633495 17.418957
-23.523598 56.631569 21.595236
-23.40576 56.595966 17.398787
-23.372417 56.588528 16.199007
-23.552956 56.626438 20.305441
-23.472256 56.61187 17.405296
-23.436125 56.585941 16.198219
-23.533354 56.598083 17.406456
-23.503658 56.619026 16.215797
-23.582813 56.585613 17.006834
-23.572964 56.592583 16.610016
-23.563955 56.605095 16.217518
-23.541916 56.600105 15.429042
-23.524927 56.554218 15.02436
-27.084295 56.473389 15.585545
-27.163836 56.504036 16.001713
-27.147985 56.483608 15.595055
-27.279474 56.485825 16.013548
-27.190786 56.475941 15.317034
-26.075068 56.471321 13.196822
-25.968748 56.472935 13.191281
-25.863543 56.483734 13.189108
-25.756174 56.48336 13.18888
-25.64748 56.480728 13.196965
-23.711039 56.671768 21.394272
-23.646261 56.588921 17.665237
-23.640116 56.617523 17.225405
-23.623596 56.576317 16.321682
-23.535624 56.59409 18.127537
-23.528444 56.598557 17.677099
-23.476004 56.548935 14.56852
-23.469324 56.558311 14.137941
-23.46174 56.544323 13.703344
-23.417505 56.620224 18.151705
-23.409376 56.596436 17.691381
-23.229055 56.570568 13.735418
-23.177776 56.630226 17.728033
-23.071688 56.624573 18.185862
-22.968605 56.64254 18.654732
-22.954311 56.637924 17.743626
-22.851776 56.63377 18.195311
-22.844553 56.629208 17.740307
-22.781294 56.587963 13.756839
-22.74464 56.657463 18.189318
-22.737341 56.652805 17.733986
-22.701401 56.686733 21.926226
-22.640596 56.661331 18.178282
-22.633186 56.65654 17.722786
-22.666611 56.7701 25.930792
-22.49754 56.700706 21.919931
-22.434881 56.6647 18.165543
-22.427614 56.688206 17.719158
-22.401899 56.712543 22.401863
-22.393965 56.721001 21.922653
-22.331383 56.684784 18.165665
-22.323872 56.689274 17.712658
-22.234169 56.685162 18.619915
-22.226625 56.684509 18.162336
-22.129385 56.69334 18.62184
-22.12192 56.692673 18.164013
-22.114517 56.69709 17.71059
-22.028709 56.710442 18.627304
-22.046707 56.790649 25.934441
-21.982325 56.75338 21.936321
-21.921743 56.70739 18.168278
-21.914394 56.702297 17.71122
-21.952066 56.783192 25.923973
-21.833841 56.717422 18.621563
-21.826426 56.707199 18.159779
-21.74156 56.717979 18.610489
-21.734066 56.707623 18.148546
-21.69335 56.766415 21.440151
-19.671265 56.937401 25.776064
-19.690451 57.07061 34.252453
-19.534689 57.005695 30.164425
-19.438391 57.008022 30.184128
-19.314737 57.069096 34.331028
-19.256029 57.024818 30.222284
-19.20632 57.174061 38.190491
-19.01705 57.028297 30.22945
-19.059065 57.164738 38.201553
-18.898973 57.171047 38.25581
-18.774029 57.053196 30.295025
-18.812384 57.188404 38.304615
-18.603786 57.076626 30.376478
-18.580109 57.170952 38.410889
-18.449116 57.078091 30.43622
-18.441168 57.11776 34.597099
-18.294949 57.081505 30.490732
-18.135498 57.100838 30.574881
-18.191015 57.196419 38.613285
-18.113752 57.168438 34.161991
-18.057526 57.098785 30.597038
-18.038183 57.143974 34.163864
-17.95359 57.200104 34.224014
-15.855102 56.766129 13.023798
-15.856402 56.89724 21.564289
-15.835502 56.895222 20.576239
-15.916362 57.110313 30.173487
-15.439463 57.370232 38.521511
-15.316495 57.38538 39.224384
-15.156718 57.395611 39.316048
-13.733125 57.31826 35.421543
-13.694701 57.277622 32.921333
-13.737195 57.341511 39.374981
-13.656087 57.307705 34.789986
-13.50468 57.105953 27.605091
-13.495611 57.098156 27.049253
-13.483447 57.131638 29.859024
-13.460874 57.129875 28.71887
-13.45915 57.089878 28.13607
-13.444324 57.104794 27.58707
-13.410438 57.107849 25.946079
-13.430797 57.147255 30.442904
-13.420166 57.142357 29.862225
-13.413183 57.122849 29.279066
-13.403604 57.114544 28.707516
-13.393451 57.109047 28.142649
-13.386909 57.089085 27.575418
-13.363419 57.093281 26.477871
-13.308698 57.093647 23.804424
-13.343084 57.133118 29.299936
-13.335583 57.116325 28.723328
-13.316744 57.099766 27.594893
-13.206796 56.977386 20.686094
-13.175656 56.979729 19.191015
-13.158633 56.96743 18.203993
-13.104144 56.971485 19.199154
-13.085032 56.968594 18.214445
-13.178062 57.11005 28.763269
-13.113208 57.109207 25.452892
-13.018332 57.115582 28.842737
-12.996349 57.118702 27.719568
-12.885443 57.007744 20.279453
-12.9543 57.128487 29.463484
-12.945293 57.121887 28.889208
-12.920967 57.134495 27.769394
-12.795629 57.010094 19.313185
-12.873711 57.160343 29.522909
-12.859405 57.133671 28.37043
-12.844609 57.150532 27.817596
-12.795535 57.157402 29.561876
-12.766569 57.148674 27.855156
-12.646502 57.017025 19.374475
-12.721807 57.150002 29.589132
-12.651148 57.144989 29.612656
-12.54606 57.153313 27.929472
-12.434568 57.021862 19.925596
-12.465973 57.181149 30.804998
-12.459774 57.162144 30.208986
-12.446137 57.171104 29.634138
-12.424407 57.225697 32.601929
-12.417112 57.2085 31.988503
-12.403562 57.171661 30.779091
-12.394922 57.160767 30.187685
-12.37128 57.163574 29.034861
-12.346113 57.21244 31.977135
-12.31906 57.180981 30.18491
-12.302746 57.197956 29.614023
-12.295163 57.183464 29.031158
-12.279866 57.19746 28.46862
-12.293602 57.255981 33.839016
-12.219419 57.177303 29.03163
-12.201149 57.239735 33.230423
-12.194281 57.220573 32.608406
-12.168939 57.182884 30.79228
-12.153207 57.19733 30.213936
-12.143965 57.188869 29.628143
-12.126943 57.208672 29.062902
-12.085222 57.196922 26.802269
-12.086859 57.243008 32.028023
-12.086404 57.202637 31.405685
-12.062814 57.203991 30.226721
-12.051328 57.204144 29.645119
-12.028802 57.203957 28.497221
-12.005333 57.230797 32.016834
-11.993213 57.232273 31.418684
-11.980561 57.236015 30.827532
-11.917966 57.21925 27.370518
-9.5143194 57.473831 37.194096
-9.4267845 57.472225 37.248718
-9.383872 57.452122 34.622799
-9.324296 57.429535 35.286716
-9.2997961 57.428791 34.006737
-9.2839489 57.438992 33.382866
-9.2701921 57.482513 37.308666
-9.2547092 57.500748 40.778927
-9.1940584 57.477592 37.318546
-9.1281624 57.444515 33.409763
-9.089345 57.498333 36.698288
-9.0609732 57.468346 34.722679
-9.0571499 57.517624 40.171013
-9.0131922 57.488808 37.40472
-8.9768782 57.480709 35.41972
-8.9700804 57.542469 41.693619
-8.9456921 57.496727 39.533985
-8.9137859 57.510971 38.169006
-8.9076996 57.456852 36.787895
-8.8207636 57.529316 38.948368
-8.808959 57.525909 38.260719
-8.7552738 57.467506 34.267181
-8.7164001 57.482201 37.619335
-8.6541023 57.567451 41.21574
-8.635499 57.54657 39.783691
-8.5930882 57.523598 37.032707
-8.5770216 57.500767 35.695408
-8.5275049 57.540936 38.448784
-8.4557724 57.525764 38.489841
-8.4363365 57.508839 37.123371
-8.4112482 57.541191 36.47876
-8.3348427 57.542736 36.531075
-8.270237 57.545959 37.262352
-8.1588755 57.493156 34.65387
-35.799263 56.470982 27.783709
-36.141514 56.540028 30.329912
-36.004238 56.426758 25.915127
-36.305813 56.464359 27.1434
-36.206207 56.442692 24.705208
-36.701996 56.501534 30.257505
-36.611645 56.457077 27.724821
-36.576324 56.370602 25.849407
-36.547379 56.324272 24.626795
-36.446743 56.404808 23.472097
-36.888226 56.458546 27.679152
-36.840321 56.443375 26.445826
-36.810535 56.348732 24.596045
-37.210651 56.369198 27.592068
-37.083401 56.397335 25.175632
-37.043091 56.420269 24.587523
-40.052505 56.376633 28.81093
-40.041344 56.296097 27.545116
-40.021526 56.284222 26.933495
-39.99197 56.291668 26.335184
-39.960999 56.302185 25.742115
-40.384949 56.304863 28.700823
-40.34536 56.280033 27.465961
-40.304955 56.308731 26.874758
-40.2883 56.291069 26.265833
-40.226017 56.264381 24.476227
-40.587883 56.239529 25.572311
-40.577248 56.210499 24.968742
-40.942089 56.247169 26.686539
-41.375931 56.424553 31.651525
-41.38747 56.344978 30.972622
-41.322552 56.312481 29.082712
-41.311012 56.282001 28.453014
-41.294422 56.262238 27.833775
-41.268589 56.26165 27.228504
-41.253757 56.23914 26.617313
-41.229511 56.236099 26.019573
-45.579285 56.22171 30.794844
-45.52198 56.291492 30.212946
-45.458977 56.181847 27.729763
-45.424919 56.198967 27.143015
-45.422081 56.143002 26.526411
-45.403862 56.123772 25.931759
-45.373634 56.133221 25.354158
-45.367664 56.086151 24.755993
-45.345932 56.076523 24.178265
-45.337624 56.035885 23.591743
-45.871723 56.288952 30.763449
-46.069801 56.192635 27.024809
-46.545033 56.227608 30.60762
-46.417721 56.138241 26.943087
-46.247082 56.110512 22.905083
-46.752937 56.131554 26.869888
-47.237202 56.1758 30.413839
-47.100372 56.102638 26.775639
-49.774052 55.99181 26.401175
-49.72393 56.060173 25.855274
-49.589424 55.940224 21.876141
-49.427494 55.852512 17.555132
-50.268917 56.076153 30.574797
-50.119942 55.967762 26.362471
-50.073421 56.027416 25.813564
-49.94495 55.962139 22.411846
-49.930527 55.933014 21.851198
-50.456879 55.970848 26.331161
-50.419781 56.004372 25.771214
-50.29842 55.920258 22.368023
-50.813652 55.941288 26.280506
-50.643265 55.924221 22.337833
-50.619682 55.921452 21.788883
-51.013252 55.887222 22.28537
-50.992531 55.875111 21.734177
-51.378609 55.88002 22.235435
-51.363453 55.849541 21.678444
1.1680728 57.464794 25.76446
1.1720659 57.457409 25.404366
1.1868317 57.450619 24.707504
1.1925392 57.44561 24.36433
1.2007793 57.443546 24.028645
1.2765102 57.515965 23.771679
1.0989274 57.465561 26.160311
1.1207125 57.466331 25.450895
1.1114097 57.444653 25.079657
1.1147962 57.437157 24.728828
1.1259077 57.438339 24.391747
1.1449856 57.448444 24.068045
1.1560701 57.449867 23.739477
1.15363 57.436531 23.40041
1.164821 57.438343 23.080385
1.1844747 57.449581 22.773064
1.1684785 57.421749 22.432676
1.1831433 57.427746 22.127762
1.184216 57.41893 21.812836
1.1997329 57.426083 21.515648
1.1902584 57.405926 21.197906
1.2182398 57.426952 20.918919
1.2154441 57.414337 20.614359
1.2449422 57.437199 20.342133
1.0247558 57.507839 28.102823
1.0381881 57.498077 27.32485
1.0483303 57.485432 26.566805
1.0433874 57.468296 26.183878
1.0506461 57.46484 25.821959
1.0600597 57.463928 25.46789
1.0612667 57.454109 25.109039
1.0805967 57.464455 24.776505
1.0812594 57.454338 24.426813
1.1058158 57.470715 24.108866
1.0954678 57.448753 23.756111
1.1147752 57.459602 23.440523
1.1315887 57.467819 23.125963
1.1183947 57.44315 22.783737
1.1245426 57.439888 22.466036
1.1393188 57.446224 22.160835
1.1461158 57.443901 21.851145
1.1561315 57.445225 21.548138
1.1638035 57.444084 21.246246
1.1520147 57.421711 20.929573
1.1664269 57.428165 20.640718
1.1786659 57.432335 20.352791
1.1655163 57.408798 20.045471
1.1791559 57.414688 19.764811
0.95968586 57.534012 28.92135
0.96736991 57.517166 28.109203
0.96584541 57.503098 27.705912
0.97078961 57.49641 27.317827
0.98246658 57.497372 26.944613
1.0062259 57.511894 26.592434
1.011667 57.50629 26.222116
1.0036197 57.485935 25.840683
1.0287354 57.502426 25.50532
1.0248939 57.487057 25.139828
1.0285244 57.480106 24.788445
1.0345513 57.475952 24.444714
1.064539 57.498371 24.132586
1.0489143 57.470619 23.773592
1.051998 57.463642 23.440125
1.0633075 57.465855 23.119745
1.0665622 57.459328 22.79483
1.0838259 57.46833 22.488337
1.0875598 57.462566 22.17164
1.083178 57.448006 21.850742
1.0988032 57.45554 21.553192
1.1121526 57.46067 21.256613
1.1118215 57.450893 20.950413
1.1091083 57.43861 20.64555
1.1213475 57.442825 20.357546
1.127681 57.431648 19.774426
0.85719377 57.55537 30.164371
0.85964036 57.544346 29.731136
0.8917647 57.566647 29.348595
0.86804134 57.513878 28.477877
0.88474804 57.519638 28.093328
0.87827516 57.499821 27.68347
0.89320016 57.50399 27.308853
0.930152 57.532791 26.968555
0.92871773 57.51915 26.583593
0.93933237 57.519054 26.219784
0.95204014 57.521446 25.863836
0.95136416 57.509178 25.496689
0.95805866 57.505238 25.143738
0.97765154 57.515717 24.810789
0.96263874 57.488087 24.442394
0.97662455 57.492661 24.112181
0.99872619 57.506325 23.795113
1.012892 57.511353 23.473141
1.0080975 57.495598 23.134888
0.99503648 57.470879 22.792524
1.0123675 57.479778 22.486031
1.0230827 57.471554 21.859503
1.0219269 57.460457 21.545437
1.0353092 57.465454 21.24893
0.75948375 57.539162 29.703865
0.77702528 57.531025 28.878456
0.78274828 57.523895 28.471865
0.80455458 57.534916 28.094152
0.79832774 57.5149 27.684299
0.80847102 57.513329 27.303055
0.83045197 57.52512 26.943119
0.8341676 57.516777 26.564932
0.86023659 57.533451 26.22064
0.85767448 57.518497 25.845585
0.86229914 57.5117 25.484949
0.85341501 57.490101 25.113434
0.87828434 57.506077 24.787003
0.89522016 57.513405 24.455473
0.88807422 57.494221 24.101013
0.88873786 57.483841 23.760256
0.9028725 57.488499 23.438713
0.91796786 57.48365 22.793434
0.93996215 57.466438 21.540907
0.66892809 57.523262 29.250681
0.7023648 57.546551 28.877113
0.69851536 57.528355 28.456873
0.71056408 57.528156 28.065763
0.72416568 57.5299 27.682976
0.73446661 57.528164 27.301733
0.741485 57.522972 26.922094
0.74016386 57.508686 26.537605
0.73551834 57.490906 26.154961
0.75849581 57.504044 25.812433
0.76827037 57.502663 25.458441
0.77508891 57.498169 25.105907
0.7842384 57.496426 24.761047
0.77992618 57.479912 24.405409
0.79401475 57.483963 24.075623
0.81620228 57.497128 23.75898
0.81963056 57.489651 23.425665
0.83671391 57.497429 23.111256
0.82935929 57.47831 22.774933
0.85242921 57.471657 21.837057
0.85708731 57.466339 21.528748
0.5861789 57.528904 29.647209
0.59425342 57.523483 29.230591
0.59379137 57.508751 28.808908
0.60416728 57.506386 28.409725
0.60613203 57.494846 28.005474
0.62434483 57.501678 27.629898
0.63934261 57.505116 27.255745
0.65114254 57.50518 26.883068
0.66483593 57.507545 26.518419
0.66521883 57.495266 26.142347
0.66753113 57.485329 25.77441
0.68748462 57.495201 25.433357
0.69940877 57.4963 25.087261
0.69266737 57.476826 24.724047
0.69877326 57.471798 24.380947
0.72342539 57.487499 24.063419
0.74018222 57.494576 23.740887
0.74894655 57.492931 23.413601
0.74962395 57.482471 23.081812
0.74212271 57.463108 22.745779
0.76501876 57.477512 22.445465
0.75781518 57.458759 22.118013
0.77034175 57.461945 21.814297
0.53280878 57.501862 28.376066
0.54924995 57.506523 27.992287
0.55247122 57.496613 27.596621
0.56721723 57.49979 27.222656
0.56869859 57.488358 26.837044
0.58206612 57.490383 26.472719
0.58723927 57.483459 26.103416
0.61503899 57.501923 25.76757
0.60894972 57.482815 25.394955
0.63106298 57.495266 25.061584
0.61358821 57.463867 24.686195
0.63534713 57.476238 24.361647
0.64916176 57.479927 24.032129
0.65493464 57.474838 23.697893
0.65798831 57.466885 23.365074
0.66924512 57.468166 23.045338
0.68893534 57.478912 22.738298
0.69518864 57.474911 22.420895
0.68225002 57.449818 22.088001
0.70453954 57.453278 21.482077
0.71217376 57.451302 21.18078
0.72119284 57.43074 20.283981
0.46017399 57.519001 29.156784
0.46886784 57.500648 28.336685
0.49480578 57.51598 27.966597
0.47299698 57.478115 27.537552
0.50228554 57.497593 27.18384
0.50344092 57.485832 26.798429
0.52156836 57.49321 26.440788
0.51623243 57.474602 26.058769
0.53853381 57.486988 25.716808
0.54244316 57.479053 25.357126
0.55379266 57.479572 25.011497
0.55701631 57.471218 24.661093
0.57855916 57.483383 24.336596
0.58146662 57.474991 23.995106
0.60309684 57.487534 23.678919
0.59513533 57.467384 23.334351
0.61705649 57.480518 23.026358
0.60912675 57.460701 22.690636
0.62608457 57.46859 22.384912
0.61286831 57.443211 22.052256
0.64170283 57.464474 21.765512
0.64765763 57.450169 21.151047
0.65551823 57.438435 20.552261
0.39548936 57.507519 28.705029
0.41101411 57.497326 27.909369
0.41851598 57.492268 27.520845
0.41764966 57.478062 27.127398
0.4385424 57.48838 26.7686
0.45642376 57.495506 26.411079
0.45083889 57.476635 26.029203
0.483215 57.500278 25.700069
0.47657061 57.480595 25.327818
0.48245075 57.475044 24.976101
0.49067402 57.472271 24.632055
0.50137049 57.472404 24.295521
0.50932157 57.469639 23.960323
0.5253095 57.475945 23.638388
0.53330934 57.473522 23.311728
0.53322703 57.462273 22.980591
0.54693574 57.466457 22.668152
0.55818963 57.468044 22.356833
0.55588043 57.454742 22.035507
0.56779176 57.45731 21.732206
0.57172894 57.451172 21.424557
0.57892931 57.448761 21.123549
0.31614372 57.506882 29.079878
0.33416623 57.485538 27.870766
0.36119428 57.502396 27.50922
0.36518639 57.493664 27.122395
0.37086809 57.48703 26.74387
0.3834576 57.488308 26.37999
0.39809275 57.49205 26.023991
0.39943618 57.481136 25.65667
0.39766389 57.466934 25.291048
0.41896662 57.478619 24.958246
0.4217546 57.469841 24.60812
0.426943 57.463898 24.265644
0.43466094 57.460922 23.930653
0.45580265 57.473011 23.614857
0.45277134 57.458385 23.276602
0.4633396 57.459003 22.957344
0.47137064 57.45694 22.639317
0.48793152 57.464458 22.33386
0.49100089 57.45715 22.018265
0.48598102 57.441017 21.698507
0.50093067 57.447109 21.402021
0.49663067 57.432026 21.090435
0.26499066 57.524353 29.506073
0.26927102 57.487591 28.257057
0.28461874 57.491398 27.873888
0.30162278 57.497253 27.498913
0.32542211 57.510902 27.138605
0.31092015 57.481915 26.733686
0.31824696 57.477531 26.363386
0.32754311 57.475533 26.001099
0.34410197 57.481812 25.653025
0.33179754 57.456074 25.274839
0.36859307 57.485226 24.960804
0.36601129 57.470665 24.604465
0.37106678 57.464767 24.261986
0.38400093 57.467785 23.932997
0.41581851 57.491924 23.628996
0.39108679 57.453381 23.267067
0.40694904 57.460064 22.953672
0.42034674 57.464134 22.641363
0.43129301 57.465611 22.330179
0.42867911 57.452187 22.009003
0.44029 57.454643 21.705837
0.44392991 57.448391 21.398333
0.45198938 57.427177 20.494061
0.20517638 57.525223 29.945305
0.21269326 57.506073 29.097513
0.22044389 57.501328 28.69029
0.22460602 57.492783 28.284847
0.22520003 57.480461 27.881245
0.25199816 57.497669 27.51963
0.24576235 57.478115 27.119495
0.26625603 57.488636 26.760681
0.27866387 57.490295 26.396662
0.28800178 57.488701 26.034103
0.31491742 57.506874 25.698462
0.30273309 57.481621 25.319859
0.29776937 57.4646 24.955702
0.31609219 57.473667 24.624077
0.31580466 57.46217 24.275377
0.31262803 57.44762 23.928293
0.33888134 57.465919 23.6185
0.3681365 57.487663 23.315441
0.35141256 57.458496 22.966768
0.36474329 57.462818 22.654388
0.35904586 57.446167 22.32617
0.37294585 57.451363 22.021873
0.37330288 57.441673 21.707617
0.38806888 57.448048 21.411051
0.37792787 57.426983 21.094021
0.1783291 57.522488 29.151976
0.16691582 57.496693 28.716858
0.18643142 57.493195 27.927788
0.18856516 57.483219 27.532434
0.19225231 57.475178 27.145527
0.20267217 57.474846 26.773476
0.22516139 57.488155 26.422432
0.22427009 57.475544 26.046894
0.24079688 57.482521 25.698553
0.2492495 57.480659 25.345213
0.25476214 57.475677 24.993347
0.26789406 57.479324 24.6553
0.26234448 57.462341 24.300303
0.27521446 57.465984 23.971104
0.28005177 57.460835 23.637203
0.29843602 57.47086 23.322344
0.27616408 57.435902 22.96792
0.29484874 57.44651 22.661411
0.31115505 57.45459 22.355885
0.31397721 57.447845 22.040201
0.3199023 57.444649 21.731377
0.32341981 57.438904 21.423788
0.11509939 57.515766 29.59024
0.12494998 57.477051 27.942686
0.13197203 57.472984 27.554012
0.15561952 57.487671 27.193529
0.1611349 57.482273 26.81459
0.15832904 57.46777 26.430826
0.16756713 57.466873 26.068195
0.1737555 57.462734 25.707073
0.18729888 57.466949 25.36009
0.19274889 57.462296 25.008217
0.20581676 57.466267 24.670174
0.20551634 57.455509 24.321245
0.23439266 57.47731 24.010029
0.25545847 57.490547 23.693684
0.23611613 57.459057 23.337204
0.24105678 57.454655 23.01178
0.25436869 57.459652 22.699186
0.2486635 57.443691 22.370728
0.25143012 57.437241 22.055038
0.27407318 57.452904 21.762762
0.27201217 57.441326 21.449505
0.27880779 57.439651 21.148409
0.27975109 57.422634 20.544516
0.066064849 57.49461 28.77746
0.070264503 57.487431 28.37155
0.087812304 57.483871 27.592045
0.076549068 57.45998 27.184912
0.10198819 57.477253 26.832413
0.10927819 57.474422 26.461565
0.10319416 57.456844 26.079443
0.10928839 57.453007 25.718315
0.12792881 57.463291 25.377626
0.13855577 57.464787 25.031908
0.12526684 57.439823 24.662935
0.15129365 57.458721 24.344652
0.14809506 57.445263 23.997187
0.163544 57.452648 23.675177
0.18726262 57.469326 23.366066
0.17042342 57.441116 23.017189
0.18361367 57.446342 22.704668
0.18883631 57.442844 22.3876
0.19155662 57.436691 22.071835
0.19178958 57.427891 21.757406
0.20641918 57.435127 21.460705
0.21879134 57.43996 21.16498
0.21185139 57.423538 20.854366
0.22280967 57.409977 19.97225
0.014136537 57.458141 27.187336
0.019321872 57.453079 26.808584
0.046640646 57.472878 26.463982
0.035336439 57.449741 26.075426
0.025827123 57.42878 25.695272
0.044206038 57.439045 25.354853
0.054575928 57.440525 25.009403
0.051571406 57.427258 24.653017
0.06150607 57.428524 24.316601
0.079389855 57.438747 23.993561
0.094702117 57.446228 23.671619
0.096628904 57.438961 23.339056
0.095868804 57.428833 23.007956
0.11437707 57.440197 22.701313
0.12499119 57.442905 22.389982
0.13317397 57.443024 22.079805
0.1277633 57.428192 21.759781
0.13105769 57.423111 21.452179
0.14327286 57.427994 21.156599
0.14755751 57.424198 20.856731
0.13238773 57.398994 20.542377
-0.033778477 57.468815 26.423586
-0.040259432 57.451035 26.041737
-0.050016046 57.429771 25.661797
-0.037076935 57.433979 25.315277
-0.032218505 57.429317 24.963873
-0.025006277 57.427418 24.620144
-0.004704969 57.44022 24.296103
0.0023341931 57.438381 23.961088
-0.004094251 57.421692 23.615564
0.0082837651 57.426041 23.295246
0.018122489 57.427677 22.976114
0.025436051 57.42662 22.658207
0.030238874 57.42289 22.341566
0.026993273 57.410339 22.020641
0.037957765 57.413654 21.717758
0.046591025 57.414482 21.415966
0.058559012 57.419102 21.120672
0.0626017 57.415031 20.8211
0.058634598 57.402195 20.517506
0.052325729 57.386868 20.215296
0.078376606 57.40741 19.944946
-0.16597886 57.471897 27.86525
-0.16674413 57.448044 27.077393
-0.15715542 57.447563 26.705919
-0.14057453 57.455074 26.348965
-0.12696962 57.459404 25.993343
-0.13177317 57.443302 25.620049
-0.129375 57.435413 25.261158
-0.11952667 57.436001 24.916315
-0.10724768 57.439434 24.579008
-0.10301175 57.434032 24.236923
-0.090901069 57.437542 23.908335
-0.076054282 57.444225 23.586933
-0.085398935 57.42408 23.243208
-0.086674362 57.413059 22.912834
-0.074169509 57.417496 22.601152
-0.064101383 57.419327 22.2906
-0.050906561 57.42474 21.986795
-0.034469534 57.433853 21.68956
-0.03152924 57.428078 21.382402
-0.047922846 57.400951 21.060436
-0.021415496 57.421528 20.782539
-0.025514489 57.408249 20.479183
-0.26765397 57.469307 27.808296
-0.26157355 57.464127 27.420528
-0.25385001 57.460983 27.041077
-0.2594288 57.443085 26.650166
-0.2582573 57.432949 26.274162
-0.24497192 57.436577 25.919138
-0.21920393 57.454342 25.584539
-0.22206517 57.440178 25.219582
-0.20711239 57.446117 24.88122
-0.21069379 57.431461 24.525694
-0.20134681 57.431416 24.1901
-0.18938896 57.434422 23.861858
-0.19080621 57.422619 23.523003
-0.1571431 57.450108 23.226759
-0.16382116 57.432693 22.890604
-0.15679927 57.430687 22.573271
-0.14677009 57.432148 22.262859
-0.15580045 57.412495 21.936892
-0.13954145 57.42112 21.640083
-0.12554061 57.427326 21.344233
-0.13072604 57.412296 21.033298
-0.1326625 57.40099 20.729116
-0.11410308 57.41256 20.447128
-0.12059702 57.396393 20.145399
-0.12363759 57.384167 19.850159
-0.35763514 57.465698 27.760363
-0.35672382 57.454456 27.366249
-0.33929127 57.462013 27.000406
-0.3500694 57.438007 26.60323
-0.33898211 57.438778 26.240515
-0.33094159 57.436295 25.87928
-0.3156442 57.442123 25.532253
-0.32393178 57.421642 25.161438
-0.33014658 57.40366 24.798727
-0.30261198 57.42366 24.480787
-0.3040598 57.411324 24.133406
-0.2870495 57.4198 23.811646
-0.27796417 57.419529 23.485075
-0.26609111 57.422508 23.165661
-0.2567476 57.422783 22.847446
-0.25539383 57.414257 22.524755
-0.2621195 57.396839 22.197844
-0.24375179 57.407543 21.900398
-0.24438234 57.397167 21.587378
-0.24746889 57.384171 21.275755
-0.21913372 57.406288 20.997681
-0.22121334 57.394627 20.693804
-0.21422273 57.393166 20.401695
-0.2094368 57.389347 20.110685
-0.46819785 57.538456 31.071972
-0.46637538 57.526329 30.621151
-0.45468375 57.525646 30.193754
-0.45150101 57.515568 29.761112
-0.43797702 57.517429 29.35141
-0.44239831 57.499218 28.922623
-0.43618271 57.493267 28.516527
-0.44325674 57.472519 28.098646
-0.41479158 57.492104 27.736723
-0.40914175 57.486122 27.349281
-0.40683046 57.476574 26.963558
-0.39778584 57.4748 26.592676
-0.39188242 57.469666 26.223356
-0.38910216 57.461193 25.85565
-0.37399623 57.466751 25.50861
-0.38765559 57.44014 25.131552
-0.37321618 57.445263 24.793718
-0.36678168 57.441544 24.451025
-0.36844838 57.428886 24.103722
-0.35698521 57.431099 23.776026
-0.33741462 57.44252 23.461432
-0.34733018 57.421051 23.11861
-0.32742375 57.433098 22.812233
-0.33725867 57.411999 22.478275
-0.32225621 57.418793 22.174212
-0.31514171 57.416885 21.86562
-0.30485064 57.418636 21.563736
-0.2968789 57.417908 21.262962
-0.30814299 57.395832 20.9473
-0.29919255 57.396408 20.654343
-0.29816395 57.38826 20.35726
-0.28792119 57.390472 20.071671
-0.40746975 57.474117 24.090395
-0.39276296 57.469212 23.429918
-0.38320574 57.459068 22.780724
-2.7321777 57.265999 21.299807
-2.7205355 57.269951 21.008322
-2.8226557 57.237118 20.977324
-2.8124671 57.221058 20.100069
-2.9208596 57.290817 23.474567
-2.8871903 57.249916 20.982182
-2.8778472 57.251247 20.692085
-2.8706679 57.250187 20.403046
-2.8544352 57.259647 20.125486
-3.0002284 57.298233 23.812365
-2.9959667 57.292542 23.482437
-2.9838066 57.296146 23.165779
-2.9561098 57.258373 20.995472
-2.9466572 57.259785 20.705305
-2.939368 57.258801 20.416195
-2.9398279 57.248981 20.122976
-3.0729253 57.292465 23.843895
-3.0561137 57.291042 23.197178
-3.0674067 57.267685 22.858206
-3.0388169 57.290695 22.567327
-3.044565 57.274033 22.242846
-3.0312948 57.279522 21.94253
-3.0203042 57.282478 21.64327
-3.0170434 57.276608 21.3396
-3.0161028 57.268166 21.037201
-3.0119402 57.263557 20.741467
-3.0044451 57.262901 20.452211
-2.9958959 57.254452 19.876989
-3.1274271 57.290462 23.903379
-3.1101456 57.290394 23.256107
-3.1106138 57.279984 22.928555
-3.1083577 57.272865 22.608299
-3.0925429 57.281574 22.306629
-3.0898027 57.275253 21.994658
-3.0894778 57.266254 21.684019
-3.0860953 57.260902 21.380268
-3.0641816 57.268028 20.798065
-3.0786977 57.242321 20.48735
-3.0565102 57.25909 20.214828
-3.0475099 57.260723 19.932688
-3.1743786 57.278416 23.61846
-3.1669979 57.277554 23.295317
-3.1568737 57.279991 22.979366
-3.1492071 57.279694 22.664625
-3.1546934 57.264286 22.339661
-3.1573563 57.252262 22.02194
-3.1408105 57.262569 21.728069
-3.1319199 57.264118 21.429613
-3.1527252 57.231457 21.105032
-3.1208863 57.259708 20.836084
-3.1298237 57.240967 20.530483
-3.1131794 57.251839 20.252535
-3.1097794 57.247517 19.965096
-3.2155063 57.24807 22.040348
-3.2152569 57.239861 21.729616
-3.2174051 57.228985 21.420254
-3.1999896 57.240814 21.134108
-3.2012389 57.231174 20.832684
-3.1882615 57.23003 20.254801
-3.1849837 57.225887 19.967506
-3.2949915 57.223015 20.817297
-3.2674067 57.230049 19.96311
-3.4261184 57.246807 22.623791
-3.4154561 57.249489 22.316692
-3.4178939 57.237057 21.999405
-3.4138656 57.2229 21.385876
-3.3907528 57.240479 21.105627
-3.3972042 57.223846 20.799206
-3.3893957 57.223862 20.51018
-3.372596 57.23439 20.232693
-3.369004 57.229702 19.945707
-3.540097 57.275211 23.900997
-3.5271857 57.268597 23.248646
-3.5219641 57.264061 22.927465
-3.5243998 57.240364 22.283476
-3.516001 57.239933 21.977892
-3.5045435 57.243183 21.679094
-3.4953456 57.243912 21.38138
-3.4938595 57.235775 21.079338
-3.5001698 57.218689 20.77322
-3.4922419 57.218277 20.484497
-3.4604366 57.236275 19.930939
-3.606895 57.239071 22.267832
-3.603869 57.232182 21.95673
-3.6032486 57.222614 21.646963
-3.587322 57.220974 21.053387
-3.5717258 57.229214 20.769068
-3.5692704 57.222248 20.475046
-3.5690207 57.21283 20.182253
-3.5541995 57.220467 19.906179
-3.6581583 57.237305 21.657143
-3.6653714 57.218864 21.343086
-3.658648 57.216808 21.04693
-3.6486628 57.218666 20.757307
-3.6518764 57.20525 20.458132
-3.6295817 57.221649 20.186462
-3.6259856 57.21637 19.900009
-3.7318375 57.22332 21.66651
-3.7214386 57.215919 21.067331
-3.7223818 57.205219 20.76688
-3.7145646 57.204845 20.478378
-3.7088859 57.202084 20.190956
-3.7053339 57.196941 19.904648
-3.802525 57.211365 21.089979
-3.8032455 57.200832 20.789522
-3.7688432 57.21254 19.942791
-3.8997242 57.213467 21.69779
-3.8957238 57.208073 21.394917
-3.8940291 57.2001 21.093302
-3.8782043 57.208767 20.80916
-3.8754776 57.202225 20.515278
-3.8694141 57.199688 20.227861
-3.8543379 57.207775 19.951893
-3.9741242 57.233032 22.633419
-3.9650705 57.223152 22.009903
-3.9428091 57.209705 20.811483
-3.9246833 57.202435 19.949039
-4.0147066 57.213383 21.706747
-4.0163774 57.201984 21.398252
-4.0095358 57.200665 21.102095
-3.9939728 57.209652 20.817871
-4.0025101 57.190552 20.513269
-3.996763 57.188259 20.225918
-4.1185355 57.184608 20.243938
-4.2049375 57.184689 20.513771
-4.2975721 57.192577 21.070976
-4.2912378 57.182335 20.482729
-4.2858348 57.179985 20.195669
-4.2825456 57.175247 19.909719
-4.6512041 57.510349 31.70867
-4.6375022 57.496922 30.807333
-4.6150064 57.481129 29.520279
-4.6073503 57.476547 29.106764
-4.6032519 57.467941 28.695065
-6.6802087 57.246532 22.183918
-6.6728983 57.245567 21.879395
-8.5535393 57.143368 22.597925
-8.5457239 57.13345 21.976101
-8.5366945 57.125481 21.370691
-9.1489162 57.291386 27.607328
-9.4118481 57.274578 27.57608
-9.486413 57.388874 31.39459
-9.8320227 57.366814 31.095619
-9.8742237 57.360786 30.674345
-9.9134722 57.356007 30.692963
-9.8655443 57.193401 23.460445
-9.9437008 57.362686 30.752747
-10.00728 57.352879 31.228752
-9.9952288 57.354427 30.793585
-10.057221 57.187202 23.524187
-10.172593 57.33831 30.707542
-10.256638 57.341179 31.079262
-10.25424 57.330357 30.630367
-10.344721 57.335102 31.470644
-10.321364 57.349541 31.049196
-10.310311 57.349018 30.614855
