# .PCD v0.7 - Point Cloud Data file format
VERSION 0.7
FIELDS x y z
SIZE 4 4 4
TYPE F F F
COUNT 1 1 1
WIDTH 1559
HEIGHT 1
VIEWPOINT 0 0 0 1 0 0 0
POINTS 1559
DATA ascii
-15.282793 56.752335 26.622438
-15.262398 56.765442 26.276295
-15.25964 56.758003 25.911928
-15.249935 56.758869 25.562025
-15.2481 56.75066 25.207211
-15.228942 56.76289 24.879099
-15.232757 56.74836 24.527288
-15.224051 56.748623 24.195593
-15.217984 56.745934 23.86524
-15.204133 56.752468 23.548267
-15.203225 56.744003 23.220591
-15.204909 56.732639 22.894386
-15.198552 56.730785 22.581266
-15.189276 56.732445 22.275133
-15.176963 56.737747 21.975809
-15.177732 56.727917 21.666407
-15.180881 56.715424 21.358393
-15.169968 56.719402 21.068077
-15.166718 56.714561 20.773436
-15.183547 56.678059 20.172197
-15.461501 56.759834 32.39447
-15.452083 56.75753 31.933903
-15.438053 56.760933 31.490026
-15.427964 56.759914 31.047962
-15.408419 56.770298 30.629496
-15.410522 56.755348 30.183905
-15.398415 56.757389 29.768921
-15.385326 56.760796 29.362711
-15.371114 56.76572 28.965147
-15.360303 56.766834 28.569178
-15.357585 56.758614 28.167988
-15.367809 56.735374 27.755028
-15.343308 56.753128 27.398136
-15.350707 56.733585 27.002375
-15.332284 56.744526 26.648281
-15.316758 56.752213 26.295469
-15.304113 56.756668 25.943987
-15.289352 56.763748 25.600294
-15.312512 56.726574 25.213486
-15.29343 56.739002 24.88545
-15.287133 56.736603 24.546114
-15.293826 56.719151 24.19593
-15.267198 56.740768 23.889996
-15.258516 56.741535 23.566887
-15.262851 56.727234 23.233202
-15.264573 56.716106 22.90699
-15.268871 56.702099 22.582291
-15.265042 56.697681 22.270582
-15.258245 56.696831 21.965832
-15.248362 56.699673 21.667858
-15.246169 56.693665 21.365482
-15.224372 56.710556 21.086098
-15.237651 56.686752 20.775314
-15.242249 56.673149 20.47674
-15.226819 56.682899 20.200382
-15.525755 56.771816 32.398525
-15.516217 56.769382 31.937901
-15.506444 56.767487 31.48661
-15.500698 56.761078 31.037252
-15.467753 56.787056 30.640554
-15.4742 56.766708 30.187672
-15.461982 56.768639 29.772629
-15.462539 56.755714 29.345196
-15.466846 56.73859 28.91979
-15.446884 56.750271 28.538055
-15.439556 56.747261 28.14399
-15.4166 56.762821 27.778845
-15.41582 56.752472 27.388002
-15.408711 56.749744 27.012331
-15.404753 56.743492 26.638283
-15.394114 56.745247 26.278994
-15.386433 56.743687 25.921167
-15.37173 56.750507 25.577673
-15.379881 56.730701 25.210106
-15.37086 56.731159 24.869518
-15.364582 56.728546 24.530319
-15.350768 56.734886 24.204832
-15.360187 56.714188 23.856272
-15.356835 56.708557 23.527514
-15.345613 56.712246 23.212042
-15.342113 56.707031 22.891905
-15.335813 56.705204 22.578926
-15.321249 56.713123 22.278654
-15.31971 56.705967 21.968115
-15.315155 56.702431 21.664497
-15.318356 56.689968 21.356625
-15.312971 56.687607 21.061031
-15.287778 56.708378 20.788021
-15.286694 56.701195 20.494509
-15.293375 56.685089 20.197033
-15.596691 56.800785 32.407936
-15.604083 56.777515 31.917551
-15.585386 56.785492 31.481094
-15.574956 56.78392 31.03904
-15.55954 56.788506 30.61334
-15.552351 56.783588 30.182177
-15.544418 56.779789 29.760025
-15.521855 56.793507 29.367924
-15.534983 56.765278 28.928303
-15.528694 56.760212 28.525663
-15.507055 56.773453 28.15226
-15.493282 56.777603 27.773386
-15.492265 56.766914 27.382553
-15.48975 56.758183 27.000217
-15.46615 56.774441 26.652666
-15.460076 56.770245 26.286644
-15.476803 56.739441 25.89632
-15.462005 56.745842 25.55303
-15.454996 56.743248 25.204697
-15.440713 56.749336 24.870388
-15.444371 56.734539 24.518719
-15.418983 56.74369 23.869091
-15.420522 56.731808 23.534132
-15.4038 56.741417 23.224451
-15.405271 56.729881 22.898252
-15.398708 56.727856 22.585138
-15.39284 56.715691 21.962765
-15.393506 56.705589 21.653584
-15.380233 56.711842 21.362284
-15.380074 56.702919 21.061125
-15.376697 56.697849 20.766634
-15.679095 56.808208 32.413235
-15.668825 56.805264 31.952509
-15.671419 56.787323 31.479052
-15.625439 56.827351 31.095434
-15.618282 56.821518 30.654854
-15.641974 56.779377 30.173164
-15.620193 56.791409 29.772488
-15.611002 56.788754 29.359177
-15.600784 56.787544 28.954639
-15.59871 56.776928 28.544889
-15.576694 56.790089 28.171371
-15.56728 56.788567 27.785578
-15.565913 56.777748 27.394686
-15.572695 56.757534 26.998947
-15.548859 56.77359 26.651472
-15.544186 56.755592 25.914692
-15.534013 56.756077 25.564869
-15.526691 56.753368 25.216475
-15.517157 56.753422 24.875834
-15.490716 56.741386 23.545599
-15.458982 56.69894 21.061213
-15.764393 56.777142 32.417564
-15.766949 56.758995 31.9347
-15.747753 56.767002 31.498327
-15.71921 56.786366 31.08555
-15.725361 56.764801 30.623482
-15.690797 56.791782 30.235535
-15.70935 56.75605 29.770428
-15.704671 56.748104 29.350246
-15.671371 56.774242 28.980944
-15.673726 56.758423 28.564192
-15.665628 56.755184 28.170078
-15.665633 56.742588 27.770864
-15.659514 56.737427 27.387032
-15.651831 56.73431 27.01157
-15.632733 56.744823 26.657568
-15.631217 56.734806 26.285202
-15.613087 56.744518 25.940487
-15.597748 56.751102 25.597017
-15.600211 56.736923 25.235796
-15.575384 56.754963 24.913996
-15.583579 56.734383 24.555904
-15.564005 56.746532 24.236511
-15.562395 56.737762 23.89996
-15.568677 56.719894 23.558924
-15.556799 56.723438 23.243332
-15.547375 56.724236 22.928926
-15.545688 56.716106 22.609957
-15.546495 56.705196 22.292397
-15.560513 56.678982 21.964987
-15.533933 56.700306 21.683983
-15.520267 56.706646 21.392628
-15.514236 56.704185 21.096827
-15.508836 56.691818 20.508762
-15.801332 56.767967 32.486004
-15.7907 56.76609 32.025047
-15.797287 56.744072 31.543951
-15.76423 56.769321 31.138327
-15.752449 56.769588 30.704987
-15.76244 56.744343 30.244711
-15.735798 56.762672 29.85095
-15.735374 56.750229 29.423201
-15.720254 56.755371 29.025482
-15.71785 56.745712 28.615463
-15.714301 56.737621 28.214216
-15.70473 56.736832 27.828424
-15.688876 56.743629 27.457764
-15.690561 56.729961 27.068476
-15.676137 56.735432 26.707541
-15.654903 56.749069 26.361118
-15.661143 56.730591 25.983444
-15.650676 56.731903 25.63336
-15.648069 56.724148 25.278339
-15.638283 56.724968 24.937498
-15.615992 56.740585 24.616695
-15.616692 56.729401 24.272305
-15.625337 56.709068 23.923441
-15.610862 56.715935 23.60643
-15.598855 56.720036 23.290562
-15.605093 56.702938 22.958261
-15.603384 56.695259 22.63921
-15.593506 56.697239 22.333025
-15.591337 56.690334 22.022341
-15.580766 56.693344 21.724173
-15.572445 56.693836 21.427094
-15.571827 56.685455 21.125704
-15.557004 56.693722 20.841724
-15.560855 56.680344 20.542768
-15.561406 56.670914 20.250416
-15.842377 56.752483 32.536335
-15.835939 56.746223 32.067711
-15.820653 56.750706 31.62328
-15.804911 56.755974 31.187954
-15.793009 56.756931 30.754374
-15.780441 56.758911 30.329796
-15.771589 56.756725 29.906977
-15.775578 56.739613 29.471834
-15.751111 56.756271 29.087891
-15.757819 56.736393 28.663593
-15.754154 56.728943 28.262083
-15.739731 56.734344 27.882856
-15.728498 56.736176 27.505127
-15.73007 56.723133 27.115564
-15.710675 56.734894 26.761
-15.699079 56.737656 26.401142
-15.69538 56.731312 26.036238
-15.689734 56.727413 25.679394
-15.697039 56.708492 25.311375
-15.687219 56.709793 24.970398
-15.680144 56.708012 24.630798
-15.66556 56.715157 24.304935
-15.653544 56.719418 23.980263
-15.654472 56.708683 23.644787
-15.642397 56.713264 23.328712
-15.653833 56.690521 22.990303
-15.636198 56.701828 22.688524
-15.631517 56.698132 22.376247
-15.634618 56.685478 22.059605
-15.623982 56.688942 21.761223
-15.637333 56.664585 21.441847
-15.620385 56.675598 21.15686
-15.605533 56.684261 20.872742
-15.592765 56.690586 20.589525
-15.604318 56.668739 20.286339
-15.595811 56.670292 20.00532
-15.89796 56.750484 32.571106
-15.882672 56.754807 32.117176
-15.867084 56.759735 31.672455
-15.864247 56.749825 31.21489
-15.856623 56.745827 30.773935
-15.866368 56.721558 30.313318
-15.848546 56.730072 29.905012
-15.834251 56.734631 29.498283
-15.818853 56.740688 29.100203
-15.834789 56.710045 28.661993
-15.80296 56.73584 28.301931
-15.778832 56.752735 27.936102
-15.781613 56.738163 27.53771
-15.782992 56.725433 27.147949
-15.777977 56.72039 26.77331
-15.746737 56.746284 26.439713
-15.767477 56.711361 26.042049
-15.756831 56.713409 25.691702
-15.744032 56.718124 25.349133
-15.723905 56.731556 25.020483
-15.72671 56.718285 24.668016
-15.737515 56.695808 24.311081
-15.710007 56.718254 24.004757
-15.710799 56.707756 23.669136
-15.70382 56.706455 23.346975
-15.709894 56.690048 23.014364
-15.702727 56.689217 22.700829
-15.692657 56.691879 22.394291
-15.684931 56.691914 22.088907
-15.684937 56.683048 21.779119
-15.687328 56.671516 21.470705
-15.68116 56.670055 21.174606
-15.671719 56.672493 20.885044
-15.658896 56.678947 20.601831
-15.65371 56.67662 20.314322
-15.645056 56.678406 20.033081
-15.935248 56.766056 32.623459
-15.924011 56.765728 32.161743
-15.921279 56.755596 31.694597
-15.900747 56.766762 31.266184
-15.897308 56.757961 30.81761
-15.879915 56.765869 30.399874
-15.879745 56.753677 29.962353
-15.869727 56.753323 29.548117
-15.863305 56.748936 29.135639
-15.846495 56.756981 28.745832
-15.832994 56.761311 28.357529
-15.827522 56.756386 27.963959
-15.830182 56.742096 27.565371
-15.807363 56.757904 27.208897
-15.816595 56.736259 26.813837
-15.809627 56.733795 26.447088
-15.805703 56.727924 26.081915
-15.804805 56.718666 25.718367
-15.796899 56.71777 25.36923
-15.781739 56.725502 25.034151
-15.784506 56.712402 24.681612
-15.764553 56.725998 24.361578
-15.767725 56.7127 24.018215
-15.752902 56.720547 23.700594
-15.751006 56.713425 23.372198
-15.751711 56.703396 23.045254
-15.739104 56.709003 22.737249
-15.73419 56.70575 22.424614
-15.737059 56.693546 22.107601
-15.731596 56.691158 21.803265
-15.733887 56.679848 21.494627
-15.712578 56.687641 20.913908
-15.716556 56.666424 20.321665
-15.702307 56.674805 20.045584
-15.945296 56.791637 32.69537
-15.94681 56.776699 32.210815
-15.944009 56.76712 31.743311
-15.93661 56.763214 31.292582
-15.906541 56.786278 30.887383
-15.91588 56.763096 30.425901
-15.888568 56.783314 30.031025
-15.878345 56.7836 29.616234
-15.899416 56.747284 29.161097
-15.891958 56.744736 28.757195
-15.859786 56.771404 28.396387
-15.887445 56.727985 27.954706
-15.847342 56.764286 27.617104
-15.843666 56.758003 27.233383
-15.852944 56.736706 26.838121
-15.826424 56.757515 26.497442
-15.827316 56.746368 26.125299
-15.811419 56.75502 25.780653
-15.818352 56.737114 25.411804
-15.818254 56.727577 25.057417
-15.810884 56.726677 24.717133
-15.801126 56.728695 24.384424
-15.799173 56.721725 24.046944
-15.789534 56.72385 23.723019
-15.798935 56.695026 23.055477
-15.797023 56.688503 22.735767
-15.781604 56.697807 22.434687
-15.779202 56.692066 22.12327
-15.779202 56.683636 21.813185
-15.759005 56.690548 21.22444
-15.753122 56.681198 20.634708
-15.759055 56.666367 20.336432
-15.995921 56.772125 32.699028
-16.019258 56.731968 32.177273
-16.003788 56.737854 31.732197
-15.970224 56.765274 31.325504
-15.96242 56.76255 30.883759
-15.980994 56.729008 30.407928
-15.95852 56.74398 30.006092
-15.948647 56.74432 29.591541
-15.933133 56.751476 29.192776
-15.944332 56.727459 28.760803
-15.921721 56.743301 28.386211
-15.930692 56.722282 27.971956
-15.924129 56.719646 27.586882
-15.91118 56.724655 27.216877
-15.90617 56.72052 26.841705
-15.904299 56.712872 26.468182
-15.90555 56.701725 26.096363
-15.880044 56.721992 25.764919
-15.882239 56.710026 25.402634
-15.872271 56.712402 25.06098
-15.875229 56.699821 24.708223
-15.850315 56.719879 24.394146
-15.853638 56.707127 24.050495
-15.859735 56.691273 23.708485
-15.847656 56.696705 23.391993
-15.848572 56.687122 23.064898
-15.841463 56.686985 22.750931
-15.84746 56.671715 22.426725
-15.839892 56.672318 22.12112
-15.818444 56.68914 21.833506
-15.837182 56.659386 21.507982
-15.825665 56.664856 21.217041
-15.810806 56.674286 20.932487
-15.809103 56.668537 20.638214
-15.809602 56.660328 20.345165
-15.801095 56.662636 20.063694
-16.066364 56.744423 32.666058
-16.072737 56.724518 32.174286
-16.061764 56.7253 31.721827
-16.023949 56.7579 31.322506
-16.047451 56.718548 30.829937
-16.03499 56.721729 30.40493
-16.035326 56.710079 29.967392
-16.002882 56.737122 29.588535
-16.024458 56.700932 29.133638
-16.008137 56.709408 28.743885
-15.999826 56.70866 28.348743
-15.994889 56.704132 27.955288
-15.974167 56.71825 27.59063
-15.999876 56.678181 27.166967
-15.975798 56.696537 26.818783
-15.974154 56.688793 26.445456
-15.970689 56.683331 26.080336
-15.965269 56.680294 25.723278
-15.947731 56.691536 25.386868
-15.942989 56.687969 25.039043
-15.920707 56.704983 24.717655
-15.911192 56.707222 24.384943
-15.930144 56.676422 24.023073
-15.915686 56.684662 23.705446
-15.903697 56.690125 23.38895
-15.909979 56.674446 23.055969
-15.902996 56.674301 22.742069
-15.893103 56.677639 22.435169
-15.896303 56.665867 22.118073
-15.896564 56.657608 21.808054
-15.89377 56.652996 21.504934
-15.882337 56.658497 21.213987
-15.873064 56.661572 20.924051
-15.871478 56.655819 20.62985
-15.872093 56.647602 20.336874
-15.863698 56.649906 20.055475
-16.129122 56.738579 32.615978
-16.105577 56.75383 32.176487
-16.09466 56.754417 31.723845
-16.08778 56.750481 31.273106
-16.089375 56.736797 30.817089
-16.077047 56.739712 30.392015
-16.077522 56.727779 29.954426
-16.063526 56.733051 29.547186
-16.062292 56.723534 29.12756
-16.055382 56.720863 28.723776
-16.051943 56.714302 28.321747
-16.042461 56.715 27.935177
-16.026676 56.72324 27.563742
-16.028469 56.711063 27.173647
-16.018976 56.71225 26.805296
-15.99292 56.732944 26.464718
-15.999265 56.715912 26.086212
-16.003807 56.701141 25.71603
-15.99637 56.700497 25.366747
-15.986717 56.702568 25.025219
-15.969623 56.713444 24.697515
-15.980772 56.691517 24.340164
-15.974186 56.690388 24.009047
-15.965026 56.692368 23.68532
-15.953168 56.697598 23.368814
-15.959591 56.681671 23.035847
-15.958048 56.675125 22.716137
-15.948316 56.678196 22.409302
-15.951684 56.666153 22.092287
-15.941289 56.670189 21.793533
-15.938589 56.665386 21.490343
-15.938194 56.658005 21.188421
-15.929074 56.660828 20.898552
-15.922105 56.661243 20.609728
-15.922843 56.652809 20.316759
-15.908962 56.661388 20.040508
-16.139683 56.801559 32.648556
-16.142014 56.786079 32.164021
-16.148752 56.765671 31.681791
-16.128937 56.776779 31.253092
-16.121803 56.773174 30.811523
-16.123085 56.759892 30.3647
-16.105604 56.768883 29.955626
-16.114595 56.746967 29.512808
-16.108995 56.742401 29.100256
-16.092953 56.750271 28.71035
-16.094357 56.737858 28.301323
-16.080284 56.743763 27.921497
-16.074196 56.740482 27.536421
-16.066532 56.739208 27.159708
-16.066895 56.728703 26.777985
-16.055744 56.731823 26.417711
-16.047558 56.731617 26.058887
-16.04731 56.722286 25.695143
-16.045044 56.715454 25.339436
-16.04063 56.711269 24.991615
-16.03904 56.703926 24.645306
-16.03512 56.699425 24.306707
-16.0184 56.709961 23.987816
-16.01458 56.705582 23.658001
-16.009487 56.69421 23.008539
-16.0028 56.693504 22.694633
-16.003887 56.683872 22.376263
-16.002077 56.677711 22.064991
-15.991837 56.681438 21.766228
-15.994743 56.669998 21.457531
-15.979742 56.656067 20.284246
-16.190479 56.805935 32.623363
-16.19309 56.790146 32.138897
-16.186968 56.784904 31.678823
-16.162848 56.801083 31.257292
-16.164734 56.786865 30.801058
-16.157173 56.783989 30.368546
-16.157967 56.771507 29.930792
-16.148848 56.770874 29.516289
-16.143322 56.76622 29.10355
-16.141371 56.757561 28.69264
-16.138258 56.750454 28.290493
-16.124329 56.756195 27.910595
-16.127981 56.741516 27.511965
-16.115702 56.745655 27.141993
-16.126001 56.723541 26.747047
-16.110188 56.732121 26.393446
-16.102215 56.731678 26.034685
-16.097189 56.727932 25.677427
-16.090067 56.726776 25.328072
-16.111116 56.692902 24.948782
-16.099636 56.697105 24.615173
-16.085672 56.704315 24.288998
-16.079456 56.702621 23.957945
-16.081079 56.691921 23.622267
-16.074892 56.690426 23.300016
-16.07123 56.686108 22.979094
-16.064762 56.685158 22.665327
-16.066074 56.675278 22.347105
-16.059097 56.675125 22.04163
-16.054451 56.672363 21.737352
-16.052124 56.667011 21.434313
-16.046616 56.66544 21.137981
-16.048849 56.654984 20.837454
-16.047812 56.648411 20.54356
-16.037815 56.652302 20.261324
-16.215446 56.816505 32.661003
-16.218058 56.801144 32.176239
-16.216309 56.791157 31.708508
-16.201059 56.797276 31.272131
-16.203068 56.783325 30.815773
-16.191103 56.786003 30.390316
-16.191969 56.773823 29.952377
-16.178312 56.778873 29.544743
-16.186722 56.758251 29.110762
-16.175558 56.760754 28.713654
-16.167786 56.759457 28.318184
-16.163385 56.754379 27.924412
-16.167137 56.739941 27.52565
-16.145832 56.745216 26.786919
-16.144695 56.736961 26.413277
-16.146681 56.725216 26.041349
-16.141781 56.721649 25.684021
-16.129745 56.726528 25.340942
-16.130743 56.698719 24.295307
-16.114283 56.709232 23.97633
-16.106182 56.693436 22.996838
-16.110392 56.680367 22.671268
-16.106461 56.676853 22.358694
-16.099554 56.676891 22.053072
-16.09498 56.674316 21.748648
-16.087269 56.675468 21.450966
-16.087286 56.667755 21.148979
-16.084074 56.663876 20.853661
-16.088625 56.651093 20.554256
-16.078693 56.655155 20.27187
-16.235718 56.822151 32.724339
-16.233877 56.812679 32.246578
-16.236361 56.798367 31.771002
-16.229851 56.794827 31.319601
-16.21841 56.797272 30.884666
-16.215313 56.790138 30.444355
-16.220663 56.773308 29.998915
-16.194775 56.773022 28.773117
-16.188206 56.74231 27.193151
-16.17795 56.736004 26.45035
-16.165031 56.733337 25.733385
-16.168016 56.72121 25.37085
-16.13825 56.690819 22.711058
-16.138107 56.675804 22.08083
-16.133558 56.673622 21.776186
-16.117397 56.656361 20.298283
-16.267096 56.828266 32.767132
-16.269524 56.814198 32.281651
-16.276363 56.795185 31.798468
-16.256554 56.80761 31.368803
-16.251551 56.78231 30.039892
-16.219046 56.74485 26.849442
-16.198708 56.710018 24.360613
-16.183403 56.689426 22.72794
-18.663889 56.579628 31.366549
-18.765383 56.581921 32.268116
-18.772251 56.547009 31.320967
-18.759821 56.548531 30.887159
-18.746729 56.55106 30.462355
-18.732824 56.554756 30.046438
-18.740921 56.532959 29.603891
-18.729799 56.53384 29.198683
-18.708162 56.547188 28.816034
-18.713352 56.52943 28.400295
-18.665091 56.574169 28.068575
-18.66745 56.560085 27.669792
-18.653894 56.564716 27.29974
-18.643436 56.565907 26.931152
-18.641655 56.546547 26.185572
-18.847708 56.571304 32.259315
-18.861961 56.540672 31.762587
-18.832197 56.561962 31.349022
-18.832809 56.547874 30.89325
-18.824011 56.545059 30.461246
-18.796303 56.564606 30.066826
-18.794922 56.553562 29.638319
-18.783434 56.554558 29.232868
-18.78013 56.546204 28.822149
-18.770977 56.544884 28.427094
-18.765215 56.539803 28.033722
-18.753237 56.542156 27.655624
-18.744453 56.540966 27.279068
-18.714474 56.564621 26.937296
-18.736399 56.528049 26.530798
-18.702421 56.55666 26.204731
-18.697521 56.541039 25.48502
-18.702074 56.525341 25.12447
-18.663675 56.559612 24.821825
-18.655926 56.54847 24.145151
-18.645712 56.550442 23.821102
-18.643307 56.543503 23.492359
-18.887983 56.582867 32.306526
-18.884449 56.573166 31.839033
-18.867483 56.579483 31.402969
-18.823156 56.618073 31.019497
-18.854145 56.568707 30.521677
-18.844263 56.567436 30.098261
-18.828928 56.572762 29.690819
-18.817127 56.574162 29.284998
-18.82753 56.549854 28.853024
-18.81348 56.554298 28.464678
-18.807499 56.549522 28.071051
-18.780918 56.568932 27.713009
-18.791138 56.545658 27.309183
-18.738327 56.552792 25.520527
-18.712273 56.572639 25.197548
-18.719391 56.554157 24.838081
-18.708921 56.55621 24.505119
-18.711472 56.543316 24.161268
-18.701172 56.545437 23.837152
-18.693434 56.544716 23.514301
-18.922651 56.589466 32.378628
-18.905622 56.59589 31.932888
-18.910244 56.577209 31.459587
-18.896868 56.579853 31.024956
-18.905355 56.557163 30.563265
-18.886194 56.567028 30.153969
-18.898117 56.54081 29.70369
-18.86315 56.569538 29.333073
-18.845299 56.578472 28.942617
-18.849632 56.561745 28.526039
-18.843348 56.557587 28.132029
-18.821268 56.571995 27.76685
-18.80706 56.577408 27.396233
-18.79108 56.585041 27.033716
-18.777187 56.559078 25.57239
-18.771164 56.555935 25.223839
-18.767986 56.549637 24.87678
-18.757357 56.552105 24.543615
-18.759748 56.539639 24.199545
-18.74408 56.548191 23.881264
-18.751902 56.529716 23.540226
-18.961788 56.597527 32.46563
-18.944208 56.604801 32.019436
-18.957098 56.576675 31.530964
-18.943268 56.580055 31.095984
-18.928791 56.584412 30.67
-18.922607 56.579308 30.238581
-18.901894 56.591366 29.83746
-18.912403 56.567226 29.395609
-18.908175 56.560478 28.98394
-18.898109 56.56073 28.587948
-18.896196 56.551678 28.186773
-18.868999 56.572216 27.828146
-18.868917 56.561394 27.437063
-18.847824 56.57515 27.081087
-18.839483 56.574253 26.713171
-18.84906 56.552731 26.32724
-18.84197 56.550705 25.969137
-18.827785 56.557049 25.625336
-18.821453 56.554432 25.276514
-18.81797 56.54866 24.92918
-18.807043 56.55164 24.595751
-18.798782 56.551659 24.263624
-18.803598 56.536694 23.920753
-18.795454 56.536831 23.597486
-18.800426 56.521946 23.263702
-19.017775 56.613117 32.532375
-19.04319 56.569721 32.011814
-19.038198 56.562233 31.552935
-19.006184 56.586609 31.147108
-19.018133 56.559795 30.677549
-18.993511 56.575962 30.274914
-18.995264 56.561539 29.838177
-18.977787 56.569775 29.438742
-18.973078 56.563324 29.026888
-18.967249 56.558376 28.6238
-18.964909 56.549568 28.222496
-18.961245 56.542492 27.829826
-18.95612 56.537304 27.445658
-18.939663 56.545456 27.083174
-18.940931 56.533184 26.702272
-18.910816 56.557503 26.368889
-18.918249 56.538403 25.991201
-18.908789 56.539055 25.64102
-18.902193 56.536533 25.292271
-18.883158 56.548557 24.963789
-18.887266 56.53392 24.611654
-18.878757 56.534027 24.279606
-18.8729 56.531193 23.948902
-18.859198 56.537552 23.631559
-18.860476 56.517498 22.976995
-18.848965 56.521675 22.669289
-19.120083 56.600636 32.509544
-19.123419 56.582397 32.026241
-19.113571 56.579914 31.574656
-19.098885 56.583363 31.139584
-19.079079 56.59304 30.720732
-19.072006 56.588051 30.289143
-19.06875 56.578827 29.859455
-19.07391 56.560009 29.424692
-19.050325 56.574993 29.040956
-19.058191 56.553463 28.617058
-19.041351 56.56097 28.236454
-19.022955 56.570473 27.864101
-19.007685 56.576511 27.493137
-19.000381 56.573444 27.116951
-19.00605 56.555473 26.729195
-18.995272 56.556808 26.369505
-18.987473 56.554844 26.011282
-18.992668 56.537956 25.641779
-18.96558 56.558693 25.31843
-18.966503 56.547077 24.964703
-18.951231 56.544128 24.292919
-18.945042 56.541187 23.962154
-18.947563 56.50877 22.972515
-18.930502 56.518902 22.670734
-19.206745 56.595669 32.486137
-19.188189 56.602623 32.040039
-19.182419 56.594826 31.580997
-19.163019 56.603294 31.153156
-19.165339 56.58654 30.698059
-19.144585 56.597092 30.288155
-19.150251 56.576931 29.844265
-19.127592 56.590168 29.451891
-19.126913 56.577911 29.033007
-19.11582 56.578053 28.63685
-19.112871 56.568893 28.235497
-19.089502 56.583767 27.869938
-19.088449 56.572796 27.478735
-19.081032 56.569439 27.102684
-19.076786 56.562576 26.728258
-19.060884 56.569458 26.375105
-19.062811 56.555771 26.003891
-19.052813 56.556118 25.653654
-19.050735 56.547424 25.298521
-19.004467 56.51762 22.664083
-19.259434 56.600014 32.492245
-19.245192 56.601837 32.038681
-19.248226 56.583649 31.564953
-19.220032 56.602394 31.1518
-19.213385 56.596104 30.711157
-19.215195 56.580166 30.265305
-19.211849 56.570518 29.835808
-19.198465 56.572865 29.429409
-19.19326 56.565865 29.017693
-19.182255 56.565865 28.621662
-19.179392 56.556568 28.220434
-19.151329 56.576878 27.861794
-19.155142 56.5602 27.463928
-19.147808 56.556709 27.088007
-19.133852 56.561119 26.726906
-19.127827 56.556469 26.360689
-19.119884 56.554222 26.002539
-19.119921 56.542873 25.639507
-19.108677 56.533817 24.943653
-19.093287 56.530182 24.272289
-19.081839 56.532925 23.947792
-19.068157 56.518032 22.97613
-19.309473 56.589172 32.505386
-19.304001 56.581017 32.036953
-19.280773 56.593967 31.607353
-19.28801 56.571453 31.135611
-19.2771 56.570477 30.70237
-19.279091 56.554646 30.256632
-19.243912 56.582535 29.876989
-19.27194 56.536747 29.406889
-19.234394 56.567822 29.044287
-19.232746 56.557167 28.634226
-19.225189 56.553619 28.239786
-19.21624 56.551895 27.853855
-19.205759 56.552147 27.476294
-19.203327 56.543213 27.093643
-19.179649 56.559181 26.745733
-19.178564 56.549038 26.37285
-19.160706 56.558556 26.027559
-19.153618 56.544819 25.315451
-19.144293 56.544891 24.974321
-19.148439 56.508785 23.941288
-19.129225 56.520874 23.630154
-19.358797 56.580429 32.529984
-19.344543 56.582844 32.076244
-19.351978 56.560104 31.594973
-19.328251 56.574142 31.174421
-19.321678 56.568333 30.733709
-19.332628 56.542286 30.273445
-19.311146 56.554394 29.872431
-19.306974 56.546497 29.451752
-19.292524 56.550816 29.053934
-19.258003 56.578732 28.692318
-19.259661 56.564659 28.283718
-19.26009 56.552231 27.883877
-19.249506 56.552814 27.506123
-19.246975 56.544216 27.123272
-19.242794 56.53772 26.748774
-19.23189 56.539207 26.389019
-19.20903 56.554729 26.050135
-19.219004 56.532307 25.673958
-19.206879 56.535683 25.331415
-19.197535 56.535976 24.990217
-19.196081 56.527279 24.644211
-19.186014 56.518604 23.975138
-19.167065 56.511028 23.008886
-19.171164 56.496731 22.683714
-19.149193 56.5033 22.077532
-19.132877 56.485867 20.879065
-19.429085 56.560425 32.509277
-19.397512 56.583149 32.085346
-19.400486 56.565624 31.611362
-19.389994 56.564148 31.168827
-19.378962 56.563553 30.735405
-19.376303 56.55341 30.296646
-19.359253 56.560318 29.888342
-19.359598 56.547131 29.460493
-19.331118 56.567802 29.083567
-19.34811 56.535645 28.645565
-19.331081 56.543358 28.264839
-19.312496 56.55307 27.892368
-19.321144 56.531269 27.487629
-19.304136 56.539505 27.124969
-19.290142 56.544403 26.763672
-19.279148 56.545982 26.403788
-19.271133 56.544262 26.045366
-19.276117 56.527626 25.675655
-19.269037 56.525143 25.32678
-19.264811 56.519508 24.979383
-19.253162 56.522614 24.645908
-19.244188 56.522762 24.313732
-19.243074 56.51395 23.976839
-19.227877 56.51173 23.331352
-19.218784 56.512527 23.016436
-19.222841 56.498272 22.691193
-19.188646 56.473858 20.586895
-19.480253 56.570858 32.495697
-19.47496 56.56266 32.027321
-19.443085 56.585892 31.612461
-19.441523 56.573853 31.155233
-19.457558 56.541492 30.678455
-19.446205 56.541435 30.254395
-19.415703 56.563976 29.867638
-19.406971 56.561298 29.453943
-19.401852 56.554623 29.042036
-19.39562 56.549458 28.638893
-19.388138 56.545959 28.244389
-19.374475 56.549854 27.865179
-19.373669 56.538975 27.474035
-19.356758 56.547012 27.111366
-19.352667 56.540318 26.73687
-19.356672 56.524399 26.357525
-19.334007 56.539619 26.018826
-19.324112 56.540165 25.668449
-19.317087 56.537537 25.319508
-19.312918 56.53175 24.972044
-19.311586 56.522831 24.62611
-19.292997 56.513817 23.633858
-19.276661 56.503372 22.677591
-19.281841 56.478481 22.043102
-19.253012 56.484165 21.15683
-19.528503 56.579529 32.46846
-19.506035 56.59145 32.029739
-19.509518 56.573215 31.555956
-19.508411 56.560642 31.099031
-19.479952 56.580326 30.694782
-19.491299 56.553692 30.234617
-19.479321 56.554573 29.819437
-19.47097 56.551437 29.405987
-19.46623 56.544308 28.994329
-19.436846 56.566124 28.625994
-19.434273 56.556881 28.224577
-19.425594 56.554951 27.838573
-19.429859 56.538151 27.440781
-19.40449 56.544537 26.710455
-19.393894 56.545555 26.350758
-19.391262 56.537495 25.986074
-19.391672 56.526077 25.623047
-19.374857 56.534782 25.287018
-19.364729 56.525406 24.600086
-19.325766 56.491535 22.028904
-19.555214 56.603916 32.486515
-19.572081 56.569794 31.980993
-19.553917 56.577011 31.544191
-19.553005 56.564289 31.087273
-19.556211 56.547016 30.63249
-19.5408 56.55175 30.215696
-19.524454 56.557804 29.807667
-19.530159 56.538342 29.373117
-19.525721 56.530945 28.961647
-19.491901 56.557995 28.600388
-19.484831 56.554062 28.205942
-19.49552 56.529667 27.792879
-19.461506 56.557465 27.449144
-19.469252 56.536884 27.053131
-19.455851 56.541058 26.692072
-19.44301 56.533695 25.967819
-19.433559 56.533772 25.617636
-19.417217 56.520996 24.582094
-19.391659 56.481487 22.310894
-19.379633 56.485989 22.011471
-19.375338 56.481689 21.707569
-19.354816 56.460651 20.238657
-19.637232 56.562397 32.432091
-19.632669 56.553566 31.963951
-19.623526 56.550373 31.512594
-19.596142 56.568768 31.099564
-19.608376 56.541084 30.630232
-19.574884 56.567062 30.242052
-19.572226 56.557259 29.812494
-19.564106 56.55405 29.398977
-19.56427 56.541412 28.980288
-19.563393 56.530205 28.570488
-19.537567 56.548233 28.203667
-19.543564 56.529427 27.797384
-19.538588 56.523582 27.413286
-19.517387 56.536762 27.057501
-19.513859 56.529587 26.683203
-19.50853 56.524677 26.317112
-19.486296 56.539528 25.978437
-19.501995 56.510571 25.596189
-19.485476 56.5191 25.260281
-19.472782 56.50288 24.235592
-19.449976 56.489952 22.939674
-19.438614 56.493557 22.632099
-19.424156 56.48241 21.71081
-19.414198 56.467056 20.817198
-19.407936 56.465519 20.528811
-19.652002 56.586079 32.495316
-19.642862 56.582951 32.034096
-19.65556 56.554562 31.545525
-19.632591 56.568108 31.124979
-19.631332 56.556545 30.677107
-19.624989 56.551151 30.245632
-19.622465 56.541534 29.816067
-19.605213 56.549294 29.416613
-19.60075 56.542366 29.004763
-19.585735 56.547916 28.61549
-19.58831 56.533211 28.207224
-19.565659 56.548004 27.841618
-19.565399 56.536968 27.450413
-19.553862 56.539207 27.080999
-19.540501 56.54372 26.719673
-19.545 56.527695 26.340208
-19.53274 56.531254 25.988428
-19.523365 56.53162 25.638037
-19.663843 56.586952 32.560368
-19.659002 56.579556 32.091331
-19.671686 56.551983 31.602381
-19.648664 56.566269 31.181482
-19.633844 56.571213 30.754896
-19.627333 56.566704 30.322866
-19.629238 56.552628 29.885641
-19.616484 56.555798 29.478657
-19.602583 56.560493 29.080309
-19.606264 56.544971 28.662827
-19.599321 56.541965 28.267925
-19.576569 56.557461 27.901876
-19.576225 56.547157 27.51021
-19.574352 56.538795 27.127028
-19.560974 56.543915 26.765373
-19.555553 56.539982 26.398611
-19.55319 56.532665 26.033449
-19.548836 56.527802 25.676331
-19.677427 56.580082 32.629726
-19.672537 56.573666 32.160275
-19.680758 56.55225 31.678223
-19.693384 56.525959 31.198578
-19.674284 56.536732 30.779215
-19.654301 56.548721 30.368607
-19.651678 56.540764 29.938223
-19.643579 56.539349 29.523886
-19.643774 56.528511 29.104353
-19.624031 56.540936 28.721369
-19.61706 56.538742 28.326078
-19.618284 56.527245 27.925713
-19.59874 56.539906 27.560865
-19.606646 56.521015 27.164028
-19.598272 56.52108 26.795582
-19.58305 56.529182 26.441738
-19.585735 56.516773 26.069838
-19.576424 56.518333 25.718904
-19.580137 56.505024 25.356745
-19.561285 56.517822 25.027636
-19.555351 56.515869 24.687258
-19.562542 56.498943 24.336069
-19.53993 56.491467 23.037012
-19.539335 56.484058 22.717106
-19.535851 56.480064 22.404318
-19.536152 56.464043 21.782711
-19.721199 56.550255 32.638672
-19.707787 56.554462 32.184021
-19.711746 56.538731 31.709183
-19.711077 56.528587 31.251204
-19.687426 56.545265 30.838707
-19.708403 56.510468 30.363176
-19.67388 56.540085 29.982645
-19.661148 56.544655 29.575037
-19.651947 56.545311 29.169083
-19.65571 56.531162 28.751005
-19.653595 56.523972 28.348665
-19.645336 56.524029 27.961742
-19.650064 56.509262 27.563004
-19.628899 56.524494 27.206194
-19.630377 56.513767 26.824223
-19.620192 56.516613 26.463648
-19.607985 56.521912 26.111
-19.613796 56.506611 25.740536
-19.607466 56.505402 25.390892
-19.614229 56.489273 25.030197
-19.608513 56.487598 24.689884
-19.584778 56.506721 24.375509
-19.581467 56.494591 23.707663
-19.566914 56.488163 22.748993
-19.574265 56.47224 22.424503
-19.562433 56.478374 22.12414
-19.558352 56.475719 21.819275
-19.548416 56.458641 20.628401
-19.77355 56.545021 32.611271
-19.760424 56.548988 32.156727
-19.764681 56.533012 31.682016
-19.764301 56.522633 31.224159
-19.736395 56.544319 30.818991
-19.734808 56.535725 30.379354
-19.732521 56.528126 29.948841
-19.724741 56.527061 29.534372
-19.725264 56.516582 29.114708
-19.719999 56.512951 28.710842
-19.699142 56.527473 28.336163
-19.695866 56.521862 27.94245
-19.691107 56.518112 27.557228
-19.674948 56.527637 27.19368
-19.666737 56.528145 26.8249
-19.67651 56.508091 26.438078
-19.659527 56.518955 26.092018
-19.665541 56.503498 25.721626
-19.659405 56.50214 25.372047
-19.661243 56.491737 25.017689
-19.640203 56.507721 24.695946
-19.642469 56.497059 24.350737
-19.637081 56.495293 24.019251
-19.634216 56.483006 23.360483
-19.631372 56.47863 23.039129
-19.636425 56.465309 22.713375
-19.622435 56.473888 22.411982
-19.621616 56.46748 22.100353
-19.611422 56.457626 21.19537
-19.603321 56.459873 20.90509
-19.599232 56.450768 20.322556
-19.825502 56.57349 32.572762
-19.85215 56.530884 32.051727
-19.834843 56.539543 31.6143
-19.821417 56.5439 31.178577
-19.816376 56.538734 30.737417
-19.828962 56.513359 30.276756
-19.818052 56.515396 29.86105
-19.792168 56.534931 29.475197
-19.793024 56.523705 29.055794
-19.778618 56.530293 28.665995
-19.772312 56.527683 28.270887
-19.76458 56.526878 27.884277
-19.760136 56.522438 27.499317
-19.758961 56.514378 27.116062
-19.761036 56.50272 26.734568
-19.731537 56.52758 26.400515
-19.749805 56.497562 26.009338
-19.731028 56.510323 25.671429
-19.720057 56.514221 25.328369
-19.722111 56.503265 24.974159
-19.709032 56.493225 23.964035
-19.704138 56.474789 22.984776
-19.698711 56.473202 22.670849
-19.690317 56.475105 22.36389
-19.907949 56.57774 32.487759
-19.921831 56.549316 31.989359
-19.900351 56.562252 31.559477
-19.896112 56.555367 31.109394
-19.886856 56.554523 30.675747
-19.876867 56.554733 30.251095
-19.850451 56.552402 29.016006
-19.85511 56.536411 28.598671
-19.844316 56.538479 28.210716
-19.819201 56.527481 26.695192
-19.804684 56.515816 25.613111
-19.796242 56.498375 24.570322
-19.990692 56.572514 32.423794
-20.013617 56.533031 31.911018
-19.996908 56.539959 31.474276
-19.984077 56.542599 31.039259
-19.961525 56.556747 30.627634
-19.937988 56.572239 30.224642
-19.950207 56.54641 29.77354
-19.947863 56.537701 29.352863
-19.921078 56.546482 28.565599
-19.943787 56.509335 28.129982
-19.907749 56.540379 27.784784
-19.908512 56.528996 27.393589
-19.895975 56.512978 26.276838
-19.886341 56.504532 25.562006
-19.873102 56.500801 24.872208
-20.088694 56.532799 32.349964
-20.090029 56.518322 31.874617
-20.077936 56.519733 31.430792
-20.069805 56.516766 30.988813
-20.04751 56.530491 30.577545
-20.047073 56.519016 30.139229
-20.036701 56.519295 29.72419
-20.025303 56.520966 29.317915
-20.022121 56.513294 28.906376
-20.00832 56.518127 28.517374
-20.002615 56.513756 28.1231
-19.995478 56.511223 27.737326
-19.986767 56.510681 27.359915
-19.991035 56.495293 26.970835
-19.969015 56.510456 26.623058
-19.95978 56.51099 26.263456
-19.953522 56.508232 25.90534
-19.955276 56.496376 25.542395
-19.949869 56.492928 25.193768
-19.957565 56.474514 24.834177
-19.952751 56.470657 24.494896
-19.93508 56.481731 24.175352
-19.908304 56.459385 22.253967
-19.898283 56.445789 21.342272
-20.12421 56.545055 32.379051
-20.125458 56.530834 31.903467
-20.11327 56.532497 31.459402
-20.109533 56.524559 31.009926
-20.087183 56.538475 30.598476
-20.086697 56.527195 30.159975
-20.090113 56.511608 29.723524
-20.088097 56.502537 29.303221
-20.070984 56.511162 28.912659
-20.07616 56.494141 28.496038
-20.061094 56.500755 28.115604
-20.058884 56.492653 27.723133
-20.045464 56.497692 27.352547
-20.025351 56.510612 26.996687
-20.022984 56.503181 26.622383
-20.028742 56.48653 26.24328
-20.022663 56.4837 25.885363
-20.004385 56.495075 25.548082
-20.009186 56.479977 25.186789
-19.996471 56.485199 24.85219
-19.991608 56.48151 24.512703
-19.984856 56.471081 23.844164
-19.977587 56.47052 23.521017
-19.970692 56.460964 22.878695
-19.965654 56.458176 22.565342
-20.14889 56.553013 32.406807
-20.141409 56.549374 31.945738
-20.129198 56.551464 31.501314
-20.120951 56.549168 31.058733
-20.11665 56.542507 30.618065
-20.111696 56.536816 30.186514
-20.129028 56.505501 29.72859
-20.117876 56.507404 29.322248
-20.110249 56.505409 28.917591
-20.0919 56.515999 28.535345
-20.091137 56.506413 28.134052
-20.084194 56.504143 27.748144
-20.075674 56.503857 27.3706
-20.065437 56.505711 27.001278
-20.053349 56.509846 26.640038
-20.059193 56.493443 26.260735
-20.05319 56.490852 25.902613
-20.055204 56.479164 25.539665
-20.050047 56.475876 25.191032
-20.037476 56.481247 24.856361
-20.027588 56.48365 24.522963
-20.017883 56.451756 22.876619
-20.178297 56.553066 32.428135
-20.162163 56.560009 31.981636
-20.158915 56.552212 31.522276
-20.15082 56.550255 31.07951
-20.164814 56.522907 30.609869
-20.141859 56.538574 30.206919
-20.127003 56.545036 29.798328
-20.134344 56.526005 29.363312
-20.117313 56.535336 28.972174
-20.122606 56.519039 28.554983
-20.112404 56.520821 28.167141
-20.110329 56.513374 27.774151
-20.097019 56.519043 27.403038
-20.091724 56.515621 27.026754
-20.099487 56.497299 26.638988
-20.09062 56.498287 26.279179
-20.094772 56.484421 25.90799
-20.081797 56.490402 25.564064
-20.081806 56.481571 25.20886
-20.074471 56.481316 24.86775
-20.069893 56.478004 24.528051
-20.182863 56.587456 32.519398
-20.19282 56.564568 32.027985
-20.171667 56.577957 31.597601
-20.181284 56.555908 31.125256
-20.158386 56.561184 30.273462
-20.157173 56.552269 29.843153
-20.164419 56.53376 29.407814
-20.147287 56.543591 29.016367
-20.152485 56.527805 28.59885
-20.146967 56.524551 28.203865
-20.144836 56.517551 27.810612
-20.115952 56.49712 25.598925
-20.109047 56.479984 24.55592
-20.095373 56.448559 22.594492
-20.213791 56.591564 32.594521
-20.223377 56.569534 32.102673
-20.210772 56.573414 31.65724
-20.206627 56.567696 31.206369
-20.201981 56.562756 30.764721
-20.201262 56.553467 30.325039
-20.199825 56.545193 29.894474
-20.189503 56.537758 29.067184
-20.184992 56.533535 28.663191
-20.183969 56.525455 28.26099
-20.170639 56.496719 26.357046
-20.265396 56.56765 32.631615
-20.257261 56.566658 32.169186
-20.248844 56.566189 31.716072
-20.23999 56.566414 31.272167
-20.235086 56.56226 30.830153
-20.238689 56.54847 30.382944
-20.23704 56.540916 29.952065
-20.221596 56.540302 29.131111
-20.221582 56.531349 28.719833
-20.205423 56.507286 26.785465
-20.268148 56.589058 32.716915
-20.259638 56.561115 30.876991
-22.788185 56.336655 32.233093
-22.766935 56.346096 31.796352
-22.753973 56.346043 31.353941
-22.74052 56.346836 30.920649
-22.730919 56.343372 30.489155
-22.720615 56.340992 30.066677
-22.709461 56.339863 29.653097
-22.701927 56.334724 29.241266
-22.69799 56.325611 28.831249
-22.631886 56.389591 28.519751
-22.839611 56.362827 32.265373
-22.857182 56.32608 31.761883
-22.839859 56.33086 31.327103
-22.813084 56.347057 30.915873
-22.807829 56.338146 30.477232
-22.788385 56.346218 30.069183
-22.781631 56.339603 29.64852
-22.797018 56.307228 29.201611
-22.765253 56.330505 28.833771
-22.760031 56.32283 28.432533
-22.758287 56.31131 28.033106
-22.707479 56.357498 27.710087
-22.632259 56.322506 24.166597
-22.919968 56.347878 32.223373
-22.898518 56.356953 31.786697
-22.902933 56.335766 31.315029
-22.893894 56.330772 30.874773
-22.870863 56.342567 30.465281
-22.864975 56.334412 30.035841
-22.844627 56.343552 29.636692
-22.846163 56.327183 29.210939
-22.832861 56.328518 28.815109
-22.804205 56.348114 28.448513
-22.816475 56.319881 28.028385
-22.79426 56.332344 27.664705
-22.779894 56.3358 27.295601
-22.729137 56.331306 25.505011
-22.732908 56.314709 25.145144
-22.724417 56.312595 24.805784
-22.700197 56.31728 24.149673
-22.6998 56.306213 23.814482
-22.957611 56.378006 32.258289
-22.944614 56.376919 31.80654
-22.944471 56.360947 31.34203
-22.926355 56.366516 30.916075
-22.90304 56.378487 30.50622
-22.905914 56.359837 30.06212
-22.889936 56.363678 29.655638
-22.877493 56.363609 29.25078
-22.877865 56.348713 28.833685
-22.858442 56.35733 28.453094
-22.865911 56.334595 28.039747
-22.834047 56.358246 27.689486
-22.833935 56.34486 27.299995
-22.819241 56.335686 26.559528
-22.80423 56.340363 26.208006
-22.772223 56.316128 24.471708
-22.75025 56.306808 23.490471
-23.008638 56.378143 32.280983
-22.991148 56.38242 31.83651
-22.986425 56.371906 31.379148
-22.981394 56.362061 30.931145
-22.975906 56.353054 30.492388
-22.942673 56.377029 30.105673
-22.935564 56.370461 29.684706
-22.927553 56.365215 29.272638
-22.927792 56.350521 28.855413
-22.903549 56.364841 28.481606
-22.920309 56.331242 28.05438
-22.883589 56.36063 27.71084
-22.871889 56.347603 26.953386
-22.853271 56.343491 26.228836
-22.846691 56.326073 25.5105
-22.850393 56.309483 25.150633
-23.053989 56.368114 32.321701
-23.049339 56.357475 31.85487
-23.035753 56.357704 31.412174
-23.017254 56.36401 30.985874
-22.989082 56.381977 30.582895
-22.991528 56.364128 30.13835
-22.984264 56.35799 29.717257
-22.980705 56.347752 29.298029
-22.96224 56.355278 28.908613
-22.942419 56.364613 28.527599
-22.930563 56.364819 28.141159
-22.936316 56.344601 27.735983
-22.916725 56.354301 27.37315
-22.934111 56.320915 26.965086
-22.906153 56.340797 26.625179
-22.905592 56.328823 26.25371
-22.888287 56.336601 25.909803
-22.877195 56.325218 25.206875
-22.858305 56.300648 23.856434
-23.07906 56.381985 32.399498
-23.087053 56.356739 31.909994
-23.086378 56.342052 31.444983
-23.05888 56.359276 31.033134
-23.070797 56.330334 30.564936
-23.05081 56.339233 30.156485
-23.025249 56.354916 29.763788
-23.01227 56.356045 29.358381
-23.021399 56.331459 28.926744
-23.001539 56.341129 28.54574
-22.980185 56.352753 28.173002
-22.981047 56.338562 27.774466
-22.975729 56.331821 27.391287
-22.978523 56.315807 27.003162
-22.960192 56.324688 26.649897
-22.93224 56.33279 25.947306
-22.927597 56.326214 25.591686
-22.920849 56.322269 25.243967
-22.922028 56.309254 24.891483
-22.907301 56.303616 24.222191
-23.167946 56.337551 32.353329
-23.163157 56.327469 31.886431
-23.136263 56.343754 31.465708
-23.135241 56.329815 31.010048
-23.120419 56.332413 30.585423
-23.100304 56.341488 30.176855
-23.101994 56.325176 29.741432
-23.08914 56.32621 29.336273
-23.070513 56.334248 28.946747
-23.073971 56.316608 28.531046
-23.0527 56.328182 28.158503
-23.048872 56.319527 27.766943
-23.029167 56.329666 27.404062
-23.031881 56.313774 27.015869
-23.028139 56.305637 26.642763
-23.022614 56.299778 26.277874
-23.000271 56.313728 25.940441
-22.995667 56.307148 25.584953
-22.988958 56.303192 25.23737
-22.969851 56.313843 24.910055
-22.968704 56.303734 24.565298
-22.954906 56.308502 24.24049
-23.2314 56.34959 32.336224
-23.235258 56.328846 31.854595
-23.217197 56.334316 31.419363
-23.203009 56.335495 30.985851
-23.183718 56.342964 30.568569
-23.181643 56.33041 30.13142
-23.174341 56.324284 29.710512
-23.152332 56.335705 29.319614
-23.12903 56.348873 28.937122
-23.123037 56.34193 28.535257
-23.115797 56.336681 28.142038
-23.12624 56.310928 27.730196
-23.101822 56.32626 27.374289
-23.104582 56.309956 26.986303
-23.105778 56.295704 26.606808
-23.085562 56.306683 26.261761
-23.068161 56.314541 25.917933
-23.073576 56.295937 25.549801
-23.061913 56.297447 25.208817
-23.047937 56.301815 24.875446
-23.02203 56.297192 23.883121
-23.293436 56.371666 32.323483
-23.29285 56.355625 31.84927
-23.279045 56.355553 31.406641
-23.251472 56.372044 30.994963
-23.249863 56.358135 30.548632
-23.238707 56.355789 30.125866
-23.213037 56.370815 29.733282
-23.213745 56.355011 29.306908
-23.213579 56.340511 28.889555
-23.203024 56.338482 28.494921
-23.191141 56.338249 28.108805
-23.17779 56.339966 27.731079
-23.186861 56.315586 27.32802
-23.165508 56.327118 26.973631
-23.156853 56.323959 26.607321
-23.12751 56.307087 25.189846
-23.357773 56.371243 32.31419
-23.344145 56.370464 31.862219
-23.334583 56.365181 31.41214
-23.320208 56.365902 30.978573
-23.296265 56.378212 30.568443
-23.307507 56.349247 30.109724
-23.309225 56.331829 29.674698
-23.278015 56.353504 29.298044
-23.25791 56.347698 28.500002
-23.25156 56.326687 27.708916
-23.231871 56.335918 27.34635
-23.216188 56.32719 26.605503
-23.210554 56.320549 26.240761
-23.203409 56.303036 25.522566
-23.388321 56.363697 32.371704
-23.383223 56.353413 31.904642
-23.373594 56.348797 31.454378
-23.354721 56.355396 31.027912
-23.344088 56.352543 30.59589
-23.337284 56.345444 30.16572
-23.334293 56.334129 29.737469
-23.307489 56.351105 29.353428
-23.297878 56.34808 28.949764
-23.296452 56.335674 28.540924
-23.27969 56.341518 28.161406
-23.275019 56.32 27.379959
-23.268013 56.315044 27.005285
-23.2544 56.318024 26.645432
-23.251013 56.296673 25.910688
-23.387146 56.36269 32.484802
-23.403522 56.328289 31.980034
-23.385078 56.335232 31.544102
-23.352774 56.358742 31.139036
-23.350834 56.346775 30.691883
-23.352896 56.330368 30.246813
-23.340698 56.330971 29.832325
-23.318314 56.343754 29.440706
-23.322506 56.325592 29.015581
-23.307016 56.330727 28.627169
-23.318478 56.304512 28.205996
-23.281202 56.335552 27.861795
-23.27557 56.32975 27.478092
-23.273199 56.320339 27.096092
-23.259411 56.324448 26.735651
-23.268318 56.302254 26.350492
-23.239035 56.302059 25.302252
-23.223536 56.298031 24.623163
-23.414921 56.328484 32.543484
-23.400932 56.331028 32.090336
-23.382227 56.339359 31.653761
-23.394009 56.312164 31.175095
-23.369856 56.327374 30.764048
-23.358322 56.328011 30.340117
-23.359642 56.313824 29.903727
-23.3326 56.333046 29.518806
-23.346004 56.305176 29.079229
-23.335194 56.305824 28.683575
-23.323051 56.308224 28.29644
-23.318979 56.301392 27.904087
-23.294218 56.318871 27.547197
-23.286949 56.31612 27.171463
-23.287735 56.304165 26.790741
-23.276962 56.305836 26.431454
-23.274128 56.298431 26.067152
-23.264318 56.299301 25.717318
-23.252327 56.302849 25.375256
-23.253271 56.291519 25.021984
-23.246881 56.288849 24.682787
-23.238079 56.289116 24.351162
-23.24231 56.274406 24.008739
-23.228409 56.280846 23.691982
-23.212181 56.271366 22.737188
-23.458456 56.313862 32.559589
-23.444567 56.316776 32.10638
-23.452318 56.294563 31.625591
-23.424534 56.314259 31.212906
-23.413782 56.314217 30.779903
-23.411383 56.304619 30.341547
-23.408318 56.296036 29.912329
-23.376795 56.320923 29.534472
-23.380995 56.30426 29.108807
-23.374876 56.299854 28.70603
-23.381697 56.280552 28.29129
-23.353975 56.301716 27.933086
-23.358076 56.285961 27.535559
-23.346195 56.288998 27.166693
-23.32762 56.299988 26.812538
-23.321812 56.296272 26.446571
-23.324022 56.283394 26.075718
-23.31933 56.278702 25.719469
-23.312532 56.2766 25.371126
-23.308578 56.271336 25.024261
-23.28698 56.286674 24.703758
-23.288521 56.275311 24.359711
-23.292856 56.260845 24.017281
-23.268604 56.279617 23.712528
-23.517033 56.33786 32.54372
-23.537935 56.299492 32.0312
-23.515287 56.312584 31.602386
-23.487553 56.331875 31.189743
-23.476845 56.331406 30.7568
-23.483532 56.310783 30.304165
-23.471464 56.31237 29.889364
-23.458412 56.315327 29.483335
-23.458172 56.303497 29.064987
-23.452219 56.298561 28.662464
-23.454472 56.284241 28.254858
-23.431646 56.299397 27.890026
-23.426289 56.294338 27.506245
-23.414488 56.296967 27.137505
-23.41555 56.284775 26.757044
-23.400122 56.291965 26.404558
-23.387587 56.295937 26.053404
-23.392942 56.279243 25.68441
-23.366087 56.300163 25.361635
-23.367176 56.288734 25.008432
-23.356646 56.271343 23.995394
-23.342888 56.277691 23.678699
-23.333933 56.250904 22.400978
-23.60467 56.35376 32.470417
-23.612707 56.329601 31.980524
-23.594515 56.336655 31.544521
-23.593491 56.32375 31.088364
-23.578667 56.327343 30.66325
-23.563066 56.332092 30.247028
-23.560226 56.322079 29.81826
-23.551964 56.318668 29.405556
-23.5473 56.311264 28.994644
-23.536842 56.310871 28.599426
-23.529779 56.306705 28.205873
-23.511787 56.315533 27.834417
-23.511333 56.304028 27.444174
-23.509371 56.294487 27.062429
-23.505758 56.28706 26.689047
-23.495434 56.287647 26.330412
-23.502972 56.267567 25.953856
-23.488674 56.273125 25.611219
-23.472116 56.281467 25.27622
-23.452175 56.283241 24.603724
-23.448835 56.276627 24.266453
-23.439846 56.26651 23.608397
-23.69792 56.346569 32.376846
-23.688972 56.341816 31.917107
-23.675396 56.342823 31.474049
-23.665771 56.339439 31.032827
-23.655602 56.33696 30.600731
-23.64926 56.330235 30.170486
-23.637598 56.330021 29.756357
-23.624949 56.331203 29.351002
