# .PCD v0.7 - Point Cloud Data file format
VERSION 0.7
FIELDS x y z
SIZE 4 4 4
TYPE F F F
COUNT 1 1 1
WIDTH 1570
HEIGHT 1
VIEWPOINT 0 0 0 1 0 0 0
POINTS 1570
DATA ascii
-37.694324 55.086208 29.811869
-37.689491 55.086594 29.811869
-37.684658 55.086979 29.811869
-37.679825 55.087364 29.811869
-37.674992 55.087749 29.811869
-37.670158 55.088135 29.811869
-37.665325 55.08852 29.811869
-37.660492 55.088905 29.811869
-37.655659 55.089291 29.811869
-37.650826 55.089676 29.811869
-37.645992 55.090061 29.811869
-37.641159 55.090446 29.811869
-37.636326 55.090832 29.811869
-37.631493 55.091217 29.811869
-37.626659 55.091602 29.811869
-37.621826 55.091988 29.811869
-37.616993 55.092373 29.811869
-37.61216 55.092758 29.811869
-37.607327 55.093143 29.811869
-37.602493 55.093529 29.811869
-37.59766 55.093914 29.811869
-37.592827 55.094299 29.811869
-37.587994 55.094685 29.811869
-37.58316 55.09507 29.811869
-37.578327 55.095455 29.811869
-37.57872 55.095226 29.811869
-37.57872 55.095219 29.804308
-37.57872 55.095211 29.796747
-37.57872 55.095203 29.789186
-37.57872 55.095196 29.781626
-37.57872 55.095188 29.774065
-37.57872 55.095181 29.766504
-37.57872 55.095173 29.758944
-37.57872 55.095165 29.751383
-37.57872 55.095158 29.743822
-37.57872 55.09515 29.736261
-37.57872 55.095142 29.728701
-37.57872 55.095135 29.72114
-37.57872 55.095127 29.713579
-37.57872 55.095119 29.706018
-37.57872 55.095112 29.698458
-37.57872 55.095104 29.690897
-37.57872 55.095097 29.683336
-37.57872 55.095089 29.675776
-37.57872 55.095081 29.668215
-37.57872 55.095074 29.660654
-37.57872 55.095066 29.653093
-37.57872 55.095058 29.645533
-37.57872 55.095051 29.637972
-37.57872 55.095043 29.630411
-37.57872 55.095036 29.62285
-37.57872 55.095028 29.61529
-37.57872 55.09502 29.607729
-37.57872 55.095013 29.600168
-37.57872 55.095005 29.592607
-37.57872 55.094997 29.585047
-37.57872 55.09499 29.577486
-37.57872 55.094982 29.569925
-37.57872 55.094975 29.562365
-37.57872 55.094967 29.554804
-37.57872 55.094959 29.547243
-37.57872 55.094952 29.539682
-37.57872 55.094944 29.532122
-37.57872 55.094936 29.524561
-37.57872 55.094929 29.517
-37.57872 55.094921 29.509439
-37.57872 55.094913 29.501879
-37.57872 55.094906 29.494318
-37.57872 55.094898 29.486757
-37.57872 55.094891 29.479197
-37.57872 55.094883 29.471636
-37.57872 55.094875 29.464075
-37.57872 55.094868 29.456514
-37.57872 55.09486 29.448954
-37.57872 55.094852 29.441393
-37.57872 55.094845 29.433832
-37.57872 55.094837 29.426271
-37.57872 55.09483 29.418711
-37.57872 55.094822 29.41115
-37.57872 55.094814 29.403589
-37.57872 55.094807 29.396029
-37.57872 55.094799 29.388468
-37.57872 55.094791 29.380907
-37.57872 55.094784 29.373346
-37.57872 55.094776 29.365786
-37.57872 55.094769 29.358225
-37.57872 55.094761 29.350664
-37.57872 55.094753 29.343103
-37.57872 55.094746 29.335543
-37.57872 55.094738 29.327982
-37.57872 55.09473 29.320421
-37.57872 55.094723 29.31286
-37.57872 55.094715 29.3053
-37.57872 55.094707 29.297739
-37.57872 55.0947 29.290178
-37.57872 55.094692 29.282618
-37.57872 55.094685 29.275057
-37.57872 55.094677 29.267496
-37.57872 55.094669 29.259935
-37.57872 55.094662 29.252375
-37.57872 55.094654 29.244814
-37.57872 55.094646 29.237253
-37.57872 55.094639 29.229692
-37.57872 55.094631 29.222132
-37.57872 55.094624 29.214571
-37.57872 55.094616 29.20701
-37.57872 55.094608 29.19945
-37.57872 55.094601 29.191889
-37.57872 55.094593 29.184328
-37.57872 55.094585 29.176767
-37.57872 55.094578 29.169207
-37.57872 55.09457 29.161646
-37.57872 55.094563 29.154085
-37.57872 55.094555 29.146524
-37.57872 55.094547 29.138964
-37.57872 55.09454 29.131403
-37.57872 55.094532 29.123842
-37.57872 55.094524 29.116282
-37.57872 55.094517 29.108721
-37.57872 55.094509 29.10116
-37.57872 55.094501 29.093599
-37.57872 55.094494 29.086039
-37.57872 55.094486 29.078478
-37.57872 55.094479 29.070917
-37.57872 55.094471 29.063356
-37.57872 55.094463 29.055796
-37.57872 55.094456 29.048235
-37.57872 55.094448 29.040674
-37.57872 55.09444 29.033113
-37.57872 55.094433 29.025553
-37.57872 55.094425 29.017992
-37.57872 55.094418 29.010431
-37.57872 55.09441 29.002871
-37.57872 55.094402 28.99531
-37.57872 55.094395 28.987749
-37.57872 55.094387 28.980188
-37.57872 55.094379 28.972628
-37.57872 55.094372 28.965067
-37.57872 55.094364 28.957506
-37.57872 55.094357 28.949945
-37.57872 55.094349 28.942385
-37.57872 55.094341 28.934824
-37.57872 55.094334 28.927263
-37.57872 55.094326 28.919703
-37.57872 55.094318 28.912142
-37.57872 55.094311 28.904581
-37.57872 55.094303 28.89702
-37.57872 55.094296 28.88946
-37.57872 55.094288 28.881899
-37.57872 55.09428 28.874338
-37.57872 55.094273 28.866777
-37.57872 55.094265 28.859217
-37.57872 55.094257 28.851656
-37.57872 55.09425 28.844095
-37.57872 55.094242 28.836535
-37.57872 55.094234 28.828974
-37.57872 55.094227 28.821413
-37.57872 55.094219 28.813852
-37.57872 55.094212 28.806292
-37.57872 55.094204 28.798731
-37.57872 55.094196 28.79117
-37.57872 55.094189 28.783609
-37.57872 55.094181 28.776049
-37.57872 55.094173 28.768488
-37.57872 55.094166 28.760927
-37.57872 55.094158 28.753366
-37.57872 55.094151 28.745806
-37.57872 55.094143 28.738245
-37.57872 55.094135 28.730684
-37.57872 55.094128 28.723124
-37.57872 55.09412 28.715563
-37.57872 55.094112 28.708002
-37.57872 55.094105 28.700441
-37.57872 55.094097 28.692881
-37.57872 55.09409 28.68532
-37.57872 55.094082 28.677759
-37.57872 55.094074 28.670198
-37.57872 55.094067 28.662638
-37.57872 55.094059 28.655077
-37.57872 55.094051 28.647516
-37.57872 55.094044 28.639956
-37.57872 55.094036 28.632395
-37.57872 55.094028 28.624834
-37.57872 55.094021 28.617273
-37.57872 55.094013 28.609713
-37.57872 55.094006 28.602152
-37.57872 55.093998 28.594591
-37.57872 55.09399 28.58703
-37.57872 55.093983 28.57947
-37.57872 55.093975 28.571909
-37.57872 55.093967 28.564348
-37.57872 55.09396 28.556787
-37.57872 55.093952 28.549227
-37.57872 55.093945 28.541666
-37.57872 55.093937 28.534105
-37.57872 55.093929 28.526545
-37.57872 55.093922 28.518984
-37.57872 55.093914 28.511423
-37.57872 55.093906 28.503862
-37.57872 55.093899 28.496302
-37.57872 55.093891 28.488741
-37.57872 55.093884 28.48118
-37.57872 55.093876 28.473619
-37.57872 55.093868 28.466059
-37.57872 55.093861 28.458498
-37.57872 55.093853 28.450937
-37.57872 55.093845 28.443377
-37.57872 55.093838 28.435816
-37.57872 55.09383 28.428255
-37.57872 55.093822 28.420694
-37.57872 55.093815 28.413134
-37.57872 55.093807 28.405573
-37.57872 55.0938 28.398012
-37.57872 55.093792 28.390451
-37.57872 55.093784 28.382891
-37.57872 55.093777 28.37533
-37.57872 55.093769 28.367769
-37.57872 55.093761 28.360209
-37.57872 55.093754 28.352648
-37.57872 55.093746 28.345087
-37.57872 55.093739 28.337526
-37.57872 55.093731 28.329966
-37.57872 55.093723 28.322405
-37.57872 55.093716 28.314844
-37.57872 55.093708 28.307283
-37.57872 55.0937 28.299723
-37.57872 55.093693 28.292162
-37.57872 55.093685 28.284601
-37.57872 55.093678 28.27704
-37.57872 55.09367 28.26948
-37.57872 55.093662 28.261919
-37.57872 55.093655 28.254358
-37.57872 55.093647 28.246798
-37.57872 55.093639 28.239237
-37.57872 55.093632 28.231676
-37.57872 55.093624 28.224115
-37.57872 55.093616 28.216555
-37.57872 55.093609 28.208994
-37.57872 55.093601 28.201433
-37.57872 55.093594 28.193872
-37.57872 55.093586 28.186312
-37.57872 55.093578 28.178751
-37.57872 55.093571 28.17119
-37.57872 55.093563 28.16363
-37.57872 55.093555 28.156069
-37.57872 55.093548 28.148508
-37.57872 55.09354 28.140947
-37.57872 55.093533 28.133387
-37.57872 55.093525 28.125826
-37.57872 55.093517 28.118265
-37.57872 55.09351 28.110704
-37.57872 55.093502 28.103144
-37.57872 55.093494 28.095583
-37.57872 55.093487 28.088022
-37.57872 55.093479 28.080462
-37.57872 55.093472 28.072901
-37.57872 55.093464 28.06534
-37.57872 55.093456 28.057779
-37.57872 55.093449 28.050219
-37.57872 55.093441 28.042658
-37.57872 55.093433 28.035097
-37.57872 55.093426 28.027536
-37.57872 55.093418 28.019976
-37.57872 55.09341 28.012415
-37.57872 55.093403 28.004854
-37.57872 55.093395 27.997293
-37.57872 55.093388 27.989733
-37.57872 55.09338 27.982172
-37.57872 55.093372 27.974611
-37.57872 55.093365 27.967051
-37.57872 55.093357 27.95949
-37.57872 55.093349 27.951929
-37.57872 55.093342 27.944368
-37.57872 55.093334 27.936808
-37.57872 55.093327 27.929247
-37.57872 55.093319 27.921686
-37.578598 55.093502 27.921841
-37.583431 55.093117 27.921841
-37.588264 55.092731 27.921841
-37.593098 55.092346 27.921841
-37.597931 55.091961 27.921841
-37.602764 55.091576 27.921841
-37.607597 55.09119 27.921841
-37.612431 55.090805 27.921841
-37.617264 55.09042 27.921841
-37.622097 55.090034 27.921841
-37.62693 55.089649 27.921841
-37.631763 55.089264 27.921841
-37.636597 55.088879 27.921841
-37.64143 55.088493 27.921841
-37.646263 55.088108 27.921841
-37.651096 55.087723 27.921841
-37.65593 55.087337 27.921841
-37.660763 55.086952 27.921841
-37.665596 55.086567 27.921841
-37.670429 55.086182 27.921841
-37.675262 55.085796 27.921841
-37.680096 55.085411 27.921841
-37.684929 55.085026 27.921841
-37.689762 55.084641 27.921841
-37.694595 55.084255 27.921841
-37.699429 55.08387 27.921841
-37.704262 55.083485 27.921841
-37.709095 55.083099 27.921841
-37.713928 55.082714 27.921841
-37.718761 55.082329 27.921841
-37.723595 55.081944 27.921841
-37.728428 55.081558 27.921841
-37.733261 55.081173 27.921841
-37.738094 55.080788 27.921841
-37.742928 55.080402 27.921841
-37.747761 55.080017 27.921841
-37.752594 55.079632 27.921841
-37.757427 55.079247 27.921841
-37.76226 55.078861 27.921841
-37.767094 55.078476 27.921841
-37.771927 55.078091 27.921841
-37.77676 55.077705 27.921841
-37.781593 55.07732 27.921841
-37.786427 55.076935 27.921841
-37.79126 55.07655 27.921841
-37.796093 55.076164 27.921841
-37.800926 55.075779 27.921841
-37.805759 55.075394 27.921841
-37.810593 55.075008 27.921841
-37.815426 55.074623 27.921841
-37.820259 55.074238 27.921841
-37.825092 55.073853 27.921841
-37.829926 55.073467 27.921841
-37.834759 55.073082 27.921841
-37.839592 55.072697 27.921841
-37.844425 55.072311 27.921841
-37.849258 55.071926 27.921841
-37.854092 55.071541 27.921841
-37.858925 55.071156 27.921841
-37.863758 55.07077 27.921841
-37.868591 55.070385 27.921841
-37.873425 55.07 27.921841
-37.878258 55.069614 27.921841
-37.883091 55.069229 27.921841
-37.887924 55.068844 27.921841
-37.892757 55.068459 27.921841
-37.897591 55.068073 27.921841
-37.902424 55.067688 27.921841
-37.907257 55.067303 27.921841
-37.91209 55.066917 27.921841
-37.916924 55.066532 27.921841
-37.921757 55.066147 27.921841
-37.92659 55.065762 27.921841
-37.931423 55.065376 27.921841
-37.936256 55.064991 27.921841
-37.94109 55.064606 27.921841
-37.945923 55.06422 27.921841
-37.950756 55.063835 27.921841
-37.955589 55.06345 27.921841
-37.960423 55.063065 27.921841
-37.965256 55.062679 27.921841
-37.970089 55.062294 27.921841
-37.974922 55.061909 27.921841
-37.979755 55.061523 27.921841
-37.984589 55.061138 27.921841
-37.989422 55.060753 27.921841
-37.994255 55.060368 27.921841
-37.999088 55.059982 27.921841
-38.003922 55.059597 27.921841
-38.008755 55.059212 27.921841
-38.013588 55.058826 27.921841
-38.018421 55.058441 27.921841
-38.023254 55.058056 27.921841
-38.028088 55.057671 27.921841
-38.032921 55.057285 27.921841
-38.037754 55.0569 27.921841
-38.042587 55.056515 27.921841
-38.047421 55.056129 27.921841
-38.052254 55.055744 27.921841
-38.057087 55.055359 27.921841
-38.06192 55.054974 27.921841
-38.066753 55.054588 27.921841
-38.071587 55.054203 27.921841
-38.07642 55.053818 27.921841
-38.081253 55.053432 27.921841
-38.086086 55.053047 27.921841
-38.090919 55.052662 27.921841
-38.095753 55.052277 27.921841
-38.100586 55.051891 27.921841
-38.105419 55.051506 27.921841
-38.110252 55.051121 27.921841
-38.115086 55.050735 27.921841
-38.119919 55.05035 27.921841
-38.124752 55.049965 27.921841
-38.129585 55.04958 27.921841
-38.134418 55.049194 27.921841
-38.139252 55.048809 27.921841
-38.144085 55.048424 27.921841
-38.148918 55.048038 27.921841
-38.153751 55.047653 27.921841
-38.158585 55.047268 27.921841
-38.163418 55.046883 27.921841
-38.168251 55.046497 27.921841
-38.173084 55.046112 27.921841
-38.177917 55.045727 27.921841
-38.182751 55.045341 27.921841
-38.187584 55.044956 27.921841
-38.192417 55.044571 27.921841
-38.19725 55.044186 27.921841
-38.202084 55.0438 27.921841
-38.206917 55.043415 27.921841
-38.21175 55.04303 27.921841
-38.216583 55.042645 27.921841
-38.221416 55.042259 27.921841
-38.22625 55.041874 27.921841
-38.231083 55.041489 27.921841
-38.235916 55.041103 27.921841
-38.240749 55.040718 27.921841
-38.245583 55.040333 27.921841
-38.250416 55.039948 27.921841
-38.255249 55.039562 27.921841
-38.260082 55.039177 27.921841
-38.264915 55.038792 27.921841
-38.269749 55.038406 27.921841
-38.274582 55.038021 27.921841
-38.279415 55.037636 27.921841
-38.284248 55.037251 27.921841
-38.289082 55.036865 27.921841
-38.293915 55.03648 27.921841
-38.298748 55.036095 27.921841
-38.303581 55.035709 27.921841
-38.308414 55.035324 27.921841
-38.313248 55.034939 27.921841
-38.318081 55.034554 27.921841
-38.322914 55.034168 27.921841
-38.327747 55.033783 27.921841
-38.332581 55.033398 27.921841
-38.337414 55.033012 27.921841
-38.342247 55.032627 27.921841
-38.34708 55.032242 27.921841
-38.351913 55.031857 27.921841
-38.356747 55.031471 27.921841
-38.36158 55.031086 27.921841
-38.366413 55.030701 27.921841
-38.371246 55.030315 27.921841
-38.37608 55.02993 27.921841
-38.380913 55.029545 27.921841
-38.385746 55.02916 27.921841
-38.390579 55.028774 27.921841
-38.395412 55.028389 27.921841
-38.400246 55.028004 27.921841
-38.405079 55.027618 27.921841
-38.409912 55.027233 27.921841
-38.414745 55.026848 27.921841
-38.419579 55.026463 27.921841
-38.424412 55.026077 27.921841
-38.429245 55.025692 27.921841
-38.434078 55.025307 27.921841
-38.438911 55.024921 27.921841
-38.443745 55.024536 27.921841
-38.448578 55.024151 27.921841
-38.453411 55.023766 27.921841
-38.458244 55.02338 27.921841
-38.463078 55.022995 27.921841
-38.467911 55.02261 27.921841
-38.472744 55.022224 27.921841
-38.477577 55.021839 27.921841
-38.48241 55.021454 27.921841
-38.487244 55.021069 27.921841
-38.492077 55.020683 27.921841
-38.49691 55.020298 27.921841
-38.501743 55.019913 27.921841
-38.506577 55.019527 27.921841
-38.51141 55.019142 27.921841
-38.516243 55.018757 27.921841
-38.521076 55.018372 27.921841
-38.525909 55.017986 27.921841
-38.530743 55.017601 27.921841
-38.535576 55.017216 27.921841
-38.540409 55.01683 27.921841
-38.545242 55.016445 27.921841
-38.550076 55.01606 27.921841
-38.554909 55.015675 27.921841
-38.559742 55.015289 27.921841
-38.564575 55.014904 27.921841
-38.569408 55.014519 27.921841
-38.574242 55.014133 27.921841
-38.579075 55.013748 27.921841
-38.583908 55.013363 27.921841
-38.588741 55.012978 27.921841
-38.593575 55.012592 27.921841
-38.598408 55.012207 27.921841
-38.603241 55.011822 27.921841
-38.608074 55.011436 27.921841
-38.612907 55.011051 27.921841
-38.617741 55.010666 27.921841
-38.622574 55.010281 27.921841
-38.627407 55.009895 27.921841
-38.63224 55.00951 27.921841
-38.637074 55.009125 27.921841
-38.641907 55.008739 27.921841
-38.64674 55.008354 27.921841
-38.651573 55.007969 27.921841
-38.656406 55.007584 27.921841
-38.66124 55.007198 27.921841
-38.666073 55.006813 27.921841
-38.670906 55.006428 27.921841
-38.675739 55.006042 27.921841
-38.680573 55.005657 27.921841
-38.685406 55.005272 27.921841
-38.690239 55.004887 27.921841
-38.695072 55.004501 27.921841
-38.699905 55.004116 27.921841
-38.704739 55.003731 27.921841
-38.709572 55.003345 27.921841
-38.714405 55.00296 27.921841
-38.719238 55.002575 27.921841
-38.724072 55.00219 27.921841
-38.728905 55.001804 27.921841
-38.733738 55.001419 27.921841
-38.738571 55.001034 27.921841
-38.743404 55.000648 27.921841
-38.748238 55.000263 27.921841
-38.753071 54.999878 27.921841
-38.757904 54.999493 27.921841
-38.762737 54.999107 27.921841
-38.76757 54.998722 27.921841
-38.772404 54.998337 27.921841
-38.777237 54.997952 27.921841
-38.78207 54.997566 27.921841
-38.786903 54.997181 27.921841
-38.78651 54.99741 27.921841
-38.78651 54.997417 27.929401
-38.78651 54.997425 27.936962
-38.78651 54.997433 27.944523
-38.78651 54.99744 27.952084
-38.78651 54.997448 27.959644
-38.78651 54.997456 27.967205
-38.78651 54.997463 27.974766
-38.78651 54.997471 27.982327
-38.78651 54.997478 27.989887
-38.78651 54.997486 27.997448
-38.78651 54.997494 28.005009
-38.78651 54.997501 28.012569
-38.78651 54.997509 28.02013
-38.78651 54.997517 28.027691
-38.78651 54.997524 28.035252
-38.78651 54.997532 28.042812
-38.78651 54.99754 28.050373
-38.78651 54.997547 28.057934
-38.78651 54.997555 28.065495
-38.78651 54.997562 28.073055
-38.78651 54.99757 28.080616
-38.78651 54.997578 28.088177
-38.78651 54.997585 28.095737
-38.78651 54.997593 28.103298
-38.78651 54.997601 28.110859
-38.78651 54.997608 28.11842
-38.78651 54.997616 28.12598
-38.78651 54.997623 28.133541
-38.78651 54.997631 28.141102
-38.78651 54.997639 28.148663
-38.78651 54.997646 28.156223
-38.78651 54.997654 28.163784
-38.78651 54.997662 28.171345
-38.78651 54.997669 28.178905
-38.78651 54.997677 28.186466
-38.78651 54.997684 28.194027
-38.78651 54.997692 28.201588
-38.78651 54.9977 28.209148
-38.78651 54.997707 28.216709
-38.78651 54.997715 28.22427
-38.78651 54.997723 28.231831
-38.78651 54.99773 28.239391
-38.78651 54.997738 28.246952
-38.78651 54.997746 28.254513
-38.78651 54.997753 28.262074
-38.78651 54.997761 28.269634
-38.78651 54.997768 28.277195
-38.78651 54.997776 28.284756
-38.78651 54.997784 28.292316
-38.78651 54.997791 28.299877
-38.78651 54.997799 28.307438
-38.78651 54.997807 28.314999
-38.78651 54.997814 28.322559
-38.78651 54.997822 28.33012
-38.78651 54.997829 28.337681
-38.78651 54.997837 28.345242
-38.78651 54.997845 28.352802
-38.78651 54.997852 28.360363
-38.78651 54.99786 28.367924
-38.78651 54.997868 28.375484
-38.78651 54.997875 28.383045
-38.78651 54.997883 28.390606
-38.78651 54.99789 28.398167
-38.78651 54.997898 28.405727
-38.78651 54.997906 28.413288
-38.78651 54.997913 28.420849
-38.78651 54.997921 28.42841
-38.78651 54.997929 28.43597
-38.78651 54.997936 28.443531
-38.78651 54.997944 28.451092
-38.78651 54.997952 28.458652
-38.78651 54.997959 28.466213
-38.78651 54.997967 28.473774
-38.78651 54.997974 28.481335
-38.78651 54.997982 28.488895
-38.78651 54.99799 28.496456
-38.78651 54.997997 28.504017
-38.78651 54.998005 28.511578
-38.78651 54.998013 28.519138
-38.78651 54.99802 28.526699
-38.78651 54.998028 28.53426
-38.78651 54.998035 28.541821
-38.78651 54.998043 28.549381
-38.78651 54.998051 28.556942
-38.78651 54.998058 28.564503
-38.78651 54.998066 28.572063
-38.78651 54.998074 28.579624
-38.78651 54.998081 28.587185
-38.78651 54.998089 28.594746
-38.78651 54.998096 28.602306
-38.78651 54.998104 28.609867
-38.78651 54.998112 28.617428
-38.78651 54.998119 28.624989
-38.78651 54.998127 28.632549
-38.78651 54.998135 28.64011
-38.78651 54.998142 28.647671
-38.78651 54.99815 28.655231
-38.78651 54.998158 28.662792
-38.78651 54.998165 28.670353
-38.78651 54.998173 28.677914
-38.78651 54.99818 28.685474
-38.78651 54.998188 28.693035
-38.78651 54.998196 28.700596
-38.78651 54.998203 28.708157
-38.78651 54.998211 28.715717
-38.78651 54.998219 28.723278
-38.78651 54.998226 28.730839
-38.78651 54.998234 28.7384
-38.78651 54.998241 28.74596
-38.78651 54.998249 28.753521
-38.78651 54.998257 28.761082
-38.78651 54.998264 28.768642
-38.78651 54.998272 28.776203
-38.78651 54.99828 28.783764
-38.78651 54.998287 28.791325
-38.78651 54.998295 28.798885
-38.78651 54.998302 28.806446
-38.78651 54.99831 28.814007
-38.78651 54.998318 28.821568
-38.78651 54.998325 28.829128
-38.78651 54.998333 28.836689
-38.78651 54.998341 28.84425
-38.78651 54.998348 28.85181
-38.78651 54.998356 28.859371
-38.78651 54.998363 28.866932
-38.78651 54.998371 28.874493
-38.78651 54.998379 28.882053
-38.78651 54.998386 28.889614
-38.78651 54.998394 28.897175
-38.78651 54.998402 28.904736
-38.78651 54.998409 28.912296
-38.78651 54.998417 28.919857
-38.78651 54.998425 28.927418
-38.78651 54.998432 28.934978
-38.78651 54.99844 28.942539
-38.78651 54.998447 28.9501
-38.78651 54.998455 28.957661
-38.78651 54.998463 28.965221
-38.78651 54.99847 28.972782
-38.78651 54.998478 28.980343
-38.78651 54.998486 28.987904
-38.78651 54.998493 28.995464
-38.78651 54.998501 29.003025
-38.78651 54.998508 29.010586
-38.78651 54.998516 29.018147
-38.78651 54.998524 29.025707
-38.78651 54.998531 29.033268
-38.78651 54.998539 29.040829
-38.78651 54.998547 29.048389
-38.78651 54.998554 29.05595
-38.78651 54.998562 29.063511
-38.78651 54.998569 29.071072
-38.78651 54.998577 29.078632
-38.78651 54.998585 29.086193
-38.78651 54.998592 29.093754
-38.78651 54.9986 29.101315
-38.78651 54.998608 29.108875
-38.78651 54.998615 29.116436
-38.78651 54.998623 29.123997
-38.78651 54.998631 29.131557
-38.78651 54.998638 29.139118
-38.78651 54.998646 29.146679
-38.78651 54.998653 29.15424
-38.78651 54.998661 29.1618
-38.78651 54.998669 29.169361
-38.78651 54.998676 29.176922
-38.78651 54.998684 29.184483
-38.78651 54.998692 29.192043
-38.78651 54.998699 29.199604
-38.78651 54.998707 29.207165
-38.78651 54.998714 29.214725
-38.78651 54.998722 29.222286
-38.78651 54.99873 29.229847
-38.78651 54.998737 29.237408
-38.78651 54.998745 29.244968
-38.78651 54.998753 29.252529
-38.78651 54.99876 29.26009
-38.78651 54.998768 29.267651
-38.78651 54.998775 29.275211
-38.78651 54.998783 29.282772
-38.78651 54.998791 29.290333
-38.78651 54.998798 29.297894
-38.78651 54.998806 29.305454
-38.78651 54.998814 29.313015
-38.78651 54.998821 29.320576
-38.78651 54.998829 29.328136
-38.78651 54.998837 29.335697
-38.78651 54.998844 29.343258
-38.78651 54.998852 29.350819
-38.78651 54.998859 29.358379
-38.78651 54.998867 29.36594
-38.78651 54.998875 29.373501
-38.78651 54.998882 29.381062
-38.78651 54.99889 29.388622
-38.78651 54.998898 29.396183
-38.78651 54.998905 29.403744
-38.78651 54.998913 29.411304
-38.78651 54.99892 29.418865
-38.78651 54.998928 29.426426
-38.78651 54.998936 29.433987
-38.78651 54.998943 29.441547
-38.78651 54.998951 29.449108
-38.78651 54.998959 29.456669
-38.78651 54.998966 29.46423
-38.78651 54.998974 29.47179
-38.78651 54.998981 29.479351
-38.78651 54.998989 29.486912
-38.78651 54.998997 29.494473
-38.78651 54.999004 29.502033
-38.78651 54.999012 29.509594
-38.78651 54.99902 29.517155
-38.78651 54.999027 29.524715
-38.78651 54.999035 29.532276
-38.78651 54.999043 29.539837
-38.78651 54.99905 29.547398
-38.78651 54.999058 29.554958
-38.78651 54.999065 29.562519
-38.78651 54.999073 29.57008
-38.78651 54.999081 29.577641
-38.78651 54.999088 29.585201
-38.78651 54.999096 29.592762
-38.78651 54.999104 29.600323
-38.78651 54.999111 29.607883
-38.78651 54.999119 29.615444
-38.78651 54.999126 29.623005
-38.78651 54.999134 29.630566
-38.78651 54.999142 29.638126
-38.78651 54.999149 29.645687
-38.78651 54.999157 29.653248
-38.78651 54.999165 29.660809
-38.78651 54.999172 29.668369
-38.78651 54.99918 29.67593
-38.78651 54.999187 29.683491
-38.78651 54.999195 29.691051
-38.78651 54.999203 29.698612
-38.78651 54.99921 29.706173
-38.78651 54.999218 29.713734
-38.78651 54.999226 29.721294
-38.78651 54.999233 29.728855
-38.78651 54.999241 29.736416
-38.78651 54.999249 29.743977
-38.78651 54.999256 29.751537
-38.78651 54.999264 29.759098
-38.78651 54.999271 29.766659
-38.78651 54.999279 29.77422
-38.78651 54.999287 29.78178
-38.78651 54.999294 29.789341
-38.78651 54.999302 29.796902
-38.78651 54.99931 29.804462
-38.78651 54.999317 29.812023
-61.969891 53.148842 36.502819
-61.964413 53.149277 36.502819
-61.958935 53.149712 36.502819
-61.953457 53.150146 36.502819
-61.947979 53.150581 36.502819
-61.942501 53.151016 36.502819
-61.937023 53.151451 36.502819
-61.931545 53.151886 36.502819
-61.926067 53.152321 36.502819
-61.920589 53.152756 36.502819
-61.915112 53.153191 36.502819
-61.909634 53.153625 36.502819
-61.904156 53.15406 36.502819
-61.898678 53.154495 36.502819
-61.8932 53.15493 36.502819
-61.887722 53.155365 36.502819
-61.882244 53.1558 36.502819
-61.876766 53.156235 36.502819
-61.871288 53.15667 36.502819
-61.86581 53.157104 36.502819
-61.860332 53.157539 36.502819
-61.854855 53.157974 36.502819
-61.849377 53.158409 36.502819
-61.843899 53.158844 36.502819
-61.838421 53.159279 36.502819
-61.832943 53.159714 36.502819
-61.827465 53.160149 36.502819
-61.821987 53.160583 36.502819
-61.816509 53.161018 36.502819
-61.811031 53.161453 36.502819
-61.805553 53.161888 36.502819
-61.800076 53.162323 36.502819
-61.794598 53.162758 36.502819
-61.78912 53.163193 36.502819
-61.783642 53.163628 36.502819
-61.778164 53.164063 36.502819
-61.772686 53.164497 36.502819
-61.767208 53.164932 36.502819
-61.76173 53.165367 36.502819
-61.756252 53.165802 36.502819
-61.750774 53.166237 36.502819
-61.745296 53.166672 36.502819
-61.739819 53.167107 36.502819
-61.734341 53.167542 36.502819
-61.728863 53.167976 36.502819
-61.723385 53.168411 36.502819
-61.717907 53.168846 36.502819
-61.712429 53.169281 36.502819
-61.706951 53.169716 36.502819
-61.701473 53.170151 36.502819
-61.695995 53.170586 36.502819
-61.690517 53.171021 36.502819
-61.68504 53.171455 36.502819
-61.679562 53.17189 36.502819
-61.674084 53.172325 36.502819
-61.668606 53.17276 36.502819
-61.663128 53.173195 36.502819
-61.65765 53.17363 36.502819
-61.652172 53.174065 36.502819
-61.646694 53.1745 36.502819
-61.641216 53.174934 36.502819
-61.635738 53.175369 36.502819
-61.63026 53.175804 36.502819
-61.624783 53.176239 36.502819
-61.619305 53.176674 36.502819
-61.613827 53.177109 36.502819
-61.608349 53.177544 36.502819
-61.602871 53.177979 36.502819
-61.597393 53.178413 36.502819
-61.591915 53.178848 36.502819
-61.586437 53.179283 36.502819
-61.580959 53.179718 36.502819
-61.575481 53.180153 36.502819
-61.570004 53.180588 36.502819
-61.564526 53.181023 36.502819
-61.559048 53.181458 36.502819
-61.55357 53.181892 36.502819
-61.548092 53.182327 36.502819
-61.542614 53.182762 36.502819
-61.537136 53.183197 36.502819
-61.531658 53.183632 36.502819
-61.52618 53.184067 36.502819
-61.520702 53.184502 36.502819
-61.515224 53.184937 36.502819
-61.509747 53.185371 36.502819
-61.504269 53.185806 36.502819
-61.498791 53.186241 36.502819
-61.493313 53.186676 36.502819
-61.487835 53.187111 36.502819
-61.482357 53.187546 36.502819
-61.476879 53.187981 36.502819
-61.471401 53.188416 36.502819
-61.465923 53.18885 36.502819
-61.460445 53.189285 36.502819
-61.454967 53.18972 36.502819
-61.44949 53.190155 36.502819
-61.444012 53.19059 36.502819
-61.438534 53.191025 36.502819
-61.433056 53.19146 36.502819
-61.427578 53.191895 36.502819
-61.4221 53.192329 36.502819
-61.416622 53.192764 36.502819
-61.411144 53.193199 36.502819
-61.405666 53.193634 36.502819
-61.400188 53.194069 36.502819
-61.394711 53.194504 36.502819
-61.389233 53.194939 36.502819
-61.383755 53.195374 36.502819
-61.378277 53.195808 36.502819
-61.372799 53.196243 36.502819
-61.367321 53.196678 36.502819
-61.361843 53.197113 36.502819
-61.356365 53.197548 36.502819
-61.350887 53.197983 36.502819
-61.345409 53.198418 36.502819
-61.339931 53.198853 36.502819
-61.334454 53.199287 36.502819
-61.328976 53.199722 36.502819
-61.323498 53.200157 36.502819
-61.31802 53.200592 36.502819
-61.312542 53.201027 36.502819
-61.307064 53.201462 36.502819
-61.301586 53.201897 36.502819
-61.296108 53.202332 36.502819
-61.29063 53.202766 36.502819
-61.285152 53.203201 36.502819
-61.279675 53.203636 36.502819
-61.274197 53.204071 36.502819
-61.268719 53.204506 36.502819
-61.263241 53.204941 36.502819
-61.257763 53.205376 36.502819
-61.252285 53.205811 36.502819
-61.246807 53.206245 36.502819
-61.241329 53.20668 36.502819
-61.235851 53.207115 36.502819
-61.230373 53.20755 36.502819
-61.224895 53.207985 36.502819
-61.219418 53.20842 36.502819
-61.21394 53.208855 36.502819
-61.208462 53.20929 36.502819
-61.202984 53.209724 36.502819
-61.197506 53.210159 36.502819
-61.192028 53.210594 36.502819
-61.18655 53.211029 36.502819
-61.181072 53.211464 36.502819
-61.175594 53.211899 36.502819
-61.170116 53.212334 36.502819
-61.164639 53.212769 36.502819
-61.159161 53.213203 36.502819
-61.153683 53.213638 36.502819
-61.148205 53.214073 36.502819
-61.142727 53.214508 36.502819
-61.137249 53.214943 36.502819
-61.131771 53.215378 36.502819
-61.126293 53.215813 36.502819
-61.120815 53.216248 36.502819
-61.115337 53.216682 36.502819
-61.109859 53.217117 36.502819
-61.104382 53.217552 36.502819
-61.098904 53.217987 36.502819
-61.093426 53.218422 36.502819
-61.087948 53.218857 36.502819
-61.08247 53.219292 36.502819
-61.076992 53.219727 36.502819
-61.071514 53.220161 36.502819
-61.066036 53.220596 36.502819
-61.060558 53.221031 36.502819
-61.05508 53.221466 36.502819
-61.049603 53.221901 36.502819
-61.044125 53.222336 36.502819
-61.038647 53.222771 36.502819
-61.033169 53.223206 36.502819
-61.027691 53.22364 36.502819
-61.022213 53.224075 36.502819
-61.016735 53.22451 36.502819
-61.011257 53.224945 36.502819
-61.005779 53.22538 36.502819
-61.000301 53.225815 36.502819
-60.994823 53.22625 36.502819
-60.989346 53.226685 36.502819
-60.983868 53.227119 36.502819
-60.97839 53.227554 36.502819
-60.972912 53.227989 36.502819
-60.967434 53.228424 36.502819
-60.961956 53.228859 36.502819
-60.956478 53.229294 36.502819
-60.951 53.229729 36.502819
-60.945522 53.230164 36.502819
-60.940044 53.230598 36.502819
-60.934566 53.231033 36.502819
-60.929089 53.231468 36.502819
-60.923611 53.231903 36.502819
-60.918133 53.232338 36.502819
-60.912655 53.232773 36.502819
-60.907177 53.233208 36.502819
-60.901699 53.233643 36.502819
-60.896221 53.234077 36.502819
-60.890743 53.234512 36.502819
-60.885265 53.234947 36.502819
-60.879787 53.235382 36.502819
-60.87431 53.235817 36.502819
-60.868832 53.236252 36.502819
-60.863354 53.236687 36.502819
-60.857876 53.237122 36.502819
-60.852398 53.237556 36.502819
-60.84692 53.237991 36.502819
-60.841442 53.238426 36.502819
-60.835964 53.238861 36.502819
-60.830486 53.239296 36.502819
-60.825008 53.239731 36.502819
-60.81953 53.240166 36.502819
-60.814053 53.240601 36.502819
-60.808575 53.241035 36.502819
-60.803097 53.24147 36.502819
-60.797619 53.241905 36.502819
-60.792141 53.24234 36.502819
-60.786663 53.242775 36.502819
-60.781185 53.24321 36.502819
-60.775707 53.243645 36.502819
-60.770229 53.24408 36.502819
-60.764751 53.244514 36.502819
-60.759274 53.244949 36.502819
-60.753796 53.245384 36.502819
-60.748318 53.245819 36.502819
-60.74284 53.246254 36.502819
-60.737362 53.246689 36.502819
-60.731884 53.247124 36.502819
-60.726406 53.247559 36.502819
-60.720928 53.247993 36.502819
-60.71545 53.248428 36.502819
-60.709972 53.248863 36.502819
-60.704494 53.249298 36.502819
-60.699017 53.249733 36.502819
-60.693539 53.250168 36.502819
-60.688061 53.250603 36.502819
-60.682583 53.251038 36.502819
-60.677105 53.251472 36.502819
-60.671627 53.251907 36.502819
-60.666149 53.252342 36.502819
-60.660671 53.252777 36.502819
-60.655193 53.253212 36.502819
-60.649715 53.253647 36.502819
-60.644238 53.254082 36.502819
-60.63876 53.254517 36.502819
-60.633282 53.254951 36.502819
-60.627804 53.255386 36.502819
-60.622326 53.255821 36.502819
-60.616848 53.256256 36.502819
-60.61137 53.256691 36.502819
-60.605892 53.257126 36.502819
-60.600414 53.257561 36.502819
-60.600803 53.257751 36.502819
-60.600803 53.257744 36.49527
-60.600803 53.257736 36.48772
-60.600803 53.257729 36.480171
-60.600803 53.257721 36.472622
-60.600803 53.257713 36.465073
-60.600803 53.257706 36.457523
-60.600803 53.257698 36.449974
-60.600803 53.25769 36.442425
-60.600803 53.257683 36.434875
-60.600803 53.257675 36.427326
-60.600803 53.257668 36.419777
-60.600803 53.25766 36.412228
-60.600803 53.257652 36.404678
-60.600803 53.257645 36.397129
-60.600803 53.257637 36.38958
-60.600803 53.257629 36.38203
-60.600803 53.257622 36.374481
-60.600803 53.257614 36.366932
-60.600803 53.257607 36.359383
-60.600803 53.257599 36.351833
-60.600803 53.257591 36.344284
-60.600803 53.257584 36.336735
-60.600803 53.257576 36.329185
-60.600803 53.257568 36.321636
-60.600803 53.257561 36.314087
-60.600803 53.257553 36.306538
-60.600803 53.257545 36.298988
-60.600803 53.257538 36.291439
-60.600803 53.25753 36.28389
-60.600803 53.257523 36.27634
-60.600803 53.257515 36.268791
-60.600803 53.257507 36.261242
-60.600803 53.2575 36.253693
-60.600803 53.257492 36.246143
-60.600803 53.257484 36.238594
-60.600803 53.257477 36.231045
-60.600803 53.257469 36.223495
-60.600803 53.257462 36.215946
-60.600803 53.257454 36.208397
-60.600803 53.257446 36.200848
-60.600803 53.257439 36.193298
-60.600803 53.257431 36.185749
-60.600803 53.257423 36.1782
-60.600803 53.257416 36.17065
-60.600803 53.257408 36.163101
-60.600803 53.257401 36.155552
-60.600803 53.257393 36.148003
-60.600803 53.257385 36.140453
-60.600803 53.257378 36.132904
-60.600803 53.25737 36.125355
-60.600803 53.257362 36.117805
-60.600803 53.257355 36.110256
-60.600803 53.257347 36.102707
-60.600803 53.257339 36.095158
-60.600803 53.257332 36.087608
-60.600803 53.257324 36.080059
-60.600803 53.257317 36.07251
-60.600803 53.257309 36.06496
-60.600803 53.257301 36.057411
-60.600803 53.257294 36.049862
-60.600803 53.257286 36.042313
-60.600803 53.257278 36.034763
-60.600803 53.257271 36.027214
-60.600803 53.257263 36.019665
-60.600803 53.257256 36.012115
-60.600803 53.257248 36.004566
-60.600803 53.25724 35.997017
-60.600803 53.257233 35.989468
-60.600803 53.257225 35.981918
-60.600803 53.257217 35.974369
-60.600803 53.25721 35.96682
-60.600803 53.257202 35.95927
-60.600803 53.257195 35.951721
-60.600803 53.257187 35.944172
-60.600803 53.257179 35.936623
-60.600803 53.257172 35.929073
-60.600803 53.257164 35.921524
-60.600803 53.257156 35.913975
-60.600803 53.257149 35.906425
-60.600803 53.257141 35.898876
-60.600803 53.257133 35.891327
-60.600803 53.257126 35.883778
-60.600803 53.257118 35.876228
-60.600803 53.257111 35.868679
-60.600803 53.257103 35.86113
-60.600803 53.257095 35.85358
-60.600803 53.257088 35.846031
-60.600803 53.25708 35.838482
-60.600803 53.257072 35.830933
-60.600803 53.257065 35.823383
-60.600803 53.257057 35.815834
-60.600803 53.25705 35.808285
-60.600803 53.257042 35.800735
-60.600803 53.257034 35.793186
-60.600803 53.257027 35.785637
-60.600803 53.257019 35.778088
-60.600803 53.257011 35.770538
-60.600803 53.257004 35.762989
-60.600803 53.256996 35.75544
-60.600803 53.256989 35.74789
-60.600803 53.256981 35.740341
-60.600803 53.256973 35.732792
-60.600803 53.256966 35.725243
-60.600803 53.256958 35.717693
-60.600803 53.25695 35.710144
-60.600803 53.256943 35.702595
-60.600803 53.256935 35.695045
-60.600803 53.256927 35.687496
-60.600803 53.25692 35.679947
-60.600803 53.256912 35.672398
-60.600803 53.256905 35.664848
-60.600803 53.256897 35.657299
-60.600803 53.256889 35.64975
-60.600803 53.256882 35.6422
-60.600803 53.256874 35.634651
-60.600803 53.256866 35.627102
-60.600803 53.256859 35.619553
-60.600803 53.256851 35.612003
-60.600803 53.256844 35.604454
-60.600803 53.256836 35.596905
-60.600803 53.256828 35.589355
-60.600803 53.256821 35.581806
-60.600803 53.256813 35.574257
-60.600803 53.256805 35.566708
-60.600803 53.256798 35.559158
-60.600803 53.25679 35.551609
-60.600803 53.256783 35.54406
-60.600803 53.256775 35.53651
-60.600803 53.256767 35.528961
-60.600803 53.25676 35.521412
-60.600803 53.256752 35.513863
-60.600803 53.256744 35.506313
-60.600803 53.256737 35.498764
-60.600803 53.256729 35.491215
-60.600803 53.256721 35.483665
-60.600803 53.256714 35.476116
-60.600803 53.256706 35.468567
-60.600803 53.256699 35.461018
-60.600803 53.256691 35.453468
-60.600803 53.256683 35.445919
-60.600803 53.256676 35.43837
-60.600803 53.256668 35.43082
-60.600803 53.25666 35.423271
-60.600803 53.256653 35.415722
-60.600803 53.256645 35.408173
-60.600803 53.256638 35.400623
-60.600803 53.25663 35.393074
-60.600803 53.256622 35.385525
-60.600803 53.256615 35.377975
-60.600803 53.256607 35.370426
-60.600803 53.256599 35.362877
-60.600803 53.256592 35.355328
-60.600803 53.256584 35.347778
-60.600803 53.256577 35.340229
-60.600803 53.256569 35.33268
-60.600803 53.256561 35.32513
-60.600803 53.256554 35.317581
-60.600803 53.256546 35.310032
-60.600803 53.256538 35.302483
-60.600803 53.256531 35.294933
-60.600803 53.256523 35.287384
-60.600803 53.256516 35.279835
-60.600803 53.256508 35.272285
-60.600803 53.2565 35.264736
-60.600803 53.256493 35.257187
-60.600803 53.256485 35.249638
-60.600803 53.256477 35.242088
-60.600803 53.25647 35.234539
-60.600803 53.256462 35.22699
-60.600803 53.256454 35.21944
-60.600803 53.256447 35.211891
-60.600803 53.256439 35.204342
-60.600803 53.256432 35.196793
-60.600803 53.256424 35.189243
-60.600803 53.256416 35.181694
-60.600803 53.256409 35.174145
-60.600803 53.256401 35.166595
-60.600803 53.256393 35.159046
-60.600803 53.256386 35.151497
-60.600803 53.256378 35.143948
-60.600803 53.256371 35.136398
-60.600803 53.256363 35.128849
-60.600803 53.256355 35.1213
-60.600803 53.256348 35.11375
-60.600803 53.25634 35.106201
-60.600803 53.256332 35.098652
-60.600803 53.256325 35.091103
-60.600803 53.256317 35.083553
-60.600803 53.25631 35.076004
-60.600803 53.256302 35.068455
-60.600803 53.256294 35.060905
-60.600803 53.256287 35.053356
-60.600803 53.256279 35.045807
-60.600803 53.256271 35.038258
-60.600803 53.256264 35.030708
-60.600803 53.256256 35.023159
-60.600803 53.256248 35.01561
-60.600803 53.256241 35.00806
-60.600803 53.256233 35.000511
-60.600803 53.256226 34.992962
-60.600803 53.256218 34.985413
-60.600803 53.25621 34.977863
-60.600803 53.256203 34.970314
-60.600803 53.256195 34.962765
-60.600803 53.256187 34.955215
-60.600803 53.25618 34.947666
-60.600803 53.256172 34.940117
-60.600803 53.256165 34.932568
-60.600803 53.256157 34.925018
-60.600803 53.256149 34.917469
-60.600803 53.256142 34.90992
-60.600803 53.256134 34.90237
-60.600803 53.256126 34.894821
-60.600803 53.256119 34.887272
-60.600803 53.256111 34.879723
-60.600803 53.256104 34.872173
-60.600803 53.256096 34.864624
-60.600803 53.256088 34.857075
-60.600803 53.256081 34.849525
-60.600803 53.256073 34.841976
-60.600803 53.256065 34.834427
-60.600803 53.256058 34.826878
-60.600803 53.25605 34.819328
-60.600803 53.256042 34.811779
-60.600803 53.256035 34.80423
-60.600803 53.256027 34.79668
-60.600803 53.25602 34.789131
-60.600803 53.256012 34.781582
-60.600803 53.256004 34.774033
-60.600803 53.255997 34.766483
-60.600803 53.255989 34.758934
-60.600803 53.255981 34.751385
-60.600803 53.255974 34.743835
-60.600803 53.255966 34.736286
-60.600803 53.255959 34.728737
-60.600803 53.255951 34.721188
-60.600803 53.255943 34.713638
-60.600803 53.255936 34.706089
-60.600803 53.255928 34.69854
-60.600803 53.25592 34.69099
-60.600803 53.255913 34.683441
-60.600803 53.255905 34.675892
-60.600803 53.255898 34.668343
-60.600803 53.25589 34.660793
-60.600803 53.255882 34.653244
-60.600803 53.255875 34.645695
-60.600803 53.255867 34.638145
-60.600803 53.255859 34.630596
-60.600803 53.255852 34.623047
-60.600803 53.255844 34.615498
-60.600662 53.256065 34.615349
-60.60614 53.25563 34.615349
-60.611618 53.255196 34.615349
-60.617096 53.254761 34.615349
-60.622574 53.254326 34.615349
-60.628052 53.253891 34.615349
-60.63353 53.253456 34.615349
-60.639008 53.253021 34.615349
-60.644485 53.252586 34.615349
-60.649963 53.252151 34.615349
-60.655441 53.251717 34.615349
-60.660919 53.251282 34.615349
-60.666397 53.250847 34.615349
-60.671875 53.250412 34.615349
-60.677353 53.249977 34.615349
-60.682831 53.249542 34.615349
-60.688309 53.249107 34.615349
-60.693787 53.248672 34.615349
-60.699265 53.248238 34.615349
-60.704742 53.247803 34.615349
-60.71022 53.247368 34.615349
-60.715698 53.246933 34.615349
-60.721176 53.246498 34.615349
-60.726654 53.246063 34.615349
-60.732132 53.245628 34.615349
-60.73761 53.245193 34.615349
-60.743088 53.244759 34.615349
-60.748566 53.244324 34.615349
-60.754044 53.243889 34.615349
-60.759521 53.243454 34.615349
-60.764999 53.243019 34.615349
-60.770477 53.242584 34.615349
-60.775955 53.242149 34.615349
-60.781433 53.241714 34.615349
-60.786911 53.24128 34.615349
-60.792389 53.240845 34.615349
-60.797867 53.24041 34.615349
-60.803345 53.239975 34.615349
-60.808823 53.23954 34.615349
-60.814301 53.239105 34.615349
-60.819778 53.23867 34.615349
-60.825256 53.238235 34.615349
-60.830734 53.237801 34.615349
-60.836212 53.237366 34.615349
-60.84169 53.236931 34.615349
-60.847168 53.236496 34.615349
-60.852646 53.236061 34.615349
-60.858124 53.235626 34.615349
-60.863602 53.235191 34.615349
-60.86908 53.234756 34.615349
-60.874557 53.234322 34.615349
-60.880035 53.233887 34.615349
-60.885513 53.233452 34.615349
-60.890991 53.233017 34.615349
-60.896469 53.232582 34.615349
-60.901947 53.232147 34.615349
-60.907425 53.231712 34.615349
-60.912903 53.231277 34.615349
-60.918381 53.230843 34.615349
-60.923859 53.230408 34.615349
-60.929337 53.229973 34.615349
-60.934814 53.229538 34.615349
-60.940292 53.229103 34.615349
-60.94577 53.228668 34.615349
-60.951248 53.228233 34.615349
-60.956726 53.227798 34.615349
-60.962204 53.227364 34.615349
-60.967682 53.226929 34.615349
-60.97316 53.226494 34.615349
-60.978638 53.226059 34.615349
-60.984116 53.225624 34.615349
-60.989594 53.225189 34.615349
-60.995071 53.224754 34.615349
-61.000549 53.224319 34.615349
-61.006027 53.223885 34.615349
-61.011505 53.22345 34.615349
-61.016983 53.223015 34.615349
-61.022461 53.22258 34.615349
-61.027939 53.222145 34.615349
-61.033417 53.22171 34.615349
-61.038895 53.221275 34.615349
-61.044373 53.22084 34.615349
-61.04985 53.220406 34.615349
-61.055328 53.219971 34.615349
-61.060806 53.219536 34.615349
-61.066284 53.219101 34.615349
-61.071762 53.218666 34.615349
-61.07724 53.218231 34.615349
-61.082718 53.217796 34.615349
-61.088196 53.217361 34.615349
-61.093674 53.216927 34.615349
-61.099152 53.216492 34.615349
-61.10463 53.216057 34.615349
-61.110107 53.215622 34.615349
-61.115585 53.215187 34.615349
-61.121063 53.214752 34.615349
-61.126541 53.214317 34.615349
-61.132019 53.213882 34.615349
-61.137497 53.213448 34.615349
-61.142975 53.213013 34.615349
-61.148453 53.212578 34.615349
-61.153931 53.212143 34.615349
-61.159409 53.211708 34.615349
-61.164886 53.211273 34.615349
-61.170364 53.210838 34.615349
-61.175842 53.210403 34.615349
-61.18132 53.209969 34.615349
-61.186798 53.209534 34.615349
-61.192276 53.209099 34.615349
-61.197754 53.208664 34.615349
-61.203232 53.208229 34.615349
-61.20871 53.207794 34.615349
-61.214188 53.207359 34.615349
-61.219666 53.206924 34.615349
-61.225143 53.20649 34.615349
-61.230621 53.206055 34.615349
-61.236099 53.20562 34.615349
-61.241577 53.205185 34.615349
-61.247055 53.20475 34.615349
-61.252533 53.204315 34.615349
-61.258011 53.20388 34.615349
-61.263489 53.203445 34.615349
-61.268967 53.203011 34.615349
-61.274445 53.202576 34.615349
-61.279922 53.202141 34.615349
-61.2854 53.201706 34.615349
-61.290878 53.201271 34.615349
-61.296356 53.200836 34.615349
-61.301834 53.200401 34.615349
-61.307312 53.199966 34.615349
-61.31279 53.199532 34.615349
-61.318268 53.199097 34.615349
-61.323746 53.198662 34.615349
-61.329224 53.198227 34.615349
-61.334702 53.197792 34.615349
-61.340179 53.197357 34.615349
-61.345657 53.196922 34.615349
-61.351135 53.196487 34.615349
-61.356613 53.196053 34.615349
-61.362091 53.195618 34.615349
-61.367569 53.195183 34.615349
-61.373047 53.194748 34.615349
-61.378525 53.194313 34.615349
-61.384003 53.193878 34.615349
-61.389481 53.193443 34.615349
-61.394958 53.193008 34.615349
-61.400436 53.192574 34.615349
-61.405914 53.192139 34.615349
-61.411392 53.191704 34.615349
-61.41687 53.191269 34.615349
-61.422348 53.190834 34.615349
-61.427826 53.190399 34.615349
-61.433304 53.189964 34.615349
-61.438782 53.189529 34.615349
-61.44426 53.189095 34.615349
-61.449738 53.18866 34.615349
-61.455215 53.188225 34.615349
-61.460693 53.18779 34.615349
-61.466171 53.187355 34.615349
-61.471649 53.18692 34.615349
-61.477127 53.186485 34.615349
-61.482605 53.18605 34.615349
-61.488083 53.185616 34.615349
-61.493561 53.185181 34.615349
-61.499039 53.184746 34.615349
-61.504517 53.184311 34.615349
-61.509995 53.183876 34.615349
-61.515472 53.183441 34.615349
-61.52095 53.183006 34.615349
-61.526428 53.182571 34.615349
-61.531906 53.182137 34.615349
-61.537384 53.181702 34.615349
-61.542862 53.181267 34.615349
-61.54834 53.180832 34.615349
-61.553818 53.180397 34.615349
-61.559296 53.179962 34.615349
-61.564774 53.179527 34.615349
-61.570251 53.179092 34.615349
-61.575729 53.178658 34.615349
-61.581207 53.178223 34.615349
-61.586685 53.177788 34.615349
-61.592163 53.177353 34.615349
-61.597641 53.176918 34.615349
-61.603119 53.176483 34.615349
-61.608597 53.176048 34.615349
-61.614075 53.175613 34.615349
-61.619553 53.175179 34.615349
-61.625031 53.174744 34.615349
-61.630508 53.174309 34.615349
-61.635986 53.173874 34.615349
-61.641464 53.173439 34.615349
-61.646942 53.173004 34.615349
-61.65242 53.172569 34.615349
-61.657898 53.172134 34.615349
-61.663376 53.1717 34.615349
-61.668854 53.171265 34.615349
-61.674332 53.17083 34.615349
-61.67981 53.170395 34.615349
-61.685287 53.16996 34.615349
-61.690765 53.169525 34.615349
-61.696243 53.16909 34.615349
-61.701721 53.168655 34.615349
-61.707199 53.168221 34.615349
-61.712677 53.167786 34.615349
-61.718155 53.167351 34.615349
-61.723633 53.166916 34.615349
-61.729111 53.166481 34.615349
-61.734589 53.166046 34.615349
-61.740067 53.165611 34.615349
-61.745544 53.165176 34.615349
-61.751022 53.164742 34.615349
-61.7565 53.164307 34.615349
-61.761978 53.163872 34.615349
-61.767456 53.163437 34.615349
-61.772934 53.163002 34.615349
-61.778412 53.162567 34.615349
-61.78389 53.162132 34.615349
-61.789368 53.161697 34.615349
-61.794846 53.161263 34.615349
-61.800323 53.160828 34.615349
-61.805801 53.160393 34.615349
-61.811279 53.159958 34.615349
-61.816757 53.159523 34.615349
-61.822235 53.159088 34.615349
-61.827713 53.158653 34.615349
-61.833191 53.158218 34.615349
-61.838669 53.157784 34.615349
-61.844147 53.157349 34.615349
-61.849625 53.156914 34.615349
-61.855103 53.156479 34.615349
-61.86058 53.156044 34.615349
-61.866058 53.155609 34.615349
-61.871536 53.155174 34.615349
-61.877014 53.154739 34.615349
-61.882492 53.154305 34.615349
-61.88797 53.15387 34.615349
-61.893448 53.153435 34.615349
-61.898926 53.153 34.615349
-61.904404 53.152565 34.615349
-61.909882 53.15213 34.615349
-61.915359 53.151695 34.615349
-61.920837 53.15126 34.615349
-61.926315 53.150826 34.615349
-61.931793 53.150391 34.615349
-61.937271 53.149956 34.615349
-61.942749 53.149521 34.615349
-61.948227 53.149086 34.615349
-61.953705 53.148651 34.615349
-61.959183 53.148216 34.615349
-61.964661 53.147781 34.615349
-61.970139 53.147346 34.615349
-61.969749 53.147156 34.615349
-61.969749 53.147163 34.622898
-61.969749 53.147171 34.630447
-61.969749 53.147179 34.637997
-61.969749 53.147186 34.645546
-61.969749 53.147194 34.653095
-61.969749 53.147202 34.660645
-61.969749 53.147209 34.668194
-61.969749 53.147217 34.675743
-61.969749 53.147224 34.683292
-61.969749 53.147232 34.690842
-61.969749 53.14724 34.698391
-61.969749 53.147247 34.70594
-61.969749 53.147255 34.71349
-61.969749 53.147263 34.721039
-61.969749 53.14727 34.728588
-61.969749 53.147278 34.736137
-61.969749 53.147285 34.743687
-61.969749 53.147293 34.751236
-61.969749 53.147301 34.758785
-61.969749 53.147308 34.766335
-61.969749 53.147316 34.773884
-61.969749 53.147324 34.781433
-61.969749 53.147331 34.788982
-61.969749 53.147339 34.796532
-61.969749 53.147346 34.804081
-61.969749 53.147354 34.81163
-61.969749 53.147362 34.81918
-61.969749 53.147369 34.826729
-61.969749 53.147377 34.834278
-61.969749 53.147385 34.841827
-61.969749 53.147392 34.849377
-61.969749 53.1474 34.856926
-61.969749 53.147408 34.864475
-61.969749 53.147415 34.872025
-61.969749 53.147423 34.879574
-61.969749 53.14743 34.887123
-61.969749 53.147438 34.894672
-61.969749 53.147446 34.902222
