# .PCD v0.7 - Point Cloud Data file format
VERSION 0.7
FIELDS x y z
SIZE 4 4 4
TYPE F F F
COUNT 1 1 1
WIDTH 1560
HEIGHT 1
VIEWPOINT 0 0 0 1 0 0 0
POINTS 1560
DATA ascii
-8.8781652 57.547428 31.119719
-8.8557253 57.561745 30.704874
-8.8940964 57.438591 27.712481
-8.8080854 57.528572 27.438908
-8.7926331 57.536297 27.072777
-8.7999525 57.517612 26.681993
-8.7953835 57.438164 23.502106
-8.7270947 57.50861 23.247126
-8.7192726 57.508984 22.928511
-8.7192793 57.500389 22.605467
-8.7217941 57.488995 22.283859
-9.0594854 57.455151 31.888645
-8.9677658 57.550243 31.573364
-8.9413261 57.568726 31.156845
-8.9320774 57.567219 30.720322
-8.891942 57.522747 27.44059
-8.881216 57.524673 27.067953
-8.8785114 57.517391 26.690325
-8.8640232 57.524017 26.333744
-8.8879004 57.419281 23.492756
-8.8142691 57.495754 23.243847
-8.7923946 57.494637 22.29785
-9.054698 57.520752 31.566877
-9.0192385 57.549812 31.164986
-9.0098505 57.548439 30.728527
-8.9589567 57.516304 27.462595
-8.9529314 57.512707 27.083315
-8.9303322 57.528622 26.731754
-8.9254875 57.523956 26.362013
-8.9423237 57.427132 23.525776
-8.8737898 57.497669 23.270885
-8.8599644 57.49588 22.63492
-8.8675261 57.478359 22.307615
-9.0926027 57.523674 31.629293
-9.0703573 57.537609 31.205412
-9.0653791 57.531483 30.76161
-9.0187435 57.497574 27.487984
-8.9882107 57.522953 27.141577
-8.9851208 57.516449 26.763546
-8.9802055 57.512226 26.393667
-9.0070295 57.40657 23.544422
-8.9279041 57.489658 23.301275
-8.9407988 57.457516 22.636547
-8.9106474 57.484028 22.348803
-9.1762943 57.468178 31.609762
-9.1229277 57.51915 31.236759
-9.1088858 57.524197 30.807154
-9.0712643 57.483807 27.51815
-9.0505114 57.498222 27.158447
-9.0277529 57.515102 26.806519
-9.0326977 57.499855 26.423447
-9.0594482 57.397804 23.573002
-8.9803066 57.481236 23.329784
-8.9827642 57.470139 22.99935
-8.9717045 57.474808 22.687544
-8.9684229 57.470566 22.371248
-9.2358828 57.458084 31.613905
-9.1825762 57.509182 31.24091
-9.1685972 57.514366 30.811304
-9.1354961 57.542118 30.418949
-9.1265926 57.480694 27.528942
-9.1107502 57.489567 27.16258
-9.1127195 57.477833 26.778009
-9.0880718 57.497227 26.434042
-9.1149349 57.396404 23.583021
-9.0570087 57.455383 23.316372
-9.0489454 57.456646 22.997692
-9.0272284 57.473812 22.697361
-9.0455704 57.444695 22.358473
-9.3175392 57.451851 31.572971
-9.2599354 57.507797 31.207405
-9.2370405 57.523201 30.792299
-9.1760693 57.50983 27.537086
-9.1943951 57.478645 27.124386
-9.1866655 57.478008 26.753136
-9.1720562 57.485523 26.39637
-9.1896706 57.393902 23.559427
-9.1212301 57.464943 23.30456
-9.1078453 57.472195 22.99165
-9.107585 57.464329 22.668444
-9.0936232 57.472439 22.363544
-9.3515024 57.509903 31.607471
-9.3160334 57.539497 31.205351
-9.3066359 57.538673 30.768642
-9.2750549 57.487976 27.474039
-9.2446909 57.513271 27.127684
-9.232049 57.508148 26.386358
-9.2545652 57.408169 23.543043
-9.1914196 57.472828 23.282278
-9.1887312 57.467381 22.957905
-9.1778269 57.471569 22.646305
-9.174696 57.466843 22.330231
-9.4266729 57.499935 31.566544
-9.3779917 57.544979 31.186281
-9.3732557 57.538578 30.742479
-9.428977 57.395473 27.72225
-9.3284149 57.502636 27.468845
-9.3127728 57.510654 27.102659
-9.3100061 57.503788 26.724827
-9.3153543 57.487606 26.342247
-9.3241034 57.403042 23.51943
-9.475853 57.490936 31.576189
-9.4273043 57.536221 31.195868
-9.4272575 57.524769 30.744846
-9.3935928 57.479115 27.457878
-9.3781939 57.487232 27.09182
-9.3756723 57.480469 26.714113
-9.3514137 57.499191 26.370367
-9.376049 57.398949 23.527611
-9.3106785 57.458111 22.942572
-9.3107548 57.449818 22.619659
-9.2971201 57.457516 22.315033
-9.5315504 57.461323 31.576443
-9.4832468 57.506889 31.196196
-9.4970884 57.479843 30.723759
-9.442131 57.463909 27.472008
-9.4366875 57.46096 27.092712
-9.3998203 57.494747 26.760702
-9.4053841 57.479248 26.377842
-9.4420357 57.369205 23.523205
-9.3634033 57.45245 23.280138
-9.3504133 57.45966 22.967281
-9.3505545 57.451752 22.644148
-9.3532009 57.44104 22.322445
-9.5599222 57.477581 31.611908
-9.5385571 57.49192 31.188057
-9.5254021 57.496826 30.758612
-9.4896679 57.461002 27.477709
-9.4892511 57.452507 27.091759
-9.4722986 57.46339 26.733667
-9.4682159 57.459427 26.363976
-9.4803066 57.380169 23.53994
-9.4122934 57.451309 23.284986
-9.3994055 57.458652 22.972055
-9.421154 57.425987 22.626085
-9.4132195 57.427784 22.315834
-9.6457453 57.475853 31.556902
-9.6111145 57.50536 31.15497
-9.6207571 57.483173 30.689892
-9.5679455 57.464359 27.439138
-9.5627546 57.461075 27.059973
-9.5508347 57.465771 26.695488
-9.5219755 57.490322 26.358234
-9.5599365 57.378372 23.503691
-9.4867334 57.455307 23.254704
-9.4899502 57.443699 22.924639
-9.4796247 57.447884 22.613167
-9.4716682 57.449413 22.302843
-9.7504225 57.478336 31.482513
-9.7121258 57.49966 30.637777
-9.754674 57.373402 27.648949
-9.6546602 57.480125 27.395731
-9.6494589 57.476131 27.016769
-9.6474123 57.468605 26.639469
-9.6518173 57.380642 23.456774
-9.5839758 57.450882 23.202156
-9.5872517 57.438583 22.872465
-9.5690956 57.442982 22.251385
-9.8269835 57.505909 31.456957
-9.8349476 57.389896 27.617395
-9.7543573 57.473438 27.337681
-9.7394466 57.48016 26.972254
-9.7261095 57.396805 23.432766
-9.6741161 57.448166 23.160713
-9.6720648 57.441494 22.837065
-9.6592798 57.43858 22.210819
-10.009385 57.402325 31.725527
-9.9408865 57.469837 31.37466
-9.9111404 57.491787 30.966549
-9.8939552 57.499126 30.545509
-9.8939228 57.414932 27.621134
-9.8374872 57.469875 27.3081
-9.8471031 57.447521 26.910049
-9.7991104 57.401451 23.417253
-9.755682 57.43322 22.810196
-10.022666 57.45739 31.337553
-9.9841213 57.489586 30.944059
-9.976099 57.485977 30.508873
-9.9821157 57.3937 27.579603
-9.9113111 57.465405 27.286751
-9.9161196 57.448547 26.895403
-9.9192972 57.433781 26.512487
-9.8633251 57.406807 23.409185
-9.8252497 57.432117 22.796377
-9.8257904 57.422134 22.474432
-10.167312 57.383682 31.659193
-10.085767 57.466339 31.330444
-10.074146 57.466549 30.893791
-10.052759 57.478516 30.480364
-10.054679 57.389683 27.559151
-10.003373 57.438366 27.239904
-9.9790144 57.455547 26.888309
-9.9772396 57.446404 26.511892
-9.9155312 57.424568 23.41387
-9.898634 57.424892 22.777834
-9.899229 57.414692 22.456034
-9.8915148 57.414288 22.14687
-10.240441 57.400478 31.664923
-10.167564 57.472473 31.321611
-10.155754 57.472389 30.885025
-10.120401 57.410271 27.571011
-10.068846 57.458858 27.251635
-10.058904 57.458679 26.880238
-10.061901 57.443489 26.497402
-10.004477 57.413048 23.394787
-9.9894352 57.420475 23.082176
-9.9821167 57.419006 22.764919
-10.313651 57.412914 31.687061
-10.224387 57.47509 30.464968
-10.233175 57.371666 27.531773
-10.162262 57.442703 27.23938
-10.147284 57.448063 26.874748
-10.14023 57.444279 26.505035
-10.070078 57.4254 23.414227
-10.065333 57.42046 23.089869
-10.050022 57.407665 22.14196
-10.292076 57.335522 26.406763
-10.298545 57.316082 26.026913
-10.2386 57.30809 23.644983
-10.152968 57.397587 23.408787
-10.137639 57.404999 23.096264
-10.130029 57.403519 22.779087
-10.135588 57.386803 22.451841
-10.12213 57.392391 22.148573
-10.265016 57.29694 22.713926
-10.260377 57.292503 22.399014
-12.442065 57.241928 33.119259
-12.450393 57.301968 33.219357
-12.447212 57.296337 32.737675
-12.46158 57.270393 32.236069
-12.476066 57.244511 31.744352
-12.450098 57.266014 31.32756
-12.459443 57.246475 30.861946
-12.450066 57.248932 30.434248
-12.430551 57.263344 30.029507
-12.442422 57.241337 29.584293
-12.439416 57.236805 29.169096
-12.421023 57.250309 28.783226
-12.434526 57.226837 28.35795
-12.417988 57.238434 27.982082
-12.428847 57.218304 27.57424
-12.423604 57.217007 27.194933
-12.416577 57.217899 26.823807
-12.417582 57.209576 26.447758
-12.401656 57.221004 26.099094
-12.408721 57.205864 25.726315
-12.403606 57.204956 25.374207
-12.401329 57.200851 25.023588
-12.401873 57.193581 24.674507
-12.389636 57.201199 24.345217
-12.374743 57.211975 24.02314
-12.388662 57.189487 23.672531
-12.378905 57.194481 23.353079
-12.376941 57.190544 23.029037
-12.382857 57.177574 22.700661
-12.364332 57.192932 22.402079
-12.364326 57.186954 22.087664
-12.372189 57.171967 21.769106
-12.360505 57.179623 21.473803
-12.362062 57.172054 21.168785
-12.365913 57.161911 20.865095
-12.360857 57.162109 20.573177
-12.352318 57.166378 20.287493
-12.492961 57.32827 33.211868
-12.507298 57.302677 32.70023
-12.49985 57.302681 32.235348
-12.518806 57.272072 31.735975
-12.497343 57.288731 31.311632
-12.502237 57.274837 30.852949
-12.488299 57.283016 30.432049
-12.477991 57.287102 30.012817
-12.475953 57.281708 29.588326
-12.463477 57.288578 29.186537
-12.473382 57.269566 28.758892
-12.467861 57.268604 28.360624
-12.470531 57.258251 27.957342
-12.457178 57.266617 27.582661
-12.456722 57.260124 27.196213
-12.469377 57.238537 26.798447
-12.45055 57.253563 26.448088
-12.454599 57.242172 26.073305
-12.446587 57.244854 25.719337
-12.44143 57.24432 25.366808
-12.439113 57.240593 25.015766
-12.444779 57.227715 24.660122
-12.422132 57.247681 24.342602
-12.422853 57.240696 24.002024
-12.447351 57.20631 23.639269
-12.416468 57.236019 23.343084
-12.414461 57.232426 23.0186
-12.431084 57.207394 22.678352
-12.41257 57.223011 22.379457
-12.412589 57.2173 22.064737
-12.41501 57.208885 21.751371
-12.408813 57.210476 21.450254
-12.399325 57.215927 21.155628
-12.40314 57.2061 20.851477
-12.39804 57.206608 20.559092
-12.400712 57.198219 20.262678
-12.507565 57.344994 33.244839
-12.50894 57.335159 32.755096
-12.514735 57.320343 32.267624
-12.538303 57.285023 31.760616
-12.525978 57.291603 31.321501
-12.522034 57.288582 30.876989
-12.521989 57.281166 30.434446
-12.479549 57.323112 30.064451
-12.472822 57.3237 29.646393
-12.474394 57.314777 29.223198
-12.474869 57.307255 28.808847
-12.474103 57.301289 28.40321
-12.491272 57.274647 27.979216
-12.497501 57.260807 27.577528
-12.482602 57.271549 27.210836
-12.470702 57.278908 26.845512
-12.491686 57.248302 26.442772
-12.460856 57.277756 26.112774
-12.447777 57.286747 25.76461
-12.447671 57.280823 25.405205
-12.445348 57.277546 25.053621
-12.445849 57.271091 24.703569
-12.449157 57.261475 24.355097
-12.464123 57.232853 23.663078
-12.449201 57.244518 23.3489
-12.447356 57.241158 23.024208
-12.437274 57.247368 22.712322
-12.429557 57.250916 22.401569
-12.409766 57.242889 20.583797
-12.595856 57.286518 31.767181
-12.552004 57.329796 31.378643
-12.56139 57.31131 30.912127
-12.551997 57.314789 30.483503
-12.525751 57.296669 27.623486
-12.520422 57.296352 27.243126
-12.495925 57.259357 23.365726
-12.679222 57.302479 31.765169
-12.666586 57.308815 31.325996
-12.643646 57.319202 30.467279
-12.805436 57.300785 31.694366
-12.750737 57.275234 27.529125
-12.9432 57.287136 31.582991
-12.942134 57.196934 27.745201
-12.843829 57.208481 23.535646
-13.029745 57.293518 31.521904
-13.021006 57.207565 27.700468
-12.929403 57.206062 23.487427
-13.091374 57.278584 31.503641
-13.084682 57.19207 27.683317
-12.995422 57.189857 23.471867
-13.130918 57.277626 31.56966
-13.131512 57.186665 27.732437
-13.050863 57.178993 23.505924
-13.201986 57.251781 31.603605
-13.162546 57.277298 30.758146
-13.139371 57.228436 27.459249
-13.118341 57.163101 23.538424
-13.269174 57.239799 31.613909
-13.248049 57.177364 27.802927
-13.15759 57.18449 23.578327
-13.323624 57.26474 31.616213
-13.326035 57.172668 27.770508
-13.22666 57.187946 23.560167
-13.434161 57.24786 31.531578
-13.429626 57.158913 27.704464
-13.322143 57.178112 23.51162
-13.638333 57.150204 31.781681
-13.523702 57.171009 27.671381
-13.425254 57.171162 23.469206
-13.727898 57.181595 31.77326
-13.624043 57.180565 27.642893
-13.518001 57.180382 23.449148
-13.835537 57.166985 31.69899
-13.70982 57.18618 27.60718
-13.598645 57.186184 23.421803
-13.860589 57.208462 31.714823
-13.76873 57.187679 27.572889
-13.918137 57.192467 31.680069
-13.811426 57.192711 27.566738
-13.760098 57.136032 23.65353
-13.984218 57.171494 31.680616
-13.883174 57.167698 27.56119
-13.768846 57.177681 23.389879
-14.058304 57.157654 31.709894
-13.940044 57.173962 27.610039
-13.847737 57.157936 23.406067
-14.126256 57.160301 31.736038
-14.010107 57.172718 27.628288
-13.910201 57.164188 23.429445
-14.190592 57.159706 31.72139
-14.075472 57.170544 27.614235
-13.98188 57.154243 23.410292
-14.259966 57.156204 31.672874
-14.13833 57.173435 27.581568
-14.33772 57.168915 31.643488
-14.220921 57.175617 27.546734
-14.18924 57.090675 23.61199
-14.378428 57.067123 26.283615
-14.360547 57.076145 25.93713
-14.269597 57.092453 23.267391
-14.239038 57.11763 22.973949
-16.406019 57.073647 32.841755
-16.407446 57.058144 32.355011
-16.430864 57.016983 31.841221
-16.401356 57.038506 31.424925
-16.411278 57.013794 30.952263
-16.398335 57.016258 30.524971
-16.398249 57.003819 30.085245
-16.397436 56.992462 29.654627
-16.391104 56.987812 29.239971
-16.393045 56.973652 28.820234
-16.398634 56.955425 28.402515
-16.379236 56.966694 28.027578
-16.382196 56.951935 27.62714
-16.374037 56.95039 27.248606
-16.37882 56.933865 26.858507
-16.367205 56.936703 26.496428
-16.373459 56.918804 26.116434
-16.357889 56.926571 25.770292
-16.360229 56.913567 25.406471
-16.480448 57.071575 31.847691
-16.402441 57.045372 28.0658
-16.404936 57.030422 27.664803
-16.410858 57.011654 27.265749
-16.405529 57.006275 26.888443
-16.388577 57.014687 26.532352
-16.404312 56.984993 26.138885
-16.403385 56.974987 25.773123
-16.400438 56.967506 25.415365
-16.395344 56.9627 25.065462
-16.38797 56.960701 24.723255
-16.388493 56.949631 24.376368
-16.376259 56.95359 24.049213
-16.377039 56.942505 23.711359
-16.364744 56.946793 23.392771
-16.370798 56.929832 23.057875
-16.363533 56.928513 22.741909
-16.364071 56.918232 22.42152
-16.356314 56.917721 22.113811
-16.361761 56.901974 21.796219
-16.358747 56.896175 21.491095
-16.358051 56.887798 21.187248
-16.348604 56.889679 20.895361
-16.352438 56.876251 20.59403
-16.347366 56.873257 20.304436
-16.409609 57.011436 25.105379
-16.396902 57.015614 24.768801
-16.40233 56.998764 24.41519
-16.395069 56.996868 24.08144
-16.395679 56.985935 23.743101
-16.404249 56.965866 23.400427
-16.383801 56.979729 23.094461
-16.38166 56.972393 22.772169
-16.376671 56.968498 22.456966
-16.379509 56.95562 22.137457
-16.368536 56.958908 21.836056
-16.365295 56.95332 21.530277
-16.380867 56.92601 21.209593
-16.371294 56.927994 20.917263
-16.386129 56.901772 20.605001
-16.364223 56.918247 20.330624
-16.403944 57.005779 23.79215
-16.396723 57.004681 23.466669
-16.407949 56.982269 23.125023
-16.384571 57.000183 22.82547
-16.390278 56.984425 22.498316
-16.387747 56.978344 22.183979
-16.376762 56.982182 21.882065
-16.378984 56.970802 21.570301
-16.378096 56.963139 21.26535
-16.379517 56.9529 20.961706
-16.372101 56.952991 20.669905
-16.372437 56.944202 20.374014
-16.375713 56.976776 20.43936
-16.91794 56.990559 31.847366
-16.964523 57.008675 31.891062
-16.880243 56.994324 27.725637
-17.076609 56.972145 31.835377
-16.974154 56.975471 27.701824
-17.146976 57.003746 31.831322
-17.041882 57.003044 27.697206
-17.26041 56.992214 31.732317
-17.400658 57.017506 31.694487
-17.470858 56.989727 31.702747
-17.515888 56.993114 31.817648
-17.572535 56.967167 31.83602
-17.457605 56.971107 27.719753
-17.635635 56.967491 31.84753
-17.519171 56.971741 27.730677
-17.698214 56.985981 31.859724
-17.764875 56.98592 31.848452
-17.823353 56.959099 31.849091
-17.826138 56.962688 31.944431
-17.734804 56.942745 27.781059
-17.743795 56.940506 27.847704
-17.827166 56.986252 31.644594
-17.799059 56.918758 27.843313
-17.700329 56.920158 23.627974
-17.867861 56.918434 27.816446
-18.085508 56.97187 31.927937
-18.167463 56.945869 31.874638
-18.073622 56.930607 27.727072
-18.222212 56.922707 31.845713
-18.25952 56.917995 31.846262
-18.278894 56.911263 27.709383
-18.370796 56.850548 26.169476
-18.442661 56.765949 23.388897
-18.396257 56.809998 23.112783
-20.437105 56.792381 32.886791
-20.417906 56.802322 32.437046
-20.451574 56.751095 31.908434
-20.41394 56.78289 31.506477
-20.420504 56.763607 31.040813
-20.412987 56.760872 30.606041
-20.409306 56.753895 30.173159
-20.400131 56.753471 29.756279
-20.408672 56.732746 29.320292
-20.402121 56.729668 28.914108
-20.403849 56.717197 28.502863
-20.399508 56.711918 28.107119
-20.388834 56.714115 27.726551
-20.391159 56.701466 27.334263
-20.386955 56.69651 26.957005
-20.375967 56.69952 26.594435
-20.378002 56.687672 26.22044
-20.36801 56.689816 25.867348
-20.376173 56.6712 25.496758
-20.36179 56.678654 25.159248
-20.370768 56.659378 24.7983
-20.367123 56.654739 24.457504
-20.360981 56.653084 24.12422
-20.357494 56.648499 23.79232
-20.351339 56.647087 23.467741
-20.347736 56.642853 23.144489
-20.341293 56.641983 22.82836
-20.342718 56.632198 22.50782
-20.341202 56.625885 22.194338
-20.331152 56.629436 21.893278
-20.328892 56.624161 21.587849
-20.323416 56.622654 21.289087
-20.320192 56.618664 20.991495
-20.319206 56.612198 20.695107
-20.320444 56.603275 20.399956
-20.406624 56.757416 26.226566
-20.406475 56.747482 25.86034
-20.409363 56.7342 25.49581
-20.399887 56.73531 25.15172
-20.39319 56.733353 24.809017
-20.399658 56.716373 24.455564
-20.388067 56.72031 24.12796
-20.363241 56.739574 23.819464
-20.377935 56.713528 23.470654
-20.374092 56.708908 23.146986
-20.378168 56.695313 22.818953
-20.368601 56.697487 22.509481
-20.377745 56.678307 22.184387
-20.356573 56.693993 21.894079
-20.359598 56.682037 21.582773
-20.359476 56.673786 21.278271
-20.344942 56.682137 20.991001
-20.360565 56.656059 20.678488
-20.350401 56.659584 20.393442
-20.408884 56.728455 22.841913
-20.404549 56.72448 22.526417
-20.392237 56.721031 21.910439
-20.378227 56.719921 21.310179
-20.380192 56.70924 21.006483
-20.373243 56.708855 20.714596
-20.379745 56.693172 20.413492
-21.531096 56.702671 27.854969
-21.748663 56.709373 31.915434
-21.985521 56.702007 31.905003
-22.051094 56.684151 31.90793
-22.53117 56.524788 26.796919
-22.524731 56.51965 26.430058
-22.501692 56.480701 22.412769
-22.499546 56.47242 22.101194
-22.456301 56.51189 21.835304
-24.410341 56.493153 32.813507
-24.418772 56.472694 32.32074
-24.409607 56.473015 31.8671
-24.413401 56.458393 31.400833
-24.398867 56.465363 30.972895
-24.401707 56.452236 30.52519
-24.399343 56.445358 30.093817
-24.391504 56.445034 29.678476
-24.401268 56.42437 29.243994
-24.377169 56.443298 28.867006
-24.379971 56.431057 28.45706
-24.381514 56.420433 28.055859
-24.386492 56.405968 27.656551
-24.375399 56.41032 27.285812
-24.362474 56.416924 26.923153
-24.367378 56.402958 26.542337
-24.365505 56.396984 26.176294
-24.366657 56.387623 25.811897
-24.365755 56.380768 25.455519
-24.357571 56.382465 25.113262
-24.352133 56.381088 24.772392
-24.34943 56.376648 24.432959
-24.34691 56.364735 23.764555
-24.336437 56.369583 23.44735
-24.339046 56.359394 23.119661
-24.33889 56.352497 22.799253
-24.33585 56.349022 22.485954
-24.319233 56.347748 21.575991
-24.445868 56.541996 32.83765
-24.436502 56.541813 32.374176
-24.44895 56.516308 31.883339
-24.430199 56.527527 31.453218
-24.415209 56.534531 31.024736
-24.417589 56.521412 30.576496
-24.419361 56.509201 30.137487
-24.401865 56.519669 29.735714
-24.406473 56.504501 29.307594
-24.410112 56.490643 28.88847
-24.403143 56.489315 28.491901
-24.409126 56.473057 28.083483
-24.399307 56.475353 27.703945
-24.402405 56.462761 27.312674
-24.389185 56.469296 26.949617
-24.393791 56.455231 26.568419
-24.401594 56.437592 26.189079
-24.382444 56.451397 25.84996
-24.3913 56.432796 25.480417
-24.382833 56.434429 25.137753
-24.377119 56.43298 24.796476
-24.379309 56.422474 24.450521
-24.373878 56.420914 24.118271
-24.365837 56.422482 23.793381
-24.355062 56.427307 23.475679
-24.373306 56.398647 23.130011
-24.362268 56.403973 22.820847
-24.358971 56.400433 22.507122
-24.368916 56.38168 22.183474
-24.365057 56.378971 21.878099
-24.36352 56.373665 21.573971
-24.347754 56.384865 21.287321
-24.350719 56.374519 20.985571
-24.355965 56.361629 20.685177
-24.418951 56.507099 27.35183
-24.415331 56.502396 26.975149
-24.402548 56.49984 26.246204
-24.408188 56.484776 25.8745
-24.406792 56.478016 25.517256
-24.403215 56.473907 25.167868
-24.397333 56.472588 24.826181
-24.399359 56.462212 24.479816
-24.404177 56.448715 24.135071
-24.380318 56.468552 23.827808
-24.390457 56.449104 23.486015
-24.392714 56.438889 23.157633
-24.392208 56.431973 22.836521
-24.378063 56.440926 22.533884
-24.382442 56.428543 22.215427
-24.378401 56.425987 21.909546
-24.37668 56.420834 21.60491
-24.382782 56.406731 21.296156
-24.380154 56.402794 20.999512
-24.374168 56.402805 20.709324
-24.418238 56.474945 24.172808
-24.409645 56.46994 23.517006
-24.401482 56.450623 22.24498
-24.4083 56.435787 21.92765
-24.401127 56.437187 21.628262
-24.3962 56.436069 21.330004
-24.399052 56.42606 21.027594
-24.393032 56.426357 20.737032
-25.447975 56.437862 27.895033
-25.630594 56.471897 32.030041
-25.920792 56.453999 31.97456
-25.974665 56.45126 32.002563
-26.048252 56.444118 31.991602
-26.389961 56.285786 23.804276
-26.489838 56.327736 27.348461
-26.46633 56.331345 26.619791
-26.486025 56.296146 26.22192
-26.57654 56.282993 27.333599
-26.575422 56.272247 26.952267
-26.567797 56.269417 26.585867
-26.563204 56.263165 26.221037
-26.493311 56.258148 23.526123
-26.451517 56.297119 23.246542
-26.448572 56.290413 22.926567
-26.417086 56.297684 22.014402
-26.43095 56.243347 20.791735
-26.62801 56.241764 26.231817
-26.616533 56.244011 25.881565
-26.552629 56.234364 23.216692
-26.52886 56.252357 22.920589
-26.507303 56.267849 22.625309
-26.498606 56.268307 22.319517
-26.508318 56.247227 21.998068
-26.663937 56.236103 26.269268
-26.652393 56.238834 25.918819
-26.608877 56.208241 23.228664
-26.595705 56.214123 22.92098
-26.590176 56.211124 22.608639
-26.587051 56.20541 22.297585
-26.619583 56.209015 22.654554
-28.367241 56.190632 32.370674
-28.364008 56.182159 31.903961
-28.356279 56.179367 31.45406
-28.352509 56.17202 31.006113
-28.348265 56.165462 30.567417
-28.343403 56.159866 30.137863
-28.313116 56.17408 29.333893
-28.31908 56.156021 28.909861
-28.319487 56.144859 28.501781
-28.314068 56.140892 28.109341
-28.307259 56.138767 27.725424
-28.298468 56.129211 26.969296
-28.287649 56.122711 26.23959
-28.266634 56.110664 24.843826
-28.232672 56.090969 22.577854
-28.408255 56.216175 32.386955
-28.409245 56.202576 31.912664
-28.401505 56.199795 31.462645
-28.38899 56.203014 31.02915
-28.375837 56.207218 30.604668
-28.379688 56.191078 30.160419
-28.37845 56.181297 29.732542
-28.367329 56.183655 29.327778
-28.364216 56.176533 28.917711
-28.359991 56.17094 28.516426
-28.354515 56.167034 28.123796
-28.361721 56.148033 27.719315
-28.348719 56.15353 27.350513
-28.34828 56.144066 26.969849
-28.341394 56.142513 26.604147
-28.352036 56.120056 26.220419
-28.32682 56.140812 25.890421
-28.333708 56.123161 25.523037
-28.323784 56.125824 25.182827
-28.32655 56.1134 24.831453
-28.317057 56.115799 24.500343
-28.315229 56.109138 24.164425
-28.310955 56.105526 23.836061
-28.298977 56.111252 23.521076
-28.304928 56.095638 23.18951
-28.297867 56.095695 22.877113
-28.287952 56.099266 22.571739
-28.290892 56.087585 22.256105
-28.275026 56.098454 21.96447
-28.277328 56.08773 21.657087
-28.276587 56.080738 21.356598
-28.26729 56.084038 21.068232
-28.438766 56.265274 32.422157
-28.435236 56.256924 31.954926
-28.435854 56.243793 31.489809
-28.427511 56.24176 31.048731
-28.423018 56.235291 30.60956
-28.422352 56.224403 30.172359
-28.421005 56.214558 29.744303
-28.400726 56.227806 29.353434
-28.411127 56.204163 28.922125
-28.397621 56.209595 28.534548
-28.39665 56.200073 28.134815
-28.394371 56.192307 27.743729
-28.390646 56.186459 27.361155
-28.394869 56.171204 26.973639
-28.378315 56.181129 26.620996
-28.383968 56.164474 26.243544
-28.38299 56.155956 25.880896
-28.370216 56.161762 25.539099
-28.37007 56.152531 25.185963
-28.362791 56.152 24.846979
-28.35317 56.154408 24.515594
-28.361338 56.135597 24.167158
-28.357008 56.131908 23.838659
-28.344976 56.137562 23.523533
-28.340528 56.134243 23.203659
-28.348955 56.11562 22.873451
-28.339024 56.119087 22.568005
-28.347208 56.100983 22.246605
-28.34197 56.099041 21.943705
-28.323002 56.113598 21.658699
-28.316839 56.112946 21.36355
-28.312862 56.109768 21.069553
-28.31106 56.104088 20.776741
-28.311419 56.095917 20.485151
-28.437361 56.244862 27.752197
-28.433434 56.238773 27.369373
-28.423166 56.240513 27.001575
-28.42551 56.227192 26.622114
-28.421324 56.22192 26.257524
-28.405481 56.23085 25.913921
-28.416945 56.207024 25.53964
-28.411694 56.203491 25.192635
-28.409218 56.196754 24.847128
-28.404476 56.192883 24.509352
-28.397346 56.192013 24.179148
-28.397896 56.182041 23.844259
-28.385693 56.187515 23.528849
-28.391399 56.1716 23.196886
-28.399712 56.152691 22.866556
-28.389681 56.155903 22.560965
-28.381954 56.156456 22.256523
-28.381817 56.148014 21.947645
-28.362692 56.162418 21.662334
-28.367098 56.148743 21.355942
-28.363024 56.145317 21.061802
-28.36655 56.132896 20.763521
-28.355923 56.137493 20.482378
-30.517672 56.062672 27.294298
-30.489807 56.075161 26.578938
-30.62204 55.998703 26.86367
-30.633232 55.973625 26.474205
-30.596159 56.009544 26.159245
-30.558002 55.976662 23.456091
-30.563122 55.960777 23.127291
-30.52042 56.004936 22.859144
-30.499842 56.021461 22.567921
-30.50178 56.009903 22.254501
-30.470133 56.040478 21.982372
-30.618412 55.935528 21.887287
-32.294765 55.874512 28.012953
-32.403934 55.909134 31.357182
-32.402443 55.899025 30.905756
-32.396572 55.894962 30.47109
-32.381927 55.902744 30.060175
-32.38316 55.889706 29.629232
-32.379551 55.883289 29.214657
-32.375099 55.878193 28.809055
-32.361088 55.885921 28.426371
-32.363113 55.872639 28.024277
-32.350952 55.878281 27.651758
-32.339897 55.872543 26.90447
-32.329487 55.857006 25.819227
-32.316387 55.864811 25.482494
-32.324333 55.845055 25.121225
-32.311157 55.844196 24.454895
-32.303627 55.845196 24.130095
-32.298527 55.843124 23.806623
-32.300644 55.831707 23.478413
-32.295574 55.829838 23.163851
-32.273376 55.850533 22.874519
-32.287495 55.82373 22.544641
-32.279465 55.826065 22.24577
-32.278545 55.819183 21.942293
-32.264858 55.829117 21.657238
-32.268242 55.816807 21.356266
-32.263695 55.814968 21.06781
-32.261189 55.810555 20.780516
-32.255596 55.810257 20.499825
-32.446602 55.976563 31.423447
-32.444572 55.966755 30.9715
-32.446346 55.952137 30.521631
-32.443653 55.943699 30.088469
-32.432072 55.9473 29.678944
-32.432236 55.935509 29.25679
-32.431641 55.924942 28.843729
-32.413033 55.938473 28.467772
-32.410355 55.931057 28.072279
-32.406513 55.925377 27.685507
-32.401375 55.921589 27.30732
-32.403671 55.908134 26.924026
-32.400097 55.90263 26.556023
-32.399414 55.893459 26.189674
-32.387989 55.898647 25.844795
-32.388367 55.888393 25.488237
-32.373062 55.898987 25.15918
-32.374176 55.88805 24.812151
-32.37328 55.879913 24.473087
-32.360813 55.887157 24.154339
-32.36021 55.878891 23.824413
-32.366882 55.861183 23.489883
-32.356812 55.865635 23.181232
-32.344143 55.873615 22.879738
-32.333652 55.878838 22.579327
-32.335159 55.868389 22.268362
-32.334 55.861565 21.964603
-32.335041 55.851952 21.662186
-32.328247 55.85273 21.372387
-32.328545 55.844296 21.078165
-32.341099 55.819901 20.774302
-32.325226 55.832859 20.50449
-32.422523 55.957436 25.179157
-32.417522 55.944374 24.498728
-32.413364 55.930759 23.836882
-32.41502 55.919224 23.508202
-32.404713 55.923618 23.199202
-32.396656 55.925156 22.891384
-32.390839 55.923851 22.584785
-32.392162 55.913246 22.273619
-32.390823 55.906269 21.969654
-32.381737 55.909607 21.678406
-32.379719 55.903736 21.382633
-32.384846 55.888565 21.082586
-32.376938 55.890652 20.800406
-32.370998 55.890244 20.519279
-34.532471 55.664085 21.429024
-34.609634 55.768917 27.368315
-34.594975 55.782204 27.014154
-34.608421 55.755985 26.620535
-34.599228 55.761806 26.26943
-34.613564 55.688457 23.521904
-34.585964 55.721008 23.240406
-34.578712 55.725056 22.935274
-34.573593 55.726192 22.631342
-34.570591 55.72443 22.32865
-34.56028 55.733002 22.038933
-34.599331 55.672432 21.692459
-36.421352 55.620121 30.033627
-36.417606 55.616264 29.613293
-36.413258 55.613483 29.202103
-36.400475 55.623478 28.814356
-36.399281 55.607536 28.015135
-36.395275 55.604889 27.63237
-36.394115 55.598148 27.251303
-36.391754 55.593346 26.878891
-36.380394 55.586136 25.805523
-36.376232 55.584541 25.459785
-36.371101 55.576973 24.7794
-36.365765 55.57748 24.451162
-36.362736 55.574665 24.124311
-36.361996 55.568558 23.798895
-36.350441 55.578613 23.493683
-36.346012 55.564465 22.560745
-36.342812 55.562492 22.260506
-36.346157 55.550911 21.955645
-36.337929 55.556557 21.669712
-36.336166 55.552715 21.379091
-36.338425 55.536705 20.80163
-36.323765 55.552174 20.53701
-36.33424 55.53054 20.245842
-36.313618 55.554958 19.993948
-36.485867 55.679981 30.072977
-36.485191 55.670361 29.64497
-36.480198 55.667435 29.233488
-36.474491 55.665775 28.83103
-36.471821 55.659737 28.430332
-36.468262 55.655216 28.038544
-36.459732 55.658321 27.662561
-36.457966 55.651455 27.281189
-36.45903 55.640511 26.901571
-36.458851 55.631588 26.530598
-36.445045 55.643219 26.188444
-36.446049 55.632832 25.827454
-36.441368 55.631088 25.481461
-36.439163 55.625774 25.136978
-36.439426 55.616917 24.794052
-36.433624 55.617237 24.465618
-36.430126 55.614243 24.138573
-36.433243 55.601505 23.80665
-36.416939 55.617844 23.507545
-36.415798 55.611683 23.190901
-36.408016 55.615524 22.88789
-36.411175 55.603172 22.574003
-36.4165 55.587708 22.261631
-36.401436 55.602684 21.98028
-36.410892 55.58128 21.670704
-36.399639 55.590767 21.391523
-36.399391 55.583981 21.10194
-36.401066 55.574429 20.813641
-36.395344 55.575951 20.537733
-36.391403 55.574902 20.262888
-36.384533 55.578285 19.99453
-36.490211 55.685429 25.861399
-36.485222 55.683811 25.51502
-36.486889 55.672348 25.163574
-36.478443 55.676189 24.833338
-36.480808 55.663963 24.49156
-36.472767 55.66745 24.170555
-36.466953 55.667721 23.850849
-36.463352 55.664803 23.532482
-36.461952 55.65871 23.2155
-36.458332 55.656052 22.906044
-36.461262 55.643719 22.591887
-36.457417 55.641613 22.291166
-36.446598 55.650009 22.0035
-36.451263 55.635406 21.6994
-36.457989 55.61784 21.396791
-36.452999 55.617828 21.112749
-36.454491 55.608261 20.824238
-36.439312 55.623604 20.559181
-36.430477 55.629578 20.289436
-36.423359 55.633068 20.020639
-38.795128 55.496014 30.608757
-38.773933 55.494659 30.188929
-38.723625 55.456284 27.115784
-38.688454 55.482788 26.788877
-38.651836 55.512108 26.46979
-38.617424 55.53817 26.151524
-38.610859 55.430252 24.702913
-38.800243 55.432789 26.786497
-38.778168 55.437412 26.440098
-38.747334 55.457092 26.115612
-38.642147 55.423744 23.797642
-38.686665 55.455208 23.563637
-38.76696 55.401436 22.947176
-38.751461 55.399017 22.648861
-38.725616 55.413986 22.370007
-38.689125 55.446739 22.110027
-38.666798 55.456497 21.832634
-38.674244 55.391697 21.216639
-38.6619 55.386131 20.937048
-38.629848 55.413013 20.686928
-38.62534 55.395248 20.403692
-38.600868 55.410275 20.149414
-40.558552 55.393467 31.404799
-40.534588 55.376156 30.953272
-40.481564 55.354702 30.094051
-40.605232 55.446358 31.110538
-40.586246 55.419338 30.652514
-40.564632 55.398521 30.211782
-40.54015 55.384266 29.788076
-40.518909 55.365204 29.36622
-40.500908 55.341362 28.94628
-40.58736 55.438942 29.510115
-40.567825 55.416115 29.089333
-40.551514 55.388535 28.670517
-40.522022 55.386292 28.290171
-40.511925 55.349545 27.875193
-40.494946 55.326477 27.483883
-40.467346 55.323738 27.122866
-40.435528 55.329529 26.777376
-40.602474 55.435081 28.406864
-40.581066 55.417366 28.012951
-40.552624 55.41362 27.642361
-40.543739 55.375023 27.237665
-40.527721 55.350548 26.856297
-40.497337 55.353203 26.511753
-40.486809 55.320637 26.133827
-40.461525 55.315739 25.792215
-40.438683 55.307224 25.45199
-40.590065 55.426071 26.998764
-40.572025 55.404701 26.625338
-40.560204 55.372955 26.246729
-40.530239 55.375217 25.911364
-40.516766 55.348328 25.549969
-40.50238 55.324001 25.197134
-40.483356 55.308903 24.859413
-40.452194 55.316441 24.549723
-40.57415 55.416576 25.671249
-40.562107 55.386662 25.310833
-40.549122 55.359367 24.958965
-40.52784 55.347961 24.628782
-40.516197 55.319927 24.286884
-40.49226 55.314835 23.972754
-40.470501 55.306522 23.659885
-40.450901 55.295013 23.348322
-40.429661 55.287098 23.044411
-40.564503 55.394238 24.399811
-40.554222 55.363365 24.058802
-40.53157 55.355633 23.745375
-40.507343 55.351418 23.439625
-40.504078 55.310257 23.103493
-40.468952 55.326912 22.825529
-40.458675 55.299717 22.511219
-40.446712 55.276218 22.204624
-40.417324 55.284332 21.929758
-40.557896 55.386364 23.2029
-40.548336 55.355904 22.88039
-40.525753 55.349564 22.58433
-40.509018 55.333366 22.283331
-40.486557 55.328041 21.9958
-40.466 55.319889 21.709393
-40.459213 55.287842 21.406404
-40.446533 55.266895 21.116722
-40.411682 55.28574 20.863058
-40.559891 55.379055 22.057434
-40.546219 55.357151 21.75861
-40.530647 55.339298 21.467142
-40.517029 55.318569 21.177006
-40.497364 55.309208 20.899803
-40.487572 55.282867 20.612305
-40.455326 55.296852 20.360083
-40.449196 55.265137 20.075081
-40.420223 55.274242 19.82456
-40.405251 55.259132 19.558456
-40.529018 55.346748 20.408688
-40.501575 55.351265 20.151152
-40.500374 55.30975 19.861404
-40.480453 55.301952 19.600487
-42.781273 55.246548 31.94243
-42.835999 55.234417 30.688522
-42.898853 55.225136 30.249365
-42.75983 55.227211 29.075073
-42.790386 55.19096 28.254793
-42.760246 55.2775 27.60829
-42.809635 55.197567 26.792587
-42.746849 55.2416 26.501192
-42.686584 55.197823 25.787481
-42.862041 55.191296 26.438143
-42.804272 55.225418 26.14072
-42.748352 55.173576 25.430397
-42.895844 55.192768 26.122276
-42.855526 55.191376 25.790911
-42.833275 55.153824 25.426275
-42.791428 55.158253 25.111357
-42.784286 55.160484 24.509922
-42.725365 55.187489 23.647274
-42.809162 55.214912 23.403265
-42.86364 55.142635 23.051899
-42.803623 55.191822 22.809174
-42.755386 55.217762 22.547699
-42.834557 55.142292 22.492645
-42.767525 55.207699 22.269434
-42.711758 55.183117 21.694807
-42.688507 55.162922 21.406275
-42.848293 55.144226 22.216854
-42.800476 55.17205 21.963215
-42.77906 55.147648 21.667542
-42.752457 55.134552 21.385265
-42.750469 55.138084 20.830667
-42.72179 55.131126 20.563311
-42.698521 55.114239 20.291241
-42.733372 55.124367 19.991472
-42.705914 55.116589 19.732864
-42.779987 55.098343 19.670715
-42.693562 55.206898 19.500982
-44.637535 55.138035 31.096695
-44.633209 55.179993 30.716936
-44.605415 55.123127 30.233326
-44.646046 55.190849 30.323601
-44.621292 55.128803 29.841869
-44.579796 55.10886 29.423447
-44.660675 55.178326 29.933365
-44.631378 55.129292 29.476374
-44.595215 55.098976 29.051861
-44.661613 55.180122 29.577145
-44.624969 55.150803 29.151936
-44.59412 55.110401 28.721191
-44.629021 55.167992 28.818497
-44.606159 55.111134 28.374321
-44.562435 55.104801 27.998913
-44.52412 55.087955 27.617641
-44.644901 55.17009 28.472824
-44.619358 55.12125 28.045109
-44.588863 55.086143 27.641602
-44.661369 55.16679 28.142448
-44.632973 55.126392 27.730959
-44.599373 55.100109 27.343342
-44.563004 55.082092 26.971924
-44.64164 55.12566 27.430475
-44.604889 55.108627 27.058502
-44.579235 55.068199 26.66667
-44.642078 55.131828 27.146685
-44.6161 55.092468 26.754251
-44.587288 55.061489 26.378031
-44.65313 55.132713 26.841412
-44.626751 55.096214 26.457449
-44.603142 55.055344 26.075428
-44.564816 55.049351 25.73732
-44.646107 55.108479 26.153074
-44.621796 55.070473 25.779419
-44.588398 55.0546 25.435402
-44.635986 55.11578 25.508549
-44.616165 55.070095 25.137947
-44.581009 55.060371 24.810207
-44.545029 55.053822 24.490538
-44.508114 55.050621 24.178793
-44.664474 55.137604 25.219534
-44.64056 55.10173 24.863899
-44.613102 55.075386 24.523586
-44.581875 55.05888 24.198259
-44.546661 55.052525 23.887583
-44.519745 55.02911 23.565014
-44.628078 55.11264 24.262947
-44.601616 55.086311 23.931854
-44.577412 55.056393 23.60235
-44.546001 55.04369 23.293951
-44.51981 55.020752 22.980419
-44.486053 55.015537 22.687422
-44.621975 55.091232 23.641529
-44.590309 55.078888 23.332737
-44.56702 55.04932 23.012386
-44.542679 55.02335 22.699989
-44.5042 55.029388 22.420551
-44.632229 55.119366 23.379543
-44.611805 55.083248 23.052299
-44.580803 55.071697 22.752218
-44.558212 55.04287 22.440788
-44.531155 55.024971 22.143354
-44.49612 55.025444 21.865711
-44.625027 55.109844 22.802139
-44.605335 55.074421 22.483938
-44.574745 55.06406 22.192326
-44.555889 55.029217 21.883411
-44.532433 55.00552 21.588308
-44.497452 55.007736 21.318695
-44.647224 55.113041 22.533215
-44.622822 55.088913 22.22867
-44.59713 55.068748 21.931734
-44.579987 55.031101 21.623959
-44.551483 55.019188 21.341955
-44.524754 55.004406 21.06111
-44.496372 54.994102 20.787342
-44.61145 55.097656 21.684151
-44.592556 55.064487 21.383383
-44.568886 55.042767 21.096098
-44.536827 55.040092 20.827808
-44.520145 55.005268 20.537188
-44.612316 55.087929 21.122028
-44.586792 55.07077 20.841555
-44.573311 55.028641 20.544851
-44.551388 55.005699 20.267073
-44.520725 55.002331 20.007618
-44.495136 54.988926 19.743464
-44.610996 55.077541 20.56385
-44.595749 55.039845 20.274178
-44.575394 55.014114 19.997429
-44.546227 55.00811 19.738813
-44.522141 54.992039 19.475607
-44.607582 55.067612 20.023796
-44.58873 55.039272 19.747892
-44.560982 55.030811 19.489927
-44.622593 55.087727 19.781076
-44.605255 55.056915 19.506033
-46.88472 55.025093 31.499372
-46.906124 55.013332 31.092642
-46.917 55.007355 30.702305
-46.853161 55.036167 30.326464
-46.926628 54.995819 30.300383
-46.842945 55.00145 27.607929
-46.863644 54.998711 27.217779
-46.894722 54.963696 26.800926
-46.926289 54.924442 26.398203
-46.851631 55.003414 26.143749
-46.843475 54.914005 25.713665
-46.939091 54.917126 26.054935
-46.819866 54.915703 24.770733
-46.785721 54.921188 24.184381
-46.800579 54.962303 23.65461
-46.836121 54.948368 23.342052
-46.892216 54.895901 23.000742
-46.824486 54.971981 22.777477
-46.898045 54.88092 22.417755
-46.84483 54.923016 22.170221
-46.796379 54.868301 21.565514
-46.831387 54.863461 21.299301
-46.737915 54.924072 20.809732
-46.823547 54.869499 20.777559
-46.788254 54.873642 20.516174
-46.828342 54.857658 20.255136
-46.771332 54.837814 19.725458
-46.84214 54.835167 19.738317
-46.774101 54.920914 19.547564
-46.825718 54.881084 19.277903
-48.766666 54.899532 32.174316
-48.766724 54.905483 31.742264
-48.759789 54.911053 31.318148
-48.756332 54.914001 30.906233
-48.764412 54.893242 30.487068
-48.759365 54.901665 30.10898
-48.699844 54.906853 29.304846
-48.660458 54.879745 28.879789
-48.623875 54.847427 28.456684
-48.673687 54.8899 28.514162
-48.637283 54.859234 28.10005
-48.699005 54.901741 28.146889
-48.658016 54.885571 27.756392
-48.626244 54.845375 27.345655
-48.583981 54.879951 26.94973
-48.550064 54.849983 26.564316
-48.513962 54.828659 26.195019
-48.506977 54.87315 25.889387
-48.479759 54.830322 25.50886
-48.438049 54.830421 25.178982
-48.523682 54.874481 25.576973
-48.486446 54.861687 25.232651
-48.456207 54.831276 24.87602
-48.425724 54.803608 24.527983
-48.543697 54.859531 25.2637
-48.508446 54.843227 24.920645
-48.475288 54.822983 24.579102
-48.439224 54.812679 24.252651
-48.588654 54.875557 25.31666
-48.550812 54.866718 24.980108
-48.51746 54.84716 24.638103
-48.486195 54.823685 24.297657
-48.449432 54.817238 23.978937
-48.555111 54.879154 24.701756
-48.528645 54.842548 24.347223
-48.494308 54.829731 24.021393
-48.45681 54.827286 23.710253
-48.428867 54.800175 23.380548
-48.39246 54.797817 23.078533
-48.56881 54.866917 24.40465
-48.531864 54.861759 24.085062
-48.501873 54.838978 23.753433
-48.466156 54.833649 23.443132
-48.440052 54.803532 23.114487
-48.585857 54.844967 24.102053
-48.550873 54.836609 23.78364
-48.515182 54.831757 23.473125
-48.486488 54.809231 23.150774
-48.459705 54.783092 22.829948
-48.426846 54.775002 22.529882
-48.567276 54.836369 23.496952
-48.533379 54.828438 23.187447
-48.503887 54.809921 22.872734
-48.462967 54.823963 22.591454
-48.431625 54.813232 22.291988
-48.412853 54.770016 21.968714
-48.545391 54.858227 22.921448
-48.520157 54.829464 22.601234
-48.488789 54.818909 22.30163
-48.459122 54.805088 22.003277
-48.425674 54.802731 21.718615
-48.407639 54.760334 21.40436
-48.371887 54.766586 21.134323
-48.546055 54.836502 22.314253
-48.518936 54.815506 22.009439
-48.488117 54.805889 21.718447
-48.453415 54.807949 21.440912
-48.436932 54.762375 21.127972
-48.405411 54.75832 20.85281
-48.375378 54.751373 20.578686
-48.547985 54.828392 21.7262
-48.515869 54.823112 21.442341
-48.493641 54.792439 21.141403
-48.464733 54.780991 20.859985
-48.431702 54.781647 20.591583
-48.411556 54.749165 20.300709
-48.545242 54.839806 21.163879
-48.513264 54.83601 20.88805
-48.491245 54.80666 20.595501
-48.46233 54.796955 20.321981
-48.437775 54.776749 20.043791
-48.408928 54.768978 19.778296
-48.358444 54.737476 19.244871
-48.522617 54.814854 20.31909
-48.495033 54.802238 20.046551
-48.466022 54.794472 19.780855
-48.438423 54.783962 19.516191
-48.412228 54.770729 19.252594
-48.384453 54.762608 18.995583
-48.358017 54.751881 18.739557
-48.338997 54.72279 18.473866
-48.556164 54.815971 20.048668
-48.527031 54.808239 19.782839
-48.50222 54.790031 19.512413
-48.470039 54.792339 19.259869
-48.442116 54.78429 19.002649
-48.412529 54.78149 18.751829
-48.393311 54.752499 18.485859
-48.36636 54.744576 18.23703
-48.552647 54.822914 19.535469
-48.526207 54.809914 19.27145
-48.501163 54.794205 19.008528
-48.465549 54.80724 18.768387
-48.44619 54.778427 18.502125
-48.419136 54.770695 18.253
-48.39642 54.752506 17.999613
-48.371925 54.739792 17.752453
-48.354942 54.70853 17.496191
-48.517273 54.8232 18.781122
-48.503883 54.77877 18.503952
-48.47686 54.771149 18.254747
-48.451099 54.761047 18.00647
-48.420422 54.764507 17.76939
-48.394012 54.757618 17.527956
-48.368805 54.748363 17.287386
-48.351131 54.720512 17.037922
-48.52541 54.802017 18.280542
-48.50565 54.776241 18.021502
-48.478012 54.7719 17.779074
-48.45158 54.765179 17.537485
-48.413822 54.78846 17.316645
-48.392834 54.769043 17.071613
-48.376278 54.739052 16.822832
-48.354591 54.723003 16.584789
-48.330853 54.712883 16.352386
-48.533031 54.795731 17.799917
-48.51265 54.773125 17.547934
-48.487331 54.764198 17.30706
-48.463203 54.752914 17.067076
-48.433918 54.75563 16.837654
-48.40572 54.756165 16.608873
-48.388268 54.729824 16.366749
-48.355808 54.74247 16.148739
-48.538906 54.790962 17.32266
-48.514641 54.77985 17.082378
-48.4884 54.774563 16.847836
-48.472847 54.742409 16.599844
-48.436096 54.765484 16.385817
-48.409981 54.761784 16.158241
-48.39146 54.739326 15.922347
-48.512043 54.795559 16.624449
-48.487991 54.785908 16.391205
-48.465057 54.774029 16.158804
-48.439995 54.768246 15.931785
-48.412724 54.768665 15.70994
-48.495571 54.778965 15.934474
-48.478081 54.754436 15.699162
-48.526436 54.780663 15.713475
-48.503437 54.770813 15.487638
-50.915989 54.757698 31.436995
-50.872368 54.776386 30.556309
-50.751568 54.744957 28.853867
-50.777805 54.73465 27.736561
-50.857422 54.732681 26.829477
-50.884094 54.69059 26.455166
-50.897518 54.695606 26.141628
-50.850124 54.720562 25.821255
-50.823372 54.680271 25.438913
-50.741783 54.696983 24.790165
-50.803112 54.667225 24.805233
-50.800056 54.679703 23.660694
-50.861217 54.658661 23.065769
-50.86351 54.636723 22.447474
-50.812378 54.694675 22.2033
-50.771309 54.623386 21.567062
-50.80571 54.624218 21.277187
-50.776752 54.61771 20.993225
-50.721806 54.692089 20.775974
-50.707939 54.641541 20.464117
-50.778725 54.630955 20.446772
-50.751163 54.623116 20.171837
-50.790924 54.600159 19.881399
-50.753109 54.625454 19.637178
-50.769791 54.664322 19.402018
-50.810345 54.626682 19.120825
-50.767967 54.668404 18.894674
-50.846329 54.59074 18.85075
-50.81049 54.614079 18.614525
-50.707321 54.594425 17.618229
-50.846481 54.577518 18.356501
-50.810219 54.604256 18.126776
-50.766754 54.653114 17.912901
-50.75695 54.602089 17.637806
-50.740231 54.572739 17.379505
-50.710804 54.581902 17.147247
-50.786671 54.596603 17.410353
-50.765556 54.58144 17.162867
-50.74836 54.555511 16.911551
-50.803997 54.558746 16.922947
-50.757008 54.621868 16.725492
-50.73336 54.616489 16.48982
-50.70787 54.617184 16.259613
-50.68623 54.607243 16.025524
-50.816586 54.548653 16.452747
-50.788418 54.557529 16.227724
-50.752563 54.589508 16.016951
-50.729061 54.585747 15.788299
-50.689037 54.630699 15.586884
-50.772522 54.573372 15.552171
-50.785793 54.58363 15.107757
-52.704647 54.660156 32.104855
-50.796318 54.54295 14.430285
-50.752048 54.602322 14.242403
-50.690056 54.577938 13.594222
-50.67009 54.568771 13.380738
-52.677216 54.662735 31.195969
-50.795155 54.535854 13.781746
-50.771309 54.537262 13.571725
-50.74213 54.554367 13.369425
-50.71059 54.578514 13.170843
-50.695278 54.556652 12.955021
-50.77422 54.516544 12.930779
-52.661106 54.627777 28.191158
-52.64806 54.620884 27.418333
-52.650246 54.598858 26.311548
-52.632481 54.578575 25.600891
-52.591213 54.595272 24.585579
-52.576656 54.583927 23.936291
-52.566319 54.563732 23.299595
-52.560741 54.535912 22.675957
-52.578152 54.571037 22.414312
-52.55772 54.526859 22.080404
-52.555851 54.540352 21.508734
-52.550133 54.576035 20.960409
-52.532333 54.529575 20.646078
-52.533314 54.539635 20.0954
-52.515087 54.498775 19.797256
-52.538708 54.527229 19.545048
-52.520733 54.48806 19.255257
-52.517612 54.493725 18.744047
-52.513485 54.509029 18.258459
-52.496826 54.471802 17.985559
-52.515236 54.510303 17.7826
-52.503246 54.459667 17.506771
-52.520336 54.498463 17.316322
-52.503185 54.467762 17.057703
-52.522751 54.50359 16.866333
-52.507679 54.468204 16.609552
-52.506611 54.487862 16.173132
-52.489544 54.462318 15.928656
-52.502926 54.519264 15.743143
-52.490307 54.480785 15.495666
-52.481335 54.431179 15.245226
-52.501728 54.493156 15.064109
-52.489269 54.456455 14.823996
-52.49572 54.501358 14.416067
-52.485748 54.45813 14.178648
-52.471352 54.430195 13.950346
-52.481167 54.461479 13.541453
-52.466331 54.436264 13.31912
-1.5285702 58.123955 40.017727
-1.5276127 58.079346 39.321579
-1.5220444 58.047913 38.648533
-1.5062892 58.04454 38.010937
-1.4853959 58.055584 37.395168
-1.4863685 58.008732 36.737801
-1.4588964 57.99567 35.519718
-1.4312683 57.985352 34.336437
-1.6720415 58.094883 39.305511
-1.6006521 58.018211 35.511009
-1.5606633 58.083275 34.973034
-1.5452168 58.082756 34.388168
-1.4863064 58.078186 32.119576
-1.4806437 58.054016 31.552675
-1.48037 58.015945 30.982834
-1.4679817 58.010746 30.443451
-1.4431751 58.039124 29.933502
-1.4412051 58.006985 29.387499
-1.4415861 57.969055 28.844131
-1.4203035 57.989223 28.345253
-1.4312325 57.924107 27.796467
-1.4141785 57.933796 27.30155
-1.4021859 57.930393 26.803329
-1.389154 57.930096 26.311934
-1.3811978 57.916691 25.817497
-1.3505082 57.896534 24.374191
-1.4362906 57.965256 22.997911
-1.4162637 57.986134 22.551353
-1.4138758 57.960388 22.084793
-1.3972613 57.972698 21.640928
-1.3638335 57.967476 20.308989
-1.3701627 57.919968 19.851284
-1.358575 57.92012 19.418249
-1.3650472 57.872768 18.968168
-1.3467774 57.891003 18.548882
-1.3366441 57.887939 18.123461
-1.3247192 57.889793 17.702698
-1.3076119 57.905476 17.289722
-1.3053917 57.88213 16.864548
-1.3080876 57.846058 16.437721
-1.2920513 57.859432 16.03116
-1.2876096 57.842491 15.616347
-1.2744291 57.848663 15.211611
-1.2694075 57.805489 14.390921
-1.2494806 57.801983 13.591091
-1.5412022 57.902687 14.805409
-2.1421154 57.962124 27.224901
-1.8422711 57.887253 14.788531
-1.9987257 57.860439 14.775109
-2.6238127 58.016918 35.347275
-2.2372079 57.899357 18.918665
-2.8458936 58.056259 39.068844
-2.2926612 57.83952 14.759054
-2.9088304 58.003265 35.295231
-2.8201127 57.962509 31.306557
-2.7187817 57.945057 27.156443
-2.6181841 57.915649 22.867571
-2.4389939 57.828979 14.748812
-2.9611096 57.970367 31.294773
-2.868274 57.928185 27.131176
-2.6786897 57.859909 18.874647
-2.5801957 57.83606 14.7455
-3.2113943 57.960854 35.218159
-3.1184714 57.932243 31.247721
-3.0153556 57.920113 27.10976
-2.9155195 57.888287 22.828499
-2.7278399 57.825218 14.735268
-3.264585 57.925613 31.222143
-2.8817024 57.796257 14.718104
-3.4162054 57.902657 31.185448
-3.5386713 57.887691 30.088558
