# .PCD v0.7 - Point Cloud Data file format
VERSION 0.7
FIELDS x y z
SIZE 4 4 4
TYPE F F F
COUNT 1 1 1
WIDTH 1558
HEIGHT 1
VIEWPOINT 0 0 0 1 0 0 0
POINTS 1558
DATA ascii
-3.7269289 57.474567 20.341436
-3.7023437 57.515465 19.930489
-3.6278839 57.508648 17.001678
-3.6186564 57.471924 16.176308
-3.5938349 57.483444 15.377732
-3.5847683 57.479294 14.978319
-4.2972331 57.642189 38.446522
-4.2879119 57.618908 37.795883
-4.2543163 57.622849 36.567741
-4.2175031 57.59066 34.757763
-4.2044802 57.583729 34.174118
-4.1732364 57.588367 33.044319
-4.166923 57.561951 32.468178
-4.1433287 57.591118 31.941338
-4.1217756 57.569592 30.847452
-4.1059771 57.532036 29.768747
-4.092279 57.532406 29.252174
-4.0728469 57.551357 28.753782
-4.0705643 57.516621 28.225183
-4.0444927 57.557388 27.751537
-4.0459886 57.511703 27.227457
-4.0259604 57.534237 26.751875
-4.02596 57.494194 26.242651
-4.0172682 57.481915 25.755711
-3.9943779 57.514568 25.299921
-3.9970632 57.4674 24.802227
-3.9666436 57.5243 24.368271
-3.967335 57.484154 23.884022
-3.9534643 57.489918 23.429445
-3.9465942 57.474144 22.967411
-3.9276011 57.496521 22.5292
-3.9183226 57.488895 22.079153
-3.9022529 57.502724 21.643452
-3.9015355 57.469074 21.18816
-3.8939843 57.456993 20.747149
-3.8850932 57.449364 20.311749
-3.8748162 57.446308 19.881765
-3.851764 57.483093 19.472353
-3.8413796 57.480846 19.048527
-3.8295026 57.483452 18.629679
-3.821836 57.47327 18.208414
-3.8155251 57.459145 17.788534
-3.8047714 57.458961 17.376942
-3.7865934 57.481873 16.976538
-3.7871504 57.447239 16.557205
-3.7773426 57.444756 16.152325
-3.7717335 57.429546 15.745424
-3.7526479 57.455952 15.354911
-3.7465711 57.442551 14.953145
-3.7417383 57.425518 14.552574
-3.7172821 57.468826 14.172618
-3.7208333 57.426437 13.768587
-4.5004144 57.648357 40.356197
-4.4663649 57.646999 39.047844
-4.4544172 57.631042 38.394642
-4.4362011 57.63636 37.770473
-4.4055357 57.579033 35.88866
-4.3880191 57.585117 35.300575
-4.3774309 57.569447 34.702553
-4.3514628 57.555676 33.544941
-4.3239794 57.596516 33.014603
-4.3128242 57.58527 32.45052
-4.313478 57.536648 31.865664
-4.2896543 57.56736 31.347126
-4.2848611 57.537472 30.790514
-4.2673807 57.548851 30.27021
-4.2517986 57.554646 29.751814
-4.2456074 57.530884 29.219021
-4.2313256 57.533512 28.71023
-4.2188802 57.530739 28.203386
-4.2108107 57.514469 27.693319
-4.2020249 57.500961 27.19063
-4.1898823 57.498585 26.700239
-4.1716824 57.515881 26.226765
-4.1629529 57.503468 25.739979
-4.1533127 57.494358 25.26005
-4.1453495 57.480328 24.782022
-4.1310806 57.486652 24.320065
-4.1157112 57.496799 23.864279
-4.1153102 57.459969 23.387186
-4.084167 57.520588 22.966024
-4.0869274 57.474487 22.492582
-4.0722375 57.483772 22.051718
-4.0699673 57.454239 21.595228
-4.0554695 57.463509 21.16152
-4.0479193 57.451214 20.720909
-4.0390434 57.443378 20.28591
-4.0260005 57.448891 19.860245
-4.0115161 57.459167 19.439638
-4.0011864 57.456665 19.016376
-3.9978733 57.432457 18.587069
-3.9817379 57.448601 18.177402
-3.9697282 57.452057 17.765121
-3.9618742 57.442757 17.350508
-3.9409373 57.474468 16.953943
-3.9385238 57.448627 16.538296
-3.9374268 57.41893 16.124191
-3.9289091 57.412548 15.720977
-3.9157903 57.42065 15.324922
-3.9155893 57.388813 14.917955
-3.8872516 57.444477 14.541034
-3.8924377 57.396305 14.133562
-3.8781822 57.408577 13.746648
-4.6344261 57.614697 38.976589
-4.6137724 57.626991 38.350315
-4.6044073 57.602859 37.700542
-4.5932035 57.585644 37.066765
-4.5755472 57.590477 36.461411
-4.5427284 57.594139 35.270744
-4.5343647 57.570667 34.666832
-4.5106802 57.548649 33.503895
-4.492764 57.558472 32.95015
-4.4792867 57.554409 32.392658
-4.4702907 57.536366 31.831705
-4.4465694 57.566826 31.313522
-4.4392505 57.544495 30.762945
-4.4291115 57.531906 30.226131
-4.4184952 57.521416 29.697189
-4.3974476 57.545227 29.197784
-4.3906112 57.523521 28.673073
-4.3781714 57.520443 28.166674
-4.3650174 57.520134 27.667522
-4.3561687 57.506397 27.165134
-4.3491092 57.487362 26.664879
-4.3386903 57.479591 26.17683
-4.3196397 57.499981 25.710461
-4.3203664 57.457237 25.211489
-4.3045688 57.467953 24.748493
-4.2929635 57.465588 24.282291
-4.272366 57.492363 23.8363
-4.2691798 57.463764 23.364149
-4.2462397 57.498657 22.929882
-4.2515559 57.443642 22.452602
-4.2396336 57.444004 22.008053
-4.2291737 57.440014 21.564983
-4.211988 57.457733 21.135908
-4.2043915 57.445217 20.695698
-4.1872249 57.463402 20.27309
-4.187983 57.424942 19.828003
-4.1763287 57.426167 19.404123
-4.1520686 57.467567 19.000288
-4.1486425 57.443207 18.571226
-4.1353421 57.450348 18.158211
-4.123323 57.453655 17.746258
-4.1210904 57.426289 17.325115
-4.1144991 57.412926 16.9123
-4.1006179 57.422764 16.510624
-4.0908222 57.419918 16.106653
-4.0851398 57.404331 15.700671
-4.0720344 57.412289 15.305033
-4.0572104 57.425808 14.913157
-4.0522766 57.40844 14.513428
-4.0456352 57.396618 14.1177
-4.0313945 57.408783 13.731122
-4.8141975 57.606567 39.587696
-4.7539773 57.582134 37.037109
-4.7102485 57.56757 35.223412
-4.697298 57.558804 34.632378
-4.6866069 57.543266 34.043957
-4.6689281 57.551556 33.482327
-4.6556687 57.545868 32.91695
-4.6445265 57.533829 32.354
-4.628406 57.538841 31.810987
-4.6190343 57.522202 31.258631
-4.6045246 57.523067 30.725788
-4.5967765 57.502274 30.18388
-4.583734 57.499428 29.661047
-4.5505619 57.563084 29.18943
-4.5608253 57.484894 28.627195
-4.5310812 57.538197 28.158617
-4.5303388 57.497112 27.633448
-4.5264831 57.466732 27.121264
-4.5093074 57.480274 26.642021
-4.4963098 57.480614 26.159361
-4.4798598 57.492596 25.688364
-4.475286 57.466362 25.199486
-4.4698281 57.443443 24.717598
-4.4478307 57.474579 24.270754
-4.4351301 57.475903 23.811117
-4.4292192 57.455605 23.343981
-4.4143162 57.46476 22.896692
-4.406188 57.452347 22.442003
-4.3915567 57.461266 22.002007
-4.3837137 57.448593 21.554861
-4.3719435 57.448898 21.117712
-4.3642898 57.436249 20.6779
-4.3498945 57.445576 20.251698
-4.345048 57.424496 19.814926
-4.3306227 57.434452 19.395206
-4.3257833 57.413914 18.965324
-4.3084588 57.433655 18.55545
-4.295166 57.440697 18.142843
-4.2859359 57.434967 17.727787
-4.2836032 57.407444 17.307135
-4.2656898 57.429909 16.908209
-4.2574468 57.421707 16.500168
-4.2504501 57.409752 16.093346
-4.2332969 57.430344 15.700181
-4.228735 57.411037 15.295575
-4.2225342 57.397156 14.895232
-4.2146587 57.388786 14.49894
-4.2050753 57.386024 14.106482
-4.1966481 57.379757 13.714959
-4.9711051 57.598728 39.56028
-4.9297404 57.623104 38.299801
-4.9159503 57.613228 37.663624
-4.8395605 57.549526 34.031738
-4.8087282 57.552105 32.905151
-4.7999096 57.532303 32.336521
-4.79321 57.506084 31.770527
-4.7768574 57.512703 31.235973
-4.7546906 57.492546 30.161938
-4.7273049 57.537472 29.672642
-4.7257686 57.497047 29.130033
-4.7067399 57.51519 28.633259
-4.7065797 57.471321 28.100981
-4.6698413 57.505573 27.132486
-4.6626816 57.486332 26.632828
-4.6572642 57.461819 26.135363
-4.6485243 57.448715 25.650019
-4.626193 57.480751 25.195829
-4.6155682 57.474648 24.723658
-4.6039596 57.472164 24.257996
-4.5939026 57.46497 23.794041
-4.5827885 57.461605 23.33639
-4.5757961 57.445107 22.875917
-4.5624485 57.449757 22.430487
-4.5584617 57.424145 21.973539
-4.540061 57.44593 21.543972
-4.5390091 57.411427 21.090509
-4.5180111 57.442242 20.671724
-4.5144529 57.416538 20.229767
-4.4960918 57.439281 19.813147
-4.4871564 57.431637 19.385914
-4.4795618 57.419918 18.960108
-4.462337 57.439686 18.55048
-4.4518528 57.437832 18.134523
-4.4509382 57.405247 17.709251
-4.4347081 57.422462 17.306328
-4.4308233 57.39999 16.890818
-4.4086375 57.436829 16.499691
-4.4128489 57.388691 16.080292
-4.3986435 57.400169 15.684525
-4.3827696 57.417183 15.292574
-4.3793859 57.394184 14.889544
-4.3658214 57.404114 14.499288
-4.361959 57.383045 14.10146
-4.3535442 57.376778 13.710273
-5.0882559 57.587883 38.241997
-5.0015259 57.557899 34.59042
-4.9977212 57.519367 33.984253
-4.9826765 57.519722 33.417358
-4.9542375 57.516777 32.302475
-4.940753 57.513752 31.754353
-4.9197183 57.489491 30.665041
-4.9003506 57.50803 30.152
-4.8741403 57.504524 29.114922
-4.8601527 57.5065 28.607599
-4.855196 57.478706 28.086304
-4.8374476 57.494255 27.598881
-4.8262572 57.488308 27.102768
-4.8291178 57.435898 26.583212
-4.8015165 57.485645 26.131592
-4.8003583 57.447594 25.631514
-4.7959037 57.420994 25.143618
-4.7703519 57.465004 24.700975
-4.7640009 57.445515 24.226286
-4.7515678 57.446621 23.767494
-4.7483459 57.417542 23.296654
-4.7311859 57.435032 22.854771
-4.7232223 57.422394 22.400938
-4.7010617 57.457035 21.974752
-4.7038369 57.409576 21.511282
-4.6896839 57.418362 21.079241
-4.6795306 57.414242 20.644377
-4.6707468 57.40591 20.210974
-4.6633253 57.393387 19.779076
-4.6491957 57.403202 19.360241
-4.6309438 57.426796 18.950029
-4.6247625 57.410992 18.525934
-4.6062799 57.435783 18.12133
-4.6026621 57.412086 17.699894
-4.5866179 57.429314 17.297215
-4.5800276 57.415825 16.885298
-4.5802159 57.380432 16.468191
-4.5650215 57.395504 16.071911
-4.5649157 57.361549 15.660879
-4.5492716 57.37846 15.26959
-4.5347505 57.391872 14.878967
-4.5269833 57.383472 14.483338
-4.5203695 57.371506 14.088779
-4.5063982 57.38361 13.703379
-5.2417107 57.5709 38.192604
-5.2221527 57.582214 37.576984
-5.2155352 57.549553 36.931656
-5.152257 57.554119 34.55616
-5.1337743 57.515503 33.383781
-5.1210327 57.509254 32.819584
-5.1103387 57.496643 32.25782
-5.0925474 57.508945 31.721819
-5.0835476 57.491779 31.170593
-5.0598168 57.478806 30.103725
-5.042552 57.491531 29.593031
-5.0341392 57.474659 29.067804
-5.0251884 57.460155 28.550299
-5.0084519 57.47258 28.056282
-5.0006194 57.455284 27.548288
-4.9799738 57.48185 27.073483
-4.9804282 57.437473 26.559387
-4.9605584 57.462257 26.093031
-4.9619808 57.415581 25.588549
-4.9502249 57.413815 25.115833
-4.9300237 57.440872 24.664005
-4.9162903 57.446507 24.203964
-4.909102 57.430511 23.736223
-4.8881917 57.460953 23.297697
-4.8916535 57.409973 22.819954
-4.8761563 57.422928 22.379848
-4.8568711 57.448856 21.949656
-4.8570776 57.409889 21.490818
-4.8509526 57.392448 21.046616
-4.8331304 57.414368 20.62454
-4.8323879 57.379593 20.179459
-4.8251281 57.366867 19.748119
-4.800601 57.411884 19.345194
-4.7825813 57.435444 18.935219
-4.7791786 57.410667 18.50769
-4.7717113 57.399666 18.089027
-4.7628093 57.393673 17.675268
-4.7524328 57.392803 17.266212
-4.7405448 57.397152 16.86165
-4.727108 57.40683 16.461372
-4.736805 57.340271 16.03651
-4.7174993 57.369751 15.648019
-4.7048197 57.377518 15.253956
-4.6960454 57.372585 14.857791
-4.6884155 57.364071 14.462661
-4.6875153 57.333603 14.063066
-4.6765704 57.336361 13.67565
-5.3827267 57.582516 37.54076
-5.3549585 57.568184 36.304951
-5.3381267 57.572536 35.710079
-5.3234777 57.570011 35.117664
-5.3110008 57.560646 34.527786
-5.2984967 57.552109 33.946625
-5.2836967 57.552261 33.38007
-5.2709322 57.546005 32.815876
-5.2512355 57.564453 32.277653
-5.2492104 57.522243 31.700665
-5.2401986 57.504921 31.149652
-5.2262797 57.505177 30.618164
-5.2096024 57.515522 30.100019
-5.2063074 57.48024 29.556154
-5.181571 57.519417 29.069553
-5.186667 57.456383 28.519686
-5.1700511 57.468597 28.026037
-5.1503162 57.491974 27.544582
-5.1417551 57.477448 27.04398
-5.1348867 57.457607 26.545515
-5.1297011 57.432491 26.049253
-5.1188612 57.427177 25.570047
-5.0973129 57.458839 25.116989
-5.0895486 57.443829 24.641178
-5.0758896 57.44931 24.181444
-5.0711985 57.424637 23.709387
-5.0655394 57.403664 23.24395
-5.0487585 57.42086 22.802839
-5.0460429 57.390636 22.341
-5.0269527 57.416309 21.911432
-5.0194278 57.40308 21.465937
-5.0055695 57.411617 21.034603
-5.0008011 57.389709 20.592299
-4.9896102 57.38982 20.163769
-4.966651 57.429913 19.756174
-4.968514 57.386539 19.314634
-4.9506578 57.409908 18.905222
-4.9445977 57.393806 18.481937
-4.9371586 57.382614 18.063763
-4.9283009 57.376442 17.650496
-4.9153028 57.384399 17.245359
-4.9088697 57.37056 16.834511
-4.8982434 57.370998 16.431543
-4.8969293 57.340488 16.020082
-4.8777671 57.369896 15.631918
-4.8651533 57.377571 15.238187
-4.8563991 57.372536 14.842356
-4.8542829 57.345554 14.441858
-4.8422794 57.35173 14.053838
-4.8341331 57.345222 13.663905
-5.6402597 57.691494 42.199673
-5.4256625 57.589775 32.820663
-5.4014349 57.573936 31.711132
-5.3310366 57.53294 28.545444
-5.3213305 57.520966 28.035505
-5.3086395 57.519894 27.538204
-5.2928643 57.530022 27.053154
-5.2858233 57.510258 26.554543
-5.278049 57.493523 26.063141
-5.2622533 57.505051 25.593576
-5.2528133 57.494976 25.115854
-5.2473669 57.471519 24.635263
-5.2361293 57.468506 24.170904
-5.2263732 57.46077 23.708256
-5.2131271 57.465443 23.25647
-5.2062836 57.448421 22.797241
-5.1958818 57.444019 22.348661
-5.1868792 57.435154 21.90168
-5.1716671 57.447941 21.469051
-5.1654034 57.430336 21.025169
-5.1502824 57.443413 20.599335
-5.146718 57.417206 20.158655
-5.1367693 57.413162 19.731556
-5.1332951 57.387287 19.298176
-5.1181154 57.401676 18.885332
-5.109376 57.394337 18.466127
-5.0992522 57.391975 18.051874
-5.0850658 57.403687 17.645876
-5.0853004 57.366577 17.223673
-5.0761609 57.361603 16.816666
-5.0601873 57.380051 16.420643
-5.0533714 57.367622 16.015799
-5.0477257 57.351456 15.612216
-5.0405436 57.340714 15.212949
-5.0290799 57.344658 14.82072
-5.0159941 57.354256 14.432213
-5.0094423 57.341953 14.038911
-5.0067372 57.316864 13.644033
-7.8943954 57.386097 36.479744
-7.8371334 57.381596 34.12534
-7.7828765 57.377464 31.895777
-7.7816119 57.324833 31.318117
-7.7208247 57.363766 29.256002
-7.714469 57.336857 28.730377
-7.6906152 57.386112 28.261202
-7.6678514 57.378662 27.268484
-7.6180367 57.33923 24.864519
-7.5960011 57.335995 23.943316
-7.9797993 57.359356 34.663841
-7.9664588 57.355114 34.085663
-7.9141541 57.341846 31.851873
-7.9038091 57.328453 31.30385
-7.8859954 57.348679 30.787064
-7.880589 57.315041 30.237986
-7.8639112 57.331627 29.730938
-7.8467903 57.350761 29.23123
-7.8441081 57.307316 28.694963
-7.8279476 57.32349 28.204651
-7.8169084 57.317875 27.705385
-7.8129659 57.281933 27.192427
-7.7855506 57.348774 26.749249
-7.7804809 57.31889 26.250671
-7.7612624 57.351006 25.794636
-7.7549529 57.327606 25.310143
-7.7460351 57.316051 24.837566
-7.7502537 57.248215 24.338161
-7.7280207 57.295216 23.907696
-7.6538424 57.284107 20.815199
-7.63204 57.286972 19.966707
-8.0729742 57.317699 32.906796
-8.0353746 57.303123 31.262938
-7.988266 57.337559 29.713764
-7.9839725 57.299698 29.175426
-7.9738512 57.288425 28.66169
-7.9651623 57.271469 28.150171
-7.9466863 57.298424 27.672848
-7.9351201 57.295395 27.181244
-7.9305711 57.26202 26.676086
-7.915988 57.273449 26.203968
-7.9084082 57.254601 25.718409
-7.8924918 57.272919 25.259701
-7.8797069 57.277962 24.797552
-7.8700829 57.269638 24.332239
-7.8518562 57.299431 23.892338
-7.8485732 57.264332 23.42108
-7.8445601 57.232948 22.956629
-7.8277793 57.257702 22.525703
-7.8120666 57.278164 22.095881
-7.809545 57.241638 21.641239
-7.8000836 57.235725 21.205727
-7.7835484 57.260872 20.788437
-7.7721276 57.264175 20.363932
-7.7596893 57.272228 19.944754
-7.7544918 57.249317 19.514992
-7.7420382 57.258106 19.102354
-7.7431345 57.208778 18.66823
-7.7201056 57.263771 18.280493
-7.7106185 57.260685 17.871349
-7.7021122 57.253681 17.463451
-7.6945825 57.242779 17.056837
-7.6802874 57.218578 16.250895
-7.6611524 57.216175 15.462674
-8.2320929 57.325317 34.027012
-8.1931114 57.309864 32.339558
-8.1580439 57.2841 30.709206
-8.1321898 57.281902 29.666182
-8.1114998 57.316784 29.178352
-8.1066561 57.281021 28.648218
-8.1014738 57.247517 28.126135
-8.0737762 57.31562 27.675783
-8.0694876 57.279392 27.163202
-8.0610113 57.262562 26.668686
-8.044466 57.282345 26.201817
-8.0386 57.255039 25.711313
-8.0226259 57.273319 25.252762
-8.0135794 57.261276 24.781029
-8.0077028 57.235695 24.306438
-7.9992027 57.222294 23.843422
-7.9899559 57.212696 23.38693
-7.9799228 57.207058 22.936785
-7.9611673 57.240391 22.510738
-7.9513855 57.234486 22.068014
-7.9427195 57.224087 21.626905
-7.9271393 57.244541 21.204454
-7.9166145 57.243114 20.774742
-7.9132299 57.210724 20.334198
-7.898737 57.227474 19.919672
-7.8954687 57.195381 19.486544
-7.8850565 57.19495 19.070702
-7.8673773 57.226593 18.671225
-7.8651509 57.191051 18.246613
-7.8535452 57.196777 17.841892
-7.8428898 57.198654 17.438255
-7.8310771 57.205841 17.039185
-7.8265281 57.18174 16.631025
-7.8165884 57.181351 16.234232
-7.8075666 57.177238 15.83851
-7.8015976 57.160168 15.440781
-7.7879691 57.176498 15.056485
-7.7773538 57.180012 14.669923
-7.7719359 57.161308 14.278514
-7.7522254 57.204475 13.90782
-7.7441945 57.19746 13.523752
-8.343997 57.308971 32.887711
-8.2648487 57.295925 29.674406
-8.2529936 57.290268 29.158882
-8.2497215 57.246174 28.623642
-8.2280827 57.286491 28.150551
-8.2240314 57.247375 27.630819
-8.2085981 57.260662 27.150459
-8.1889172 57.238258 26.174385
-8.1772833 57.236061 25.699474
-8.1631298 57.245796 25.236288
-8.1577272 57.216579 24.755194
-8.1478882 57.207924 24.290726
-8.1335039 57.220226 23.842249
-8.1183176 57.236576 23.399837
-8.1139107 57.205006 22.935926
-8.1029158 57.20348 22.492104
-8.0871534 57.223713 22.063072
-8.0822754 57.195698 21.613543
-8.0646801 57.224899 21.195745
-8.0560341 57.21455 20.76218
-8.0444546 57.217663 20.338398
-8.0379171 57.198727 19.907911
-8.0263758 57.202412 19.490906
-8.0158281 57.20203 19.075148
-8.0144272 57.161469 18.645596
-8.0038414 57.161968 18.236467
-7.9900999 57.176723 17.835766
-7.9834819 57.160309 17.425406
-7.9736819 57.158253 17.023384
-7.9606423 57.170753 16.629253
-7.9568725 57.142723 16.222866
-7.9393425 57.17548 15.840436
-7.9374256 57.139893 15.43664
-7.9237432 57.156212 15.052684
-7.9130363 57.159702 14.666459
-7.9053259 57.150307 14.27825
-7.8963466 57.146694 13.893906
-7.8817725 57.167725 13.518608
-8.4048433 57.254158 29.640141
-8.3789921 57.252995 28.623205
-8.3567839 57.237724 27.619888
-8.3289967 57.250713 26.656105
-8.3178921 57.245266 26.174326
-8.31357 57.209312 25.679398
-8.3031492 57.201942 25.206694
-8.292079 57.198093 24.740747
-8.282198 57.18935 24.276585
-8.2659445 57.210186 23.833136
-8.2545786 57.209202 23.381676
-8.2333012 57.202034 22.488176
-8.2233582 57.195988 22.046082
-8.2125616 57.194248 21.609932
-8.2067356 57.170444 21.166788
-8.1961184 57.168751 20.738029
-8.1845608 57.171696 20.314804
-8.1720285 57.179405 19.896915
-8.1624737 57.174053 19.476299
-8.1579275 57.146557 19.049385
-8.1423359 57.169067 18.646877
-8.1357498 57.151463 18.230452
-8.1199923 57.175308 17.833607
-8.111248 57.168022 17.426937
-8.1054955 57.147682 17.018105
-8.0965815 57.141792 16.617493
-8.0844498 57.150543 16.224644
-8.0752726 57.146381 15.829503
-8.0649042 57.147789 15.438586
-8.0595922 57.126976 15.042581
-8.0467825 57.139732 14.659724
-8.041131 57.120953 14.268981
-8.0278969 57.136024 13.890624
-8.0218449 57.119495 13.504783
-8.5317841 57.249702 29.619146
-8.5200405 57.24366 29.104347
-8.5079241 57.240078 28.597174
-8.4936323 57.247368 28.102869
-8.4770851 57.265839 27.62105
-8.4689007 57.245842 27.119846
-8.4656296 57.203621 26.610556
-8.4492655 57.223061 26.144669
-8.4395247 57.212234 25.665186
-8.431015 57.196281 25.187687
-8.4200468 57.19231 24.721966
-8.4046936 57.209175 24.272417
-8.3960342 57.195557 23.810091
-8.3904114 57.168446 23.345013
-8.3689919 57.214714 22.923103
-8.3637257 57.186947 22.466055
-8.3519745 57.189522 22.028679
-8.3412781 57.187675 21.592764
-8.33356 57.172592 21.154108
-8.3269072 57.153069 20.717163
-8.3076773 57.191536 20.310619
-8.2932796 57.208202 19.89674
-8.2857399 57.193905 19.472111
-8.2792063 57.175407 19.049051
-8.2756624 57.143692 18.623833
-8.2651491 57.144073 18.215191
-8.2555723 57.140522 17.807758
-8.2408867 57.160469 17.412159
-8.2351694 57.14003 17.003572
-8.2263327 57.134056 16.603205
-8.2143192 57.142731 16.210602
-8.1990757 57.166241 15.825302
-8.190835 57.158375 15.431269
-8.1876011 57.12822 15.032312
-8.1749096 57.140938 14.64962
-8.1692848 57.122101 14.259045
-8.1603498 57.118385 13.875286
-8.7626286 57.295914 33.947784
-8.6526623 57.233997 29.074179
-8.6389093 57.238369 28.572763
-8.6100569 57.255486 27.591753
-8.6054239 57.218586 27.080359
-8.5950623 57.209515 26.592207
-8.576292 57.184025 25.627048
-8.5588217 57.210266 25.174732
-8.5497122 57.197659 24.704218
-8.5381289 57.197235 24.24523
-8.531353 57.174778 23.778496
-8.522047 57.16473 23.323088
-8.5064192 57.184761 22.887714
-8.4974327 57.174179 22.440105
-8.4857712 57.176559 22.00304
-8.473259 57.183334 21.571766
-8.4655666 57.168083 21.133347
-8.4512777 57.183941 20.713322
-8.4437218 57.168903 20.28215
-8.4410524 57.131641 19.844603
-8.4239073 57.161861 19.440508
-8.4154625 57.15213 19.021782
-8.4060287 57.147343 18.60828
-8.3936033 57.156708 18.203487
-8.3840628 57.15308 17.796137
-8.3794174 57.127247 17.382984
-8.3597574 57.170792 16.998999
-8.3509302 57.164799 16.598551
-8.3490353 57.127316 16.189463
-8.3420153 57.113663 15.791701
-8.3216763 57.161243 15.417015
-8.3204422 57.121666 15.0152
-8.313983 57.106274 14.623909
-8.3001719 57.124668 14.245296
-8.289216 57.130249 13.864485
-8.8020763 57.245804 29.573442
-8.7869673 57.255695 29.070156
-8.7545109 57.227364 27.55582
-8.7410936 57.231823 27.0711
-8.7323818 57.214291 26.577856
-8.7134237 57.188557 25.613003
-8.6977615 57.2062 25.155893
-8.6921511 57.176334 24.675871
-8.6805477 57.175682 24.217268
-8.6682482 57.178871 23.765068
-8.6533928 57.194721 23.323732
-8.6487436 57.162529 22.860916
-8.6378622 57.160469 22.418182
-8.6206169 57.189026 21.994646
-8.609931 57.186924 21.559124
-8.5965185 57.198139 21.13361
-8.5953913 57.151772 20.684324
-8.5802021 57.172199 20.269991
-8.5716562 57.161701 19.844635
-8.5640955 57.14698 19.420813
-8.5479012 57.173195 19.017807
-8.5441818 57.141205 18.593002
-8.5298052 57.159546 18.192141
-8.5260563 57.128471 17.774136
-8.519352 57.111595 17.36492
-8.5017643 57.145855 16.977816
-8.492897 57.13969 16.57778
-8.4868956 57.120491 16.175667
-8.4738169 57.134518 15.787744
-8.4635649 57.135658 15.397488
-8.4521427 57.142479 15.011244
-8.453639 57.089691 14.608169
-8.4398527 57.107983 14.229888
-8.4288826 57.113449 13.849413
-9.2182455 57.413555 41.474003
-8.9268808 57.213963 28.525299
-8.9126129 57.220699 28.031803
-8.9012747 57.213753 27.534836
-8.8826656 57.243076 27.066151
-8.8789196 57.200348 26.557472
-8.8661175 57.202557 26.081989
-8.8544817 57.199692 25.608288
-8.8422565 57.200291 25.141367
-8.8229752 57.178127 24.207998
-8.7938738 57.205723 23.319416
-8.7890034 57.173485 22.85668
-8.7798157 57.162647 22.409544
-8.7680359 57.164791 21.972952
-8.7535982 57.180168 21.546478
-8.7475128 57.155842 21.104214
-8.7350492 57.162598 20.680496
-8.723546 57.165154 20.258066
-8.7186251 57.136623 19.824934
-8.7071772 57.139736 19.409374
-8.7023392 57.111687 18.983519
-8.6851625 57.142853 18.585821
-8.674571 57.142963 18.17775
-8.6629591 57.148266 17.774496
-8.6522264 57.149708 17.372334
-8.6462469 57.128937 16.964411
-8.6431198 57.09502 16.554623
-8.6252737 57.131084 16.17276
-8.6219511 57.098755 15.768942
-8.6096687 57.109043 15.382299
-8.5942402 57.134399 15.002534
-8.591507 57.100204 14.605605
-8.5796719 57.109123 14.224547
-8.5746288 57.086372 13.835903
-9.1446619 57.237392 31.637232
-9.1178551 57.233006 30.571661
-9.088438 57.245068 29.54318
-9.0813866 57.213921 29.012571
-9.0674953 57.217819 28.51189
-9.0598173 57.191429 27.996973
-9.0434542 57.20911 27.516405
-9.0332918 57.196579 27.021721
-9.0243597 57.178638 26.529152
-9.0047464 57.214371 26.074427
-8.9964666 57.1945 25.590761
-8.9876528 57.177929 25.114182
-8.9817362 57.147701 24.634775
-8.959383 57.140968 23.720491
-8.93923 57.182537 23.293768
-8.9324656 57.158798 22.835983
-8.916069 57.182831 22.407091
-8.9132175 57.140995 21.948477
-8.9006214 57.147362 21.518072
-8.8890009 57.149406 21.089025
-8.8838329 57.120438 20.648874
-8.8594847 57.185318 20.255623
-8.8599491 57.129845 19.810467
-8.8429089 57.159878 19.406935
-8.8397846 57.122765 18.977234
-8.8245287 57.144848 18.575848
-8.8138933 57.14489 18.16794
-8.8098221 57.113594 17.750427
-8.7952852 57.133183 17.355804
-8.7930307 57.093891 16.941326
-8.7821178 57.096664 16.545475
-8.7739697 57.086445 16.147387
-8.7570086 57.118835 15.766519
-8.7485828 57.110523 15.373651
-8.7409878 57.098522 14.981933
-8.7303085 57.101566 14.597293
-8.7282791 57.063549 14.202087
-8.7152719 57.07822 13.82515
-9.5128222 57.417423 42.109402
-9.4965076 57.409279 41.413681
-9.479476 57.406548 40.734901
-9.4643478 57.395279 40.05912
-9.3443251 57.27174 34.415455
-9.3292131 57.273296 33.845993
-9.3171015 57.260391 33.27282
-9.3019428 57.264225 32.720356
-9.2712679 57.276543 31.639971
-9.2650061 57.23753 31.076828
-9.255518 57.21603 30.533848
-9.2379408 57.236755 30.0275
-9.2311735 57.203125 29.489252
-9.2129459 57.228714 28.997982
-9.1930876 57.197735 27.977142
-9.1834288 57.182045 27.475449
-9.1684008 57.194237 26.996937
-9.1611729 57.167694 26.499428
-9.1384239 57.220108 26.055178
-9.1369095 57.166145 25.551596
-9.1247768 57.166309 25.085354
-9.1086206 57.187241 24.635456
-9.1055288 57.143253 24.153364
-9.0966949 57.12867 23.692585
-9.0819883 57.143993 23.252251
-9.0682793 57.154819 22.813248
-9.0643654 57.117348 22.353216
-9.0473776 57.145473 21.930613
-9.0366573 57.142879 21.496038
-9.0251265 57.144768 21.067225
-9.0091534 57.169086 20.652313
-9.0049324 57.13567 20.213852
-8.9980793 57.115749 19.785376
-8.9830494 57.136608 19.378227
-8.9743977 57.126396 18.960476
-8.9666634 57.112068 18.544182
-8.952424 57.130096 18.144127
-8.9483414 57.098606 17.726946
-8.9414387 57.08136 17.318554
-8.9222565 57.124554 16.935701
-8.9189491 57.090397 16.526333
-8.908947 57.089298 16.131767
-8.8978653 57.093761 15.741476
-8.8875904 57.094574 15.352134
-8.8781176 57.091755 14.963777
-8.8733015 57.066597 14.570551
-8.8596373 57.084671 14.19302
-8.8525515 57.071079 13.807745
-9.3777847 57.262402 30.541851
-9.3619108 57.275154 30.0296
-9.353569 57.249668 29.49682
-9.3370819 57.267189 28.99979
-9.3265686 57.254581 28.488108
-9.3189211 57.227997 27.97327
-9.3028526 57.245552 27.492764
-9.2895441 57.249569 27.008635
-9.2757492 57.256748 26.531494
-9.2713261 57.216576 26.030626
-9.2631493 57.196358 25.547342
-9.2511139 57.196514 25.081024
-9.2401648 57.191734 24.616449
-9.231988 57.173431 24.148882
-9.2163925 57.193447 23.706871
-9.2103519 57.165466 23.242973
-9.1985025 57.167519 22.799408
-9.1893854 57.156254 22.352898
-9.181284 57.140385 21.908125
-9.168931 57.146481 21.478106
-9.152236 57.174896 21.062178
-9.1506081 57.127888 20.613865
-9.1357565 57.147869 20.200476
-9.1307402 57.118874 19.768074
-9.1176891 57.130619 19.357155
-9.109129 57.120255 18.939642
-9.0978365 57.123947 18.53112
-9.0892363 57.114567 18.12009
-9.0815144 57.101185 17.710443
-9.0728245 57.092999 17.305735
-9.059433 57.10854 16.912638
-9.0524244 57.09267 16.510315
-9.0369205 57.119259 16.125734
-9.0296888 57.105133 15.728973
-9.02705 57.068615 15.327277
-9.012022 57.093651 14.94841
-9.0015354 57.096489 14.564181
-8.9975405 57.067604 14.172266
-8.988616 57.063286 13.790102
-9.2992525 57.17181 21.483034
-9.2843952 57.191441 21.062782
-9.2626171 57.191364 20.213333
-9.2539806 57.180485 19.788702
-9.2358932 57.164173 18.951778
-9.2281895 57.149834 18.535484
-9.2064047 57.154663 17.725449
-9.1879721 57.143925 16.920113
-9.1790886 57.137386 16.520981
-9.1728649 57.117783 16.119783
-9.1600847 57.131519 15.73276
-9.1517811 57.123016 15.340306
-9.1405478 57.129517 14.955055
-9.1259995 57.103634 14.178576
-9.1170692 57.099403 13.796245
-11.744361 57.08255 29.35236
-11.730594 57.091797 28.852631
-11.721163 57.070591 28.338354
-11.710388 57.060219 27.837271
-11.697049 57.069382 27.354334
-11.627707 57.06599 24.525179
-11.616611 57.065029 24.069777
-11.882434 57.069801 30.368141
-11.834424 57.05225 28.321301
-11.823616 57.041752 27.820438
-11.811435 57.042412 27.332394
-11.800118 57.037678 26.84627
-11.774242 57.05476 25.90555
-11.764284 57.042831 25.430191
-11.756341 57.017124 24.951872
-11.732205 57.028275 24.045141
-11.720685 57.031025 23.596548
-11.711133 57.020287 23.144901
-11.695014 57.057636 22.722492
-11.685717 57.046478 22.278524
-11.662285 56.985329 20.957256
-11.636398 57.021149 20.130865
-11.63272 56.973961 19.693153
-11.618239 57.004158 19.293097
-11.820984 56.992855 22.688581
-11.811591 56.981422 22.245237
-11.791338 56.971478 21.376844
-11.780427 56.973248 20.95142
-11.771431 56.961693 20.523222
-11.761884 56.954807 20.10074
-11.75176 56.952713 19.683779
-11.741036 56.955544 19.272141
-11.727158 56.981697 18.87335
-11.717692 56.976471 18.464037
-11.708863 56.967201 18.056065
-11.698098 56.972374 17.656715
-11.686646 56.982933 17.261999
-11.678381 56.971107 16.861343
-11.670731 56.955387 16.462025
-11.658446 56.973198 16.077248
-11.64804 56.977997 15.690013
-11.642175 56.950912 15.294352
-11.630266 56.967182 14.915395
-11.845272 56.938751 18.444712
-11.816279 56.926201 17.236832
-11.797428 56.916878 16.444761
-11.786318 56.925194 16.057108
-11.777061 56.920444 15.667164
-11.765781 56.930794 15.284594
-11.75896 56.909245 14.893716
-11.747482 56.921803 14.516036
-11.739167 56.91188 14.133328
-11.903702 56.915321 15.64574
-11.86753 56.886978 14.106849
-11.855657 56.90176 13.733949
-12.023872 56.905045 15.225155
-12.002237 56.913895 14.463529
-11.985232 56.889458 13.699922
-12.237704 56.927109 18.352695
-12.227997 56.916775 17.945732
-12.205624 56.921207 17.150116
-12.166401 56.893406 15.57611
-12.136353 56.88279 14.424076
-12.115247 56.886219 13.669663
-12.268831 56.884693 14.411338
-12.259669 56.873802 14.029506
-13.582502 57.144684 42.128712
-13.565744 57.110554 36.253448
-13.54875 57.105999 35.653408
-13.534889 57.071045 35.036938
-13.516143 57.090343 34.473972
-13.38761 56.955391 24.672888
-13.347998 56.952965 23.319176
-13.334527 56.957291 22.879019
-13.309316 56.952145 22.003305
-13.297572 56.94273 21.567841
-13.204931 56.891407 18.222589
-13.105091 56.854607 14.689841
-13.217446 56.859081 13.933161
-15.835826 56.767857 26.092876
-15.810093 56.763123 25.157263
-15.797384 56.761757 24.697178
-15.785012 56.755402 24.238865
-15.869084 56.719223 23.335806
-15.856731 56.724766 22.897032
-15.833284 56.713066 22.019579
-15.821451 56.713741 21.589964
-15.809527 56.71896 21.166176
-15.798647 56.701725 20.73527
-15.77621 56.690285 19.895102
-15.742224 56.696346 18.669426
-15.731418 56.690174 18.263451
-15.897283 56.675297 20.307341
-15.886338 56.6674 19.888145
-15.853208 56.664181 18.659086
-15.842158 56.667213 18.257122
-15.83135 56.666256 17.856354
-15.820004 56.679962 17.464041
-15.810853 56.643105 17.055038
-15.799579 56.658409 16.668516
-15.789328 56.651173 16.276127
-15.905932 56.61948 16.265009
-15.894811 56.636669 15.883935
-15.875104 56.61269 15.108542
-15.865383 56.59985 14.724222
-15.854697 56.611958 14.349957
-15.844603 56.610981 13.973565
-15.833507 56.635242 13.606461
-16.067892 56.639881 17.848637
-16.047325 56.616714 17.047646
-16.03651 56.622639 16.657841
-16.006012 56.598846 15.488322
-15.995665 56.59919 15.106116
-15.985153 56.605396 14.727948
-15.974833 56.608021 14.350651
-15.965073 56.597507 13.971392
-15.955138 56.592987 13.596022
-16.200794 56.62698 18.246698
-16.147465 56.620396 16.270287
-16.137341 56.609375 15.879285
-16.12676 56.613487 15.495945
-16.116367 56.613926 15.113574
-16.10717 56.582142 14.723103
-16.097162 56.575211 14.343021
-16.086317 56.59338 13.972613
-16.077023 56.569706 13.591677
-16.294123 56.610401 17.045856
-16.263144 56.588696 15.869703
-16.252594 56.592766 15.486527
-16.241611 56.612156 15.110554
-16.230793 56.628002 14.73525
-16.222319 56.573463 14.34
-16.211853 56.582077 13.966724
-16.20155 56.587189 13.59422
-16.430952 56.600513 17.430311
-16.420298 56.600929 17.03599
-16.409822 56.597485 16.64282
-16.399258 56.599606 16.254204
-16.37837 56.602047 15.483392
-16.35788 56.599209 14.719816
-16.348738 56.563667 14.330721
-16.337481 56.600967 13.966125
-16.328104 56.577309 13.585108
-16.578743 56.609383 18.630733
-16.546864 56.597084 17.425823
-16.536039 56.606846 17.035025
-16.525614 56.60342 16.641773
-16.5156 56.586731 16.246347
-16.49485 56.589092 15.475697
-16.484838 56.579964 15.090374
-16.47397 56.605228 14.718347
-16.465046 56.56015 14.326222
-16.444571 56.573772 13.580605
-16.687229 56.607292 18.227932
-16.655741 56.583111 17.026821
-16.645292 56.579643 16.633734
-16.634785 56.581745 16.245197
-16.613558 56.603088 15.480941
-16.603495 56.594036 15.095453
-16.593357 56.590794 14.714167
-16.583593 56.574364 14.330972
-16.573984 56.554264 13.949016
-16.80961 56.593365 18.221573
-16.767029 56.574993 16.631155
-16.756432 56.577099 16.24262
-16.746164 56.565998 15.851871
-16.735657 56.570034 15.46878
-16.72489 56.589405 15.092884
-16.714647 56.58617 14.7116
-16.705151 56.550632 14.322514
-16.694365 56.578377 13.955049
-16.684319 56.57391 13.57968
-16.897522 56.585163 17.019194
-16.866096 56.553734 15.840035
-16.855341 56.567165 15.460222
-16.845045 56.557976 15.07499
-16.83436 56.573666 14.700016
-16.824673 56.538048 14.311023
-16.814411 56.53698 13.935052
-16.804272 56.532356 13.560022
-17.695292 56.889133 42.083305
-17.603527 56.847301 38.706749
-17.586086 56.845497 38.070438
-17.502892 56.793694 34.99691
-17.046436 56.589199 18.201529
-17.035465 56.588055 17.801168
-17.00334 56.560883 16.607695
-16.992622 56.562828 16.219246
-16.982164 56.551556 15.828588
-16.97127 56.574387 15.451963
-16.960764 56.574646 15.069761
-16.950817 56.542664 14.679488
-16.940254 56.554665 14.305469
-16.929949 56.553566 13.929332
-16.920223 56.520096 13.545811
-17.617741 56.805676 35.004005
-17.570623 56.801491 33.287449
-17.525433 56.775368 31.623838
-17.510754 56.780354 31.093969
-17.482012 56.755375 30.029295
-17.310955 56.642136 23.720469
-17.274561 56.640629 22.39576
-17.262812 56.618858 21.951492
-17.227795 56.606815 20.668608
-17.216318 56.603027 20.248266
-17.204975 56.594921 19.829401
-17.171473 56.57267 18.593632
-17.127792 56.559959 16.995085
-17.106344 56.558224 16.213636
-17.095732 56.556377 15.826254
-17.085232 56.550781 15.439972
-17.074842 56.541462 15.054829
-17.064444 56.537964 14.673882
-17.054028 56.540382 14.296921
-17.043839 56.529655 13.91801
-17.033369 56.544144 13.548532
-17.351267 56.651165 21.119967
-17.339743 56.633904 20.689232
-17.32835 56.612148 20.260246
-17.317032 56.595062 19.837137
-17.305471 56.628586 19.439737
-17.294588 56.575417 19.007774
-17.283241 56.600815 18.612659
-17.271992 56.622334 18.218384
-17.261425 56.565613 17.795525
-17.250317 56.588493 17.407293
-17.239536 56.579533 17.009293
-17.228785 56.576035 16.616051
-17.218054 56.578106 16.227356
-17.207336 56.585861 15.842999
-17.196894 56.570969 15.453196
-17.186466 56.561794 15.067803
-17.17614 56.548912 14.683583
-17.16552 56.57056 14.312339
-17.155491 56.540836 13.927376
-17.144945 56.565044 13.560508
-17.307077 56.609261 15.474405
-17.255089 56.594772 13.576859
-19.061619 56.799171 42.184868
-19.166164 56.820019 42.223251
-19.818193 56.618649 31.244644
-19.78961 56.606606 30.183544
-19.775311 56.595383 29.65934
-19.783249 56.457649 19.538546
-19.759956 56.423893 18.705784
-19.740414 56.456757 17.912828
-19.730209 56.462692 17.516008
-19.698826 56.457188 16.332342
-19.689053 56.466515 15.946752
-19.678219 56.453217 15.555678
-19.831289 56.407021 17.899879
-19.809816 56.396141 17.100929
-19.799862 56.403534 16.710304
-19.789774 56.407127 16.320698
-19.77906 56.397514 15.928861
-19.768217 56.384087 15.538281
-19.758709 56.395329 15.158363
-19.749069 56.402958 14.779279
-19.739298 56.406994 14.40106
-19.730366 56.426582 14.029488
-19.720335 56.423527 13.652937
-19.901836 56.392227 17.108217
-19.870081 56.375008 15.929325
-19.859726 56.371071 15.542032
-19.818964 56.356407 14.016001
-19.80995 56.372437 13.645532
-19.920685 56.35297 14.398324
-19.901297 56.359962 13.647914
-20.001595 56.342373 14.01867
-19.991537 56.339294 13.642537
-20.104103 56.360817 14.397406
-20.093012 56.342209 14.014345
-20.082899 56.339111 13.638131
-20.224804 56.346889 15.534092
-20.214706 56.348713 15.150888
-20.203852 56.337368 14.765648
-20.183409 56.332279 14.007414
-20.174408 56.348316 13.636775
-20.304152 56.336571 15.150463
-20.264841 56.355423 13.641928
-20.392469 56.332375 15.15748
-20.372854 56.344337 14.399852
-20.361515 56.325825 14.01663
-20.44595 56.313236 14.018029
-20.572014 56.333885 15.551402
-20.551054 56.324841 14.782292
-20.52997 56.310658 14.020517
-20.656685 56.331112 15.553976
-20.604553 56.305141 13.646209
-20.762859 56.330647 16.335777
-20.710558 56.313263 14.407758
-20.690407 56.311199 13.653393
-20.805601 56.304661 14.79219
-20.785103 56.300335 14.032953
-20.774164 56.287994 13.65345
-20.919893 56.312859 15.95481
-20.889008 56.31031 14.80021
-20.867773 56.296616 14.037767
-20.97904 56.298565 15.18425
-20.937485 56.280903 13.662216
-21.069569 56.302147 15.57514
-21.028358 56.28978 14.045453
-21.019014 56.296753 13.671273
-21.673294 56.545635 34.732273
-21.658373 56.548702 34.157463
-21.566236 56.495316 30.815569
-21.214321 56.326241 17.949894
-21.160206 56.301773 15.966985
-21.118364 56.285313 14.426668
-21.108479 56.286324 14.048683
-21.777227 56.567154 35.347519
-21.60952 56.48521 29.261387
-21.594818 56.471851 28.745905
-21.580509 56.460892 28.238228
-21.566605 56.452515 27.738197
-21.529799 56.470211 26.297937
-21.516005 56.456936 25.816454
-21.490555 56.448994 24.879654
-21.478113 56.446053 24.418964
-21.266243 56.330631 16.763853
-21.253775 56.306919 16.362907
-21.242676 56.298069 15.970083
-21.234583 56.323147 15.591337
-21.222143 56.297333 15.197606
-21.211897 56.296158 14.814487
-21.20303 56.310371 14.438312
-21.191458 56.292423 14.054248
-21.182083 56.299515 13.679818
-21.306669 56.332382 15.210771
-21.274998 56.318333 14.063295
-23.458546 56.496639 39.283092
-23.640343 56.497746 39.344971
-23.84314 56.426849 34.386776
-23.810106 56.361496 31.013319
-23.687719 56.287773 24.554546
-23.802595 56.307129 26.454611
-23.775259 56.296333 25.499022
-23.749201 56.290607 24.566025
-23.738428 56.301903 24.114302
-23.723257 56.282249 23.649961
-23.783287 56.269005 23.649551
-23.770117 56.261887 23.196552
-23.761518 56.285179 22.763613
-23.728615 56.138851 14.914398
-23.796843 56.134769 14.915013
-23.786036 56.131374 14.530015
-23.774754 56.124348 14.146075
-23.762997 56.113701 13.763228
-25.828508 56.353718 38.988113
-25.885357 56.350361 39.004955
-25.743629 56.298767 34.076771
-25.699774 56.240459 30.727688
-25.686171 56.243969 30.202311
-25.60997 56.205723 27.630562
-25.571646 56.211823 26.174639
-25.472673 56.151054 22.905424
-25.206572 56.031342 13.835258
-25.771444 56.243504 31.268349
-25.654259 56.212643 27.14608
-25.596737 56.183491 25.212801
-25.540367 56.149208 23.355057
-25.487816 56.125145 21.572268
-25.454325 56.132854 20.287518
-25.831202 56.256104 31.281212
-25.628796 56.186054 24.287565
-25.614672 56.177227 23.825031
-25.599733 56.16349 23.364384
-25.525452 56.149422 20.722265
-25.499233 56.132736 19.865614
-26.111916 56.336193 39.028576
-25.580437 56.144489 20.726036
-26.455902 56.272324 35.300678
-26.585871 56.257809 35.275555
-26.834703 56.292488 39.024269
-26.724188 56.189861 31.263329
-26.967325 56.236134 35.283459
-26.961018 56.18898 31.308067
-27.251101 56.222404 35.355766
-27.128052 56.179985 31.354494
-27.418417 56.209026 35.388672
-27.809864 56.119289 30.950409
-27.763758 56.110943 29.364151
-27.770071 56.081867 27.335737
-27.819618 56.06049 26.860489
-27.790337 56.050373 25.886248
-27.777075 56.050129 25.409565
-27.764774 56.05331 24.939613
-27.795382 56.020386 24.014557
-27.756504 56.014824 22.649321
-27.742205 56.006493 22.199179
-27.719093 56.011208 21.321198
-27.701828 55.989246 20.876175
-27.681492 56.003033 20.023912
-27.717207 55.964451 19.163258
-27.70594 55.965599 18.745907
-27.773008 55.945957 18.742313
-27.762983 55.952076 18.329966
-27.729815 55.955761 17.103729
-29.627699 55.941216 26.098118
-29.580719 55.900719 21.916414
-29.471901 55.866177 18.45319
-29.438808 55.833435 17.610332
-29.618097 55.87455 20.599438
-29.510639 55.837872 17.212881
-29.494011 55.820679 16.798323
-30.036032 55.992805 31.31814
-31.631786 55.894527 39.582455
-31.762468 55.877419 38.948605
-31.845234 55.871647 38.962704
-31.906252 55.850437 38.313255
-31.81039 55.809345 35.180328
-31.969055 55.792297 34.59639
-31.881346 55.760456 31.720963
-31.725183 55.732746 19.618994
-31.709467 55.721008 19.183798
-31.720217 55.694744 16.657961
-31.7076 55.690701 16.246195
-31.7195 55.647293 13.81882
-31.713886 55.663109 13.428668
-33.888145 55.737373 38.205189
-33.740623 55.636883 31.071131
-34.176468 55.731533 38.968498
-33.441395 55.5583 14.811034
-34.275059 55.729187 38.99477
-34.613853 55.698044 39.175114
-34.457195 55.590771 31.330956
-34.777206 55.693638 38.651356
-34.937057 55.624992 34.947296
-35.514519 55.623676 39.549706
-35.51001 55.653881 38.916473
-35.637245 55.635338 38.976559
-35.716866 55.60342 39.00779
-35.704472 55.612938 38.363472
-35.605545 55.56599 35.197002
-35.49094 55.535942 31.136959
-35.705963 55.569935 35.225082
-35.924625 55.557846 34.730392
-35.898994 55.533409 34.116997
-35.804455 55.514423 30.695017
-35.787739 55.461338 27.486828
-35.904919 55.470428 28.535002
-37.946251 55.462578 38.685627
-38.055901 55.48262 38.761616
-37.911285 55.419655 34.321194
-37.65361 55.328297 26.047318
-38.07449 55.451046 38.769802
-37.940319 55.411037 34.346844
-37.997528 55.420277 34.98214
-37.991508 55.441196 34.396374
-37.84811 55.36248 30.325163
-37.738983 55.338829 26.605671
-38.151463 55.487453 38.207726
-38.025902 55.43359 34.417706
-37.903717 55.370667 30.907961
-37.785564 55.33205 27.135633
-37.611992 55.268318 21.712311
-38.208561 55.453747 39.544514
-38.203487 55.4804 38.90332
-38.106483 55.421062 35.097313
-38.093811 55.428417 34.498913
-38.24836 55.471806 38.328831
-38.012882 55.383846 31.02865
-38.290916 55.442989 39.005035
-38.283131 55.463593 38.365654
-38.052574 55.387482 31.067438
-38.308697 55.449295 38.398457
-38.199928 55.398167 35.199135
-38.343155 55.46104 38.44519
-38.36573 55.431038 38.44931
-38.147976 55.378616 31.154119
-38.448433 55.456184 38.533459
-38.21257 55.366367 31.195595
-38.475559 55.467312 38.568794
-38.360512 55.401337 35.343697
-38.382694 55.393883 35.354748
-38.261795 55.36565 31.231256
-38.517277 55.438156 38.576519
-38.558907 55.4245 39.235962
-38.548889 55.439922 38.588169
-38.326534 55.37677 31.258213
-38.583439 55.440609 38.616272
-38.493793 55.382843 35.412937
-38.36438 55.342464 31.273184
-38.609848 55.426491 38.646667
-38.387287 55.368755 31.309803
-38.629482 55.459068 38.693886
-38.493637 55.386082 34.842396
-38.621307 55.439728 38.702507
-38.496456 55.389244 34.868511
-38.395123 55.371861 31.348816
-38.617691 55.437923 38.736656
-38.607159 55.452244 38.818787
-38.482746 55.400661 34.974239
-38.442822 55.385067 35.012417
-38.548306 55.45224 38.909107
-38.417774 55.383205 35.043938
-38.394878 55.418346 34.495354
-38.225159 55.370567 31.019138
-38.433807 55.473293 38.362946
-38.322193 55.404522 35.147747
-38.408154 55.469101 38.380196
-38.382225 55.461708 38.385197
-38.357918 55.445702 38.367271
-38.35965 55.474541 38.380981
-38.11639 55.361298 31.031578
-38.342678 55.472767 38.374348
-38.32555 55.473843 38.381329
-38.216373 55.41296 35.170319
-38.289555 55.456486 38.371059
-38.121231 55.428078 34.601402
-38.101997 55.405151 35.205772
-38.100388 55.434097 34.621334
-37.876007 55.33477 27.282122
-37.551624 55.208359 16.360138
-38.175713 55.445862 38.407795
-38.071835 55.421322 34.618168
-37.93523 55.365925 31.085373
-38.128174 55.468826 38.420471
-38.01178 55.414505 34.606392
-37.912216 55.381889 31.093149
-37.623096 55.262543 21.33396
-37.993973 55.442768 34.630421
-37.877949 55.372559 31.088619
-37.865093 55.373837 30.531763
-37.519661 55.242107 18.580267
-38.071896 55.477818 38.437206
-37.949928 55.409065 34.610668
-37.838406 55.377632 30.540472
-37.702599 55.330227 25.74917
-37.466946 55.23378 17.690966
-37.376621 55.194561 14.642653
-37.925877 55.408012 34.606449
-37.813843 55.376324 30.536268
-38.026138 55.485615 39.072697
-35.750546 55.41164 14.44087
-35.739109 55.404404 14.014578
-35.719051 55.396896 13.170119
-35.884571 55.456665 27.006357
-35.870296 55.446754 26.486229
-35.857296 55.439846 25.972891
-35.946438 55.553635 35.479824
-35.834885 55.507248 30.777309
-35.966564 55.601517 39.357754
-35.936958 55.592537 38.036545
-35.89006 55.600082 39.360878
-35.832256 55.64283 39.397839
-35.760853 55.643688 39.393814
-35.653061 55.588806 34.904274
-35.558784 55.654442 39.350269
-35.351814 55.649628 39.324802
-35.27195 55.657764 39.314655
-35.040821 55.630367 35.448147
-35.074299 55.683762 39.31041
-35.006977 55.684826 39.286308
-34.752651 55.63866 35.399353
-34.765553 55.690868 39.27285
-34.625557 55.703426 39.260639
-34.388763 55.699409 39.206547
-33.977047 55.689907 35.354523
-33.576912 55.571037 16.545351
-33.459732 55.561394 14.820257
-33.439156 55.548187 13.968776
-31.775368 55.661976 14.827633
-31.763786 55.647484 14.399146
-31.970566 55.728065 29.535521
-31.828156 55.744926 21.521759
-31.817986 55.738865 21.052916
-31.769276 55.827606 26.949818
-29.670259 55.906147 23.463146
-29.589214 55.867455 19.697102
-29.53314 55.848255 17.013651
-29.39522 55.824318 15.708721
-27.914625 55.934692 18.588751
-27.876232 55.988815 21.839249
-27.867022 55.984623 21.36813
-27.850922 55.98967 20.4419
-27.833635 55.985741 19.525011
-27.812281 55.954643 18.61054
-27.9098 56.08313 28.916945
-27.809368 56.028854 23.790268
-27.80022 56.02623 23.304121
-27.844431 56.11964 31.145666
-27.772173 56.086239 27.355751
-25.714794 56.255573 31.369326
-25.667578 56.239689 28.621382
-25.647442 56.213848 27.550743
-25.627979 56.191212 26.503235
-25.610985 56.190563 25.487001
-25.550531 56.154613 22.049999
-25.096275 56.041397 13.974648
-24.979231 56.051823 13.134204
-24.896553 56.054169 14.410928
-24.882298 56.057228 13.560335
-24.875135 56.057728 13.137553
-24.776442 56.062313 13.565834
-24.452332 56.091366 13.603006
-24.444603 56.082439 13.17705
-24.250648 56.10054 14.903978
-24.243797 56.1036 14.474804
-24.222572 56.098644 13.195283
-24.037544 56.124126 15.333218
-24.03031 56.121506 14.899991
-24.015278 56.104122 14.036735
-24.002169 56.11924 13.189607
-23.918976 56.257133 21.225842
-23.90588 56.297569 27.171869
-23.862532 56.273388 24.615028
-23.854992 56.286732 24.125826
-23.981628 56.456871 38.282066
-23.793314 56.326694 27.191179
-21.717295 56.62561 40.566547
-21.643738 56.555882 35.957417
-21.633421 56.578754 35.356464
-21.594896 56.534786 32.93137
-21.567163 56.505592 31.188688
-21.549286 56.479328 30.054827
-21.540451 56.469707 29.499096
-21.505646 56.458611 27.347054
-21.497171 56.454647 26.821272
-21.472048 56.454178 25.278179
-21.275213 56.33651 18.968365
-21.216961 56.330719 15.370429
-21.202759 56.330303 14.494659
-21.195528 56.338524 14.06195
-21.188412 56.342758 13.630029
-21.173256 56.34412 18.517101
-21.143873 56.338978 16.706776
-21.12225 56.335667 15.375108
-21.114704 56.351952 14.940416
-21.107742 56.344875 14.501361
-21.100452 56.353092 14.068306
-21.093985 56.328186 13.628928
-21.057577 56.358448 17.159832
-21.036346 56.329411 15.812525
-21.028822 56.340092 15.37411
-21.021688 56.337048 14.933919
-21.014189 56.349232 14.499857
-21.007339 56.338028 14.061641
-21.000114 56.342175 13.629291
-20.993025 56.342346 13.197767
-20.983257 56.362091 18.522932
-20.946144 56.366341 16.266668
-20.93899 56.362022 15.821197
-20.924875 56.35046 14.93634
-20.910542 56.351429 14.063386
-20.896521 56.345997 13.19655
-20.900126 56.364841 19.448595
-20.885088 56.365005 18.526342
-20.877409 56.372601 18.07197
-20.862577 56.37476 17.166586
-20.855717 56.359818 16.712704
-20.841036 56.364933 15.823108
-20.834398 56.34679 15.375824
-20.826721 56.363003 14.940367
-20.819506 56.365528 14.503091
-20.813066 56.344616 14.061835
-20.798822 56.348846 13.196941
-20.770994 56.349644 17.612972
-20.755367 56.381218 16.721739
-20.74077 56.38644 15.831306
-20.73423 56.368343 15.383603
-20.727545 56.355667 14.939869
-20.720045 56.367832 14.504956
-20.70689 56.341305 13.627969
-20.683485 56.368816 18.53537
-20.675566 56.385906 18.0837
-20.668182 56.389206 17.62985
-20.654007 56.382824 16.725639
-20.633511 56.360359 15.384046
-20.625879 56.376602 14.947994
-20.618782 56.379147 14.510125
-20.611868 56.377636 14.073177
-20.599316 56.343052 13.197637
-20.575615 56.376129 18.089407
