# .PCD v0.7 - Point Cloud Data file format
VERSION 0.7
FIELDS x y z
SIZE 4 4 4
TYPE F F F
COUNT 1 1 1
WIDTH 1558
HEIGHT 1
VIEWPOINT 0 0 0 1 0 0 0
POINTS 1558
DATA ascii
-18.376394 56.576805 16.755455
-18.376385 56.576675 16.610693
-18.376375 56.576546 16.465931
-18.376366 56.576416 16.321169
-18.376356 56.576286 16.176407
-18.376347 56.576157 16.031645
-18.376337 56.576027 15.886884
-18.376328 56.575897 15.742123
-18.376318 56.575768 15.597362
-18.376308 56.575638 15.4526
-18.376299 56.575508 15.307839
-18.376289 56.575378 15.163078
-18.37628 56.575249 15.018317
-18.37627 56.575119 14.873556
-18.376261 56.574989 14.728795
-18.376251 56.57486 14.584034
-18.376242 56.57473 14.439273
-18.376232 56.5746 14.294512
-18.376223 56.574471 14.149751
-18.376213 56.574341 14.00499
-18.376204 56.574211 13.860229
-18.376194 56.574081 13.715467
-18.376184 56.573952 13.570706
-18.376175 56.573822 13.425945
-18.376165 56.573692 13.281184
-18.376156 56.573563 13.136423
-18.376146 56.573433 12.991662
-18.376137 56.573303 12.846901
-18.376127 56.573174 12.70214
-18.376118 56.573044 12.557379
-18.125069 56.625629 48.747646
-18.125059 56.6255 48.602886
-18.12505 56.62537 48.458126
-18.12504 56.62524 48.313366
-18.125031 56.625111 48.168606
-18.125021 56.624981 48.023846
-18.125011 56.624851 47.879086
-18.125002 56.624722 47.734325
-18.124992 56.624592 47.589565
-18.124983 56.624462 47.444805
-18.124973 56.624332 47.300045
-18.124964 56.624203 47.155285
-18.124954 56.624073 47.010525
-18.124945 56.623943 46.865765
-18.124935 56.623814 46.721004
-18.124926 56.623684 46.576244
-18.124916 56.623554 46.431484
-18.124907 56.623425 46.286724
-18.124897 56.623295 46.141964
-18.124887 56.623165 45.997204
-18.124878 56.623035 45.852444
-18.124868 56.622906 45.707684
-18.124859 56.622776 45.562923
-18.124849 56.622646 45.418163
-18.12484 56.622517 45.273403
-18.12483 56.622387 45.128643
-18.124821 56.622257 44.983883
-18.124811 56.622128 44.839123
-18.124802 56.621998 44.694363
-18.124792 56.621868 44.549603
-18.124783 56.621738 44.404842
-18.124773 56.621609 44.260082
-18.124763 56.621479 44.115322
-18.124754 56.621349 43.970562
-18.124744 56.62122 43.825802
-18.124735 56.62109 43.681042
-18.124725 56.62096 43.536282
-18.124716 56.620831 43.391521
-18.124706 56.620701 43.246761
-18.124697 56.620571 43.102001
-18.124687 56.620441 42.957241
-18.124678 56.620312 42.812481
-18.124668 56.620182 42.667721
-18.124659 56.620052 42.522961
-18.124649 56.619923 42.378201
-18.12464 56.619793 42.23344
-18.12463 56.619663 42.08868
-18.12462 56.619534 41.94392
-18.124611 56.619404 41.79916
-18.124601 56.619274 41.6544
-18.124592 56.619144 41.50964
-18.124582 56.619015 41.36488
-18.124573 56.618885 41.220119
-18.124563 56.618755 41.075359
-18.124554 56.618626 40.930599
-18.124544 56.618496 40.785839
-18.124535 56.618366 40.641079
-18.124525 56.618237 40.496319
-18.124516 56.618107 40.351559
-18.124506 56.617977 40.206799
-18.124496 56.617847 40.062038
-18.124487 56.617718 39.917278
-18.124477 56.617588 39.772518
-18.124468 56.617458 39.627758
-18.124458 56.617329 39.482998
-18.124449 56.617199 39.338238
-18.124439 56.617069 39.193478
-18.12443 56.61694 39.048717
-18.12442 56.61681 38.903957
-18.124411 56.61668 38.759197
-18.124401 56.61655 38.614437
-18.124392 56.616421 38.469677
-18.124382 56.616291 38.324917
-18.124372 56.616161 38.180157
-18.124363 56.616032 38.035397
-18.124353 56.615902 37.890636
-18.124344 56.615772 37.745876
-18.124334 56.615643 37.601116
-18.124325 56.615513 37.456356
-18.124315 56.615383 37.311596
-18.124306 56.615253 37.166836
-18.124296 56.615124 37.022076
-18.124287 56.614994 36.877316
-18.124277 56.614864 36.732555
-18.124268 56.614735 36.587795
-18.124258 56.614605 36.443035
-18.124249 56.614475 36.298275
-18.124239 56.614346 36.153515
-18.124229 56.614216 36.008755
-18.12422 56.614086 35.863995
-18.12421 56.613956 35.719234
-18.124201 56.613827 35.574474
-18.124191 56.613697 35.429714
-18.124182 56.613567 35.284954
-18.124172 56.613438 35.140194
-18.124163 56.613308 34.995434
-18.124153 56.613178 34.850674
-18.124144 56.613049 34.705914
-18.124134 56.612919 34.561153
-18.124125 56.612789 34.416393
-18.124115 56.612659 34.271633
-18.124105 56.61253 34.126873
-18.124096 56.6124 33.982113
-18.124086 56.61227 33.837353
-18.124077 56.612141 33.692593
-18.124067 56.612011 33.547832
-18.124058 56.611881 33.403072
-18.124048 56.611752 33.258312
-18.124039 56.611622 33.113552
-18.124029 56.611492 32.968792
-18.12402 56.611362 32.824032
-18.12401 56.611233 32.679272
-18.124001 56.611103 32.534512
-18.123991 56.610973 32.389751
-18.123981 56.610844 32.244991
-18.123972 56.610714 32.100231
-18.123962 56.610584 31.955469
-18.123953 56.610455 31.810707
-18.123943 56.610325 31.665945
-18.123934 56.610195 31.521183
-18.123924 56.610065 31.376421
-18.123915 56.609936 31.231659
-18.123905 56.609806 31.086897
-18.123896 56.609676 30.942135
-18.123886 56.609547 30.797373
-18.123877 56.609417 30.652611
-18.123867 56.609287 30.507849
-18.123857 56.609158 30.363087
-18.123848 56.609028 30.218325
-18.123838 56.608898 30.073563
-18.123829 56.608768 29.928801
-18.123819 56.608639 29.784039
-18.12381 56.608509 29.639277
-18.1238 56.608379 29.494514
-18.123791 56.60825 29.349752
-18.123781 56.60812 29.20499
-18.123772 56.60799 29.060228
-18.123762 56.607861 28.915466
-18.123753 56.607731 28.770704
-18.123743 56.607601 28.625942
-18.123734 56.607471 28.48118
-18.123724 56.607342 28.336418
-18.123714 56.607212 28.191656
-18.123705 56.607082 28.046894
-18.123695 56.606953 27.902132
-18.123686 56.606823 27.75737
-18.123676 56.606693 27.612608
-18.123667 56.606564 27.467846
-18.123657 56.606434 27.323084
-18.123648 56.606304 27.178322
-18.123638 56.606174 27.03356
-18.123629 56.606045 26.888798
-18.123619 56.605915 26.744036
-18.12361 56.605785 26.599274
-18.1236 56.605656 26.454512
-18.12359 56.605526 26.30975
-18.123581 56.605396 26.164988
-18.123571 56.605267 26.020226
-18.123562 56.605137 25.875463
-18.123552 56.605007 25.730701
-18.123543 56.604877 25.585939
-18.123533 56.604748 25.441177
-18.123524 56.604618 25.296415
-18.123514 56.604488 25.151653
-18.123505 56.604359 25.006891
-18.123495 56.604229 24.862129
-18.123486 56.604099 24.717367
-18.123476 56.60397 24.572605
-18.123466 56.60384 24.427843
-18.123457 56.60371 24.283081
-18.123447 56.60358 24.138319
-18.123438 56.603451 23.993557
-18.123428 56.603321 23.848795
-18.123419 56.603191 23.704033
-18.123409 56.603062 23.559271
-18.1234 56.602932 23.414509
-18.12339 56.602802 23.269747
-18.123381 56.602673 23.124985
-18.123371 56.602543 22.980223
-18.123362 56.602413 22.835461
-18.123352 56.602283 22.690699
-18.123343 56.602154 22.545937
-18.123333 56.602024 22.401175
-18.123323 56.601894 22.256413
-18.123314 56.601765 22.11165
-18.123304 56.601635 21.966888
-18.123295 56.601505 21.822126
-18.123285 56.601376 21.677364
-18.123276 56.601246 21.532602
-18.123266 56.601116 21.38784
-18.123257 56.600986 21.243078
-18.123247 56.600857 21.098316
-18.123238 56.600727 20.953554
-18.123228 56.600597 20.808792
-18.123219 56.600468 20.66403
-18.123209 56.600338 20.519268
-18.123199 56.600208 20.374506
-18.12319 56.600079 20.229744
-18.12318 56.599949 20.084982
-18.123171 56.599819 19.94022
-18.123161 56.599689 19.795458
-18.123152 56.59956 19.650696
-18.123142 56.59943 19.505934
-18.123133 56.5993 19.361172
-18.123123 56.599171 19.21641
-18.123114 56.599041 19.071648
-18.123104 56.598911 18.926886
-18.123095 56.598782 18.782124
-18.123085 56.598652 18.637362
-18.123075 56.598522 18.492599
-18.123066 56.598392 18.347837
-18.123056 56.598263 18.203075
-18.123047 56.598133 18.058313
-18.123037 56.598003 17.913551
-18.123028 56.597874 17.768789
-18.123018 56.597744 17.624027
-18.123009 56.597614 17.479265
-18.122999 56.597485 17.334503
-18.12299 56.597355 17.189741
-18.12298 56.597225 17.044979
-18.122971 56.597095 16.900217
-18.122961 56.596966 16.755455
-18.122952 56.596836 16.610693
-18.122942 56.596706 16.465931
-18.122932 56.596577 16.321169
-18.122923 56.596447 16.176407
-18.122913 56.596317 16.031645
-18.122904 56.596188 15.886884
-18.122894 56.596058 15.742123
-18.122885 56.595928 15.597362
-18.122875 56.595798 15.4526
-18.122866 56.595669 15.307839
-18.122856 56.595539 15.163078
-18.122847 56.595409 15.018317
-18.122837 56.59528 14.873556
-18.122828 56.59515 14.728795
-18.122818 56.59502 14.584034
-18.122808 56.594891 14.439273
-18.122799 56.594761 14.294512
-18.122789 56.594631 14.149751
-18.12278 56.594501 14.00499
-18.12277 56.594372 13.860229
-18.122761 56.594242 13.715467
-18.122751 56.594112 13.570706
-18.122742 56.593983 13.425945
-18.122732 56.593853 13.281184
-18.122723 56.593723 13.136423
-18.122713 56.593594 12.991662
-18.122704 56.593464 12.846901
-18.122694 56.593334 12.70214
-18.122684 56.593204 12.557379
-17.871635 56.64579 48.747646
-17.871626 56.64566 48.602886
-17.871616 56.645531 48.458126
-17.871607 56.645401 48.313366
-17.871597 56.645271 48.168606
-17.871588 56.645142 48.023846
-17.871578 56.645012 47.879086
-17.871569 56.644882 47.734325
-17.871559 56.644753 47.589565
-17.87155 56.644623 47.444805
-17.87154 56.644493 47.300045
-17.871531 56.644363 47.155285
-17.871521 56.644234 47.010525
-17.871511 56.644104 46.865765
-17.871502 56.643974 46.721004
-17.871492 56.643845 46.576244
-17.871483 56.643715 46.431484
-17.871473 56.643585 46.286724
-17.871464 56.643456 46.141964
-17.871454 56.643326 45.997204
-17.871445 56.643196 45.852444
-17.871435 56.643066 45.707684
-17.871426 56.642937 45.562923
-17.871416 56.642807 45.418163
-17.871407 56.642677 45.273403
-17.871397 56.642548 45.128643
-17.871387 56.642418 44.983883
-17.871378 56.642288 44.839123
-17.871368 56.642159 44.694363
-17.871359 56.642029 44.549603
-17.871349 56.641899 44.404842
-17.87134 56.641769 44.260082
-17.87133 56.64164 44.115322
-17.871321 56.64151 43.970562
-17.871311 56.64138 43.825802
-17.871302 56.641251 43.681042
-17.871292 56.641121 43.536282
-17.871283 56.640991 43.391521
-17.871273 56.640862 43.246761
-17.871264 56.640732 43.102001
-17.871254 56.640602 42.957241
-17.871244 56.640472 42.812481
-17.871235 56.640343 42.667721
-17.871225 56.640213 42.522961
-17.871216 56.640083 42.378201
-17.871206 56.639954 42.23344
-17.871197 56.639824 42.08868
-17.871187 56.639694 41.94392
-17.871178 56.639565 41.79916
-17.871168 56.639435 41.6544
-17.871159 56.639305 41.50964
-17.871149 56.639175 41.36488
-17.87114 56.639046 41.220119
-17.87113 56.638916 41.075359
-17.87112 56.638786 40.930599
-17.871111 56.638657 40.785839
-17.871101 56.638527 40.641079
-17.871092 56.638397 40.496319
-17.871082 56.638268 40.351559
-17.871073 56.638138 40.206799
-17.871063 56.638008 40.062038
-17.871054 56.637878 39.917278
-17.871044 56.637749 39.772518
-17.871035 56.637619 39.627758
-17.871025 56.637489 39.482998
-17.871016 56.63736 39.338238
-17.871006 56.63723 39.193478
-17.870996 56.6371 39.048717
-17.870987 56.636971 38.903957
-17.870977 56.636841 38.759197
-17.870968 56.636711 38.614437
-17.870958 56.636581 38.469677
-17.870949 56.636452 38.324917
-17.870939 56.636322 38.180157
-17.87093 56.636192 38.035397
-17.87092 56.636063 37.890636
-17.870911 56.635933 37.745876
-17.870901 56.635803 37.601116
-17.870892 56.635674 37.456356
-17.870882 56.635544 37.311596
-17.870872 56.635414 37.166836
-17.870863 56.635284 37.022076
-17.870853 56.635155 36.877316
-17.870844 56.635025 36.732555
-17.870834 56.634895 36.587795
-17.870825 56.634766 36.443035
-17.870815 56.634636 36.298275
-17.870806 56.634506 36.153515
-17.870796 56.634377 36.008755
-17.870787 56.634247 35.863995
-17.870777 56.634117 35.719234
-17.870768 56.633987 35.574474
-17.870758 56.633858 35.429714
-17.870749 56.633728 35.284954
-17.870739 56.633598 35.140194
-17.870729 56.633469 34.995434
-17.87072 56.633339 34.850674
-17.87071 56.633209 34.705914
-17.870701 56.63308 34.561153
-17.870691 56.63295 34.416393
-17.870682 56.63282 34.271633
-17.870672 56.63269 34.126873
-17.870663 56.632561 33.982113
-17.870653 56.632431 33.837353
-17.870644 56.632301 33.692593
-17.870634 56.632172 33.547832
-17.870625 56.632042 33.403072
-17.870615 56.631912 33.258312
-17.870605 56.631783 33.113552
-17.870596 56.631653 32.968792
-17.870586 56.631523 32.824032
-17.870577 56.631393 32.679272
-17.870567 56.631264 32.534512
-17.870558 56.631134 32.389751
-17.870548 56.631004 32.244991
-17.870539 56.630875 32.100231
-17.870529 56.630745 31.955469
-17.87052 56.630615 31.810707
-17.87051 56.630486 31.665945
-17.870501 56.630356 31.521183
-17.870491 56.630226 31.376421
-17.870481 56.630096 31.231659
-17.870472 56.629967 31.086897
-17.870462 56.629837 30.942135
-17.870453 56.629707 30.797373
-17.870443 56.629578 30.652611
-17.870434 56.629448 30.507849
-17.870424 56.629318 30.363087
-17.870415 56.629189 30.218325
-17.870405 56.629059 30.073563
-17.870396 56.628929 29.928801
-17.870386 56.628799 29.784039
-17.870377 56.62867 29.639277
-17.870367 56.62854 29.494514
-17.870358 56.62841 29.349752
-17.870348 56.628281 29.20499
-17.870338 56.628151 29.060228
-17.870329 56.628021 28.915466
-17.870319 56.627892 28.770704
-17.87031 56.627762 28.625942
-17.8703 56.627632 28.48118
-17.870291 56.627502 28.336418
-17.870281 56.627373 28.191656
-17.870272 56.627243 28.046894
-17.870262 56.627113 27.902132
-17.870253 56.626984 27.75737
-17.870243 56.626854 27.612608
-17.870234 56.626724 27.467846
-17.870224 56.626595 27.323084
-17.870214 56.626465 27.178322
-17.870205 56.626335 27.03356
-17.870195 56.626205 26.888798
-17.870186 56.626076 26.744036
-17.870176 56.625946 26.599274
-17.870167 56.625816 26.454512
-17.870157 56.625687 26.30975
-17.870148 56.625557 26.164988
-17.870138 56.625427 26.020226
-17.870129 56.625298 25.875463
-17.870119 56.625168 25.730701
-17.87011 56.625038 25.585939
-17.8701 56.624908 25.441177
-17.87009 56.624779 25.296415
-17.870081 56.624649 25.151653
-17.870071 56.624519 25.006891
-17.870062 56.62439 24.862129
-17.870052 56.62426 24.717367
-17.870043 56.62413 24.572605
-17.870033 56.624001 24.427843
-17.870024 56.623871 24.283081
-17.870014 56.623741 24.138319
-17.870005 56.623611 23.993557
-17.869995 56.623482 23.848795
-17.869986 56.623352 23.704033
-17.869976 56.623222 23.559271
-17.869967 56.623093 23.414509
-17.869957 56.622963 23.269747
-17.869947 56.622833 23.124985
-17.869938 56.622704 22.980223
-17.869928 56.622574 22.835461
-17.869919 56.622444 22.690699
-17.869909 56.622314 22.545937
-17.8699 56.622185 22.401175
-17.86989 56.622055 22.256413
-17.869881 56.621925 22.11165
-17.869871 56.621796 21.966888
-17.869862 56.621666 21.822126
-17.869852 56.621536 21.677364
-17.869843 56.621407 21.532602
-17.869833 56.621277 21.38784
-17.869823 56.621147 21.243078
-17.869814 56.621017 21.098316
-17.869804 56.620888 20.953554
-17.869795 56.620758 20.808792
-17.869785 56.620628 20.66403
-17.869776 56.620499 20.519268
-17.869766 56.620369 20.374506
-17.869757 56.620239 20.229744
-17.869747 56.62011 20.084982
-17.869738 56.61998 19.94022
-17.869728 56.61985 19.795458
-17.869719 56.61972 19.650696
-17.869709 56.619591 19.505934
-17.869699 56.619461 19.361172
-17.86969 56.619331 19.21641
-17.86968 56.619202 19.071648
-17.869671 56.619072 18.926886
-17.869661 56.618942 18.782124
-17.869652 56.618813 18.637362
-17.869642 56.618683 18.492599
-17.869633 56.618553 18.347837
-17.869623 56.618423 18.203075
-17.869614 56.618294 18.058313
-17.869604 56.618164 17.913551
-17.869595 56.618034 17.768789
-17.869585 56.617905 17.624027
-17.869576 56.617775 17.479265
-17.869566 56.617645 17.334503
-17.869556 56.617516 17.189741
-17.869547 56.617386 17.044979
-17.869537 56.617256 16.900217
-17.869528 56.617126 16.755455
-17.869518 56.616997 16.610693
-17.869509 56.616867 16.465931
-17.869499 56.616737 16.321169
-17.86949 56.616608 16.176407
-17.86948 56.616478 16.031645
-17.869471 56.616348 15.886884
-17.869461 56.616219 15.742123
-17.869452 56.616089 15.597362
-17.869442 56.615959 15.4526
-17.869432 56.615829 15.307839
-17.869423 56.6157 15.163078
-17.869413 56.61557 15.018317
-17.869404 56.61544 14.873556
-17.869394 56.615311 14.728795
-17.869385 56.615181 14.584034
-17.869375 56.615051 14.439273
-17.869366 56.614922 14.294512
-17.869356 56.614792 14.149751
-17.869347 56.614662 14.00499
-17.869337 56.614532 13.860229
-17.869328 56.614403 13.715467
-17.869318 56.614273 13.570706
-17.869308 56.614143 13.425945
-17.869299 56.614014 13.281184
-17.869289 56.613884 13.136423
-17.86928 56.613754 12.991662
-17.86927 56.613625 12.846901
-17.869261 56.613495 12.70214
-17.869251 56.613365 12.557379
-17.618202 56.665951 48.747646
-17.618193 56.665821 48.602886
-17.618183 56.665691 48.458126
-17.618174 56.665562 48.313366
-17.618164 56.665432 48.168606
-17.618155 56.665302 48.023846
-17.618145 56.665173 47.879086
-17.618135 56.665043 47.734325
-17.618126 56.664913 47.589565
-17.618116 56.664783 47.444805
-17.618107 56.664654 47.300045
-17.618097 56.664524 47.155285
-17.618088 56.664394 47.010525
-17.618078 56.664265 46.865765
-17.618069 56.664135 46.721004
-17.618059 56.664005 46.576244
-17.61805 56.663876 46.431484
-17.61804 56.663746 46.286724
-17.618031 56.663616 46.141964
-17.618021 56.663486 45.997204
-17.618011 56.663357 45.852444
-17.618002 56.663227 45.707684
-17.617992 56.663097 45.562923
-17.617983 56.662968 45.418163
-17.617973 56.662838 45.273403
-17.617964 56.662708 45.128643
-17.617954 56.662579 44.983883
-17.617945 56.662449 44.839123
-17.617935 56.662319 44.694363
-17.617926 56.662189 44.549603
-17.617916 56.66206 44.404842
-17.617907 56.66193 44.260082
-17.617897 56.6618 44.115322
-17.617887 56.661671 43.970562
-17.617878 56.661541 43.825802
-17.617868 56.661411 43.681042
-17.617859 56.661282 43.536282
-17.617849 56.661152 43.391521
-17.61784 56.661022 43.246761
-17.61783 56.660892 43.102001
-17.617821 56.660763 42.957241
-17.617811 56.660633 42.812481
-17.617802 56.660503 42.667721
-17.617792 56.660374 42.522961
-17.617783 56.660244 42.378201
-17.617773 56.660114 42.23344
-17.617764 56.659985 42.08868
-17.617754 56.659855 41.94392
-17.617744 56.659725 41.79916
-17.617735 56.659595 41.6544
-17.617725 56.659466 41.50964
-17.617716 56.659336 41.36488
-17.617706 56.659206 41.220119
-17.617697 56.659077 41.075359
-17.617687 56.658947 40.930599
-17.617678 56.658817 40.785839
-17.617668 56.658688 40.641079
-17.617659 56.658558 40.496319
-17.617649 56.658428 40.351559
-17.61764 56.658298 40.206799
-17.61763 56.658169 40.062038
-17.61762 56.658039 39.917278
-17.617611 56.657909 39.772518
-17.617601 56.65778 39.627758
-17.617592 56.65765 39.482998
-17.617582 56.65752 39.338238
-17.617573 56.657391 39.193478
-17.617563 56.657261 39.048717
-17.617554 56.657131 38.903957
-17.617544 56.657001 38.759197
-17.617535 56.656872 38.614437
-17.617525 56.656742 38.469677
-17.617516 56.656612 38.324917
-17.617506 56.656483 38.180157
-17.617496 56.656353 38.035397
-17.617487 56.656223 37.890636
-17.617477 56.656094 37.745876
-17.617468 56.655964 37.601116
-17.617458 56.655834 37.456356
-17.617449 56.655704 37.311596
-17.617439 56.655575 37.166836
-17.61743 56.655445 37.022076
-17.61742 56.655315 36.877316
-17.617411 56.655186 36.732555
-17.617401 56.655056 36.587795
-17.617392 56.654926 36.443035
-17.617382 56.654797 36.298275
-17.617373 56.654667 36.153515
-17.617363 56.654537 36.008755
-17.617353 56.654408 35.863995
-17.617344 56.654278 35.719234
-17.617334 56.654148 35.574474
-17.617325 56.654018 35.429714
-17.617315 56.653889 35.284954
-17.617306 56.653759 35.140194
-17.617296 56.653629 34.995434
-17.617287 56.6535 34.850674
-17.617277 56.65337 34.705914
-17.617268 56.65324 34.561153
-17.617258 56.653111 34.416393
-17.617249 56.652981 34.271633
-17.617239 56.652851 34.126873
-17.617229 56.652721 33.982113
-17.61722 56.652592 33.837353
-17.61721 56.652462 33.692593
-17.617201 56.652332 33.547832
-17.617191 56.652203 33.403072
-17.617182 56.652073 33.258312
-17.617172 56.651943 33.113552
-17.617163 56.651814 32.968792
-17.617153 56.651684 32.824032
-17.617144 56.651554 32.679272
-17.617134 56.651424 32.534512
-17.617125 56.651295 32.389751
-17.617115 56.651165 32.244991
-17.617105 56.651035 32.100231
-17.617096 56.650906 31.955469
-17.617086 56.650776 31.810707
-17.617077 56.650646 31.665945
-17.617067 56.650517 31.521183
-17.617058 56.650387 31.376421
-17.617048 56.650257 31.231659
-17.617039 56.650127 31.086897
-17.617029 56.649998 30.942135
-17.61702 56.649868 30.797373
-17.61701 56.649738 30.652611
-17.617001 56.649609 30.507849
-17.616991 56.649479 30.363087
-17.616982 56.649349 30.218325
-17.616972 56.64922 30.073563
-17.616962 56.64909 29.928801
-17.616953 56.64896 29.784039
-17.616943 56.64883 29.639277
-17.616934 56.648701 29.494514
-17.616924 56.648571 29.349752
-17.616915 56.648441 29.20499
-17.616905 56.648312 29.060228
-17.616896 56.648182 28.915466
-17.616886 56.648052 28.770704
-17.616877 56.647923 28.625942
-17.616867 56.647793 28.48118
-17.616858 56.647663 28.336418
-17.616848 56.647533 28.191656
-17.616838 56.647404 28.046894
-17.616829 56.647274 27.902132
-17.616819 56.647144 27.75737
-17.61681 56.647015 27.612608
-17.6168 56.646885 27.467846
-17.616791 56.646755 27.323084
-17.616781 56.646626 27.178322
-17.616772 56.646496 27.03356
-17.616762 56.646366 26.888798
-17.616753 56.646236 26.744036
-17.616743 56.646107 26.599274
-17.616734 56.645977 26.454512
-17.616724 56.645847 26.30975
-17.616714 56.645718 26.164988
-17.616705 56.645588 26.020226
-17.616695 56.645458 25.875463
-17.616686 56.645329 25.730701
-17.616676 56.645199 25.585939
-17.616667 56.645069 25.441177
-17.616657 56.644939 25.296415
-17.616648 56.64481 25.151653
-17.616638 56.64468 25.006891
-17.616629 56.64455 24.862129
-17.616619 56.644421 24.717367
-17.61661 56.644291 24.572605
-17.6166 56.644161 24.427843
-17.61659 56.644032 24.283081
-17.616581 56.643902 24.138319
-17.616571 56.643772 23.993557
-17.616562 56.643642 23.848795
-17.616552 56.643513 23.704033
-17.616543 56.643383 23.559271
-17.616533 56.643253 23.414509
-17.616524 56.643124 23.269747
-17.616514 56.642994 23.124985
-17.616505 56.642864 22.980223
-17.616495 56.642735 22.835461
-17.616486 56.642605 22.690699
-17.616476 56.642475 22.545937
-17.616467 56.642345 22.401175
-17.616457 56.642216 22.256413
-17.616447 56.642086 22.11165
-17.616438 56.641956 21.966888
-17.616428 56.641827 21.822126
-17.616419 56.641697 21.677364
-17.616409 56.641567 21.532602
-17.6164 56.641438 21.38784
-17.61639 56.641308 21.243078
-17.616381 56.641178 21.098316
-17.616371 56.641048 20.953554
-17.616362 56.640919 20.808792
-17.616352 56.640789 20.66403
-17.616343 56.640659 20.519268
-17.616333 56.64053 20.374506
-17.616323 56.6404 20.229744
-17.616314 56.64027 20.084982
-17.616304 56.640141 19.94022
-17.616295 56.640011 19.795458
-17.616285 56.639881 19.650696
-17.616276 56.639751 19.505934
-17.616266 56.639622 19.361172
-17.616257 56.639492 19.21641
-17.616247 56.639362 19.071648
-17.616238 56.639233 18.926886
-17.616228 56.639103 18.782124
-17.616219 56.638973 18.637362
-17.616209 56.638844 18.492599
-17.616199 56.638714 18.347837
-17.61619 56.638584 18.203075
-17.61618 56.638454 18.058313
-17.616171 56.638325 17.913551
-17.616161 56.638195 17.768789
-17.616152 56.638065 17.624027
-17.616142 56.637936 17.479265
-17.616133 56.637806 17.334503
-17.616123 56.637676 17.189741
-17.616114 56.637547 17.044979
-17.616104 56.637417 16.900217
-17.616095 56.637287 16.755455
-17.616085 56.637157 16.610693
-17.616076 56.637028 16.465931
-17.616066 56.636898 16.321169
-17.616056 56.636768 16.176407
-17.616047 56.636639 16.031645
-17.616037 56.636509 15.886884
-17.616028 56.636379 15.742123
-17.616018 56.63625 15.597362
-17.616009 56.63612 15.4526
-17.615999 56.63599 15.307839
-17.61599 56.63586 15.163078
-17.61598 56.635731 15.018317
-17.615971 56.635601 14.873556
-17.615961 56.635471 14.728795
-17.615952 56.635342 14.584034
-17.615942 56.635212 14.439273
-17.615932 56.635082 14.294512
-17.615923 56.634953 14.149751
-17.615913 56.634823 14.00499
-17.615904 56.634693 13.860229
-17.615894 56.634563 13.715467
-17.615885 56.634434 13.570706
-17.615875 56.634304 13.425945
-17.615866 56.634174 13.281184
-17.615856 56.634045 13.136423
-17.615847 56.633915 12.991662
-17.615837 56.633785 12.846901
-17.615828 56.633656 12.70214
-17.615818 56.633526 12.557379
-17.364769 56.686111 48.747646
-17.364759 56.685982 48.602886
-17.36475 56.685852 48.458126
-17.36474 56.685722 48.313366
-17.364731 56.685593 48.168606
-17.364721 56.685463 48.023846
-17.364712 56.685333 47.879086
-17.364702 56.685204 47.734325
-17.364693 56.685074 47.589565
-17.364683 56.684944 47.444805
-17.364674 56.684814 47.300045
-17.364664 56.684685 47.155285
-17.364655 56.684555 47.010525
-17.364645 56.684425 46.865765
-17.364635 56.684296 46.721004
-17.364626 56.684166 46.576244
-17.364616 56.684036 46.431484
-17.364607 56.683907 46.286724
-17.364597 56.683777 46.141964
-17.364588 56.683647 45.997204
-17.364578 56.683517 45.852444
-17.364569 56.683388 45.707684
-17.364559 56.683258 45.562923
-17.36455 56.683128 45.418163
-17.36454 56.682999 45.273403
-17.364531 56.682869 45.128643
-17.364521 56.682739 44.983883
-17.364511 56.68261 44.839123
-17.364502 56.68248 44.694363
-17.364492 56.68235 44.549603
-17.364483 56.68222 44.404842
-17.364473 56.682091 44.260082
-17.364464 56.681961 44.115322
-17.364454 56.681831 43.970562
-17.364445 56.681702 43.825802
-17.364435 56.681572 43.681042
-17.364426 56.681442 43.536282
-17.364416 56.681313 43.391521
-17.364407 56.681183 43.246761
-17.364397 56.681053 43.102001
-17.364388 56.680923 42.957241
-17.364378 56.680794 42.812481
-17.364368 56.680664 42.667721
-17.364359 56.680534 42.522961
-17.364349 56.680405 42.378201
-17.36434 56.680275 42.23344
-17.36433 56.680145 42.08868
-17.364321 56.680016 41.94392
-17.364311 56.679886 41.79916
-17.364302 56.679756 41.6544
-17.364292 56.679626 41.50964
-17.364283 56.679497 41.36488
-17.364273 56.679367 41.220119
-17.364264 56.679237 41.075359
-17.364254 56.679108 40.930599
-17.364244 56.678978 40.785839
-17.364235 56.678848 40.641079
-17.364225 56.678719 40.496319
-17.364216 56.678589 40.351559
-17.364206 56.678459 40.206799
-17.364197 56.678329 40.062038
-17.364187 56.6782 39.917278
-17.364178 56.67807 39.772518
-17.364168 56.67794 39.627758
-17.364159 56.677811 39.482998
-17.364149 56.677681 39.338238
-17.36414 56.677551 39.193478
-17.36413 56.677422 39.048717
-17.36412 56.677292 38.903957
-17.364111 56.677162 38.759197
-17.364101 56.677032 38.614437
-17.364092 56.676903 38.469677
-17.364082 56.676773 38.324917
-17.364073 56.676643 38.180157
-17.364063 56.676514 38.035397
-17.364054 56.676384 37.890636
-17.364044 56.676254 37.745876
-17.364035 56.676125 37.601116
-17.364025 56.675995 37.456356
-17.364016 56.675865 37.311596
-17.364006 56.675735 37.166836
-17.363997 56.675606 37.022076
-17.363987 56.675476 36.877316
-17.363977 56.675346 36.732555
-17.363968 56.675217 36.587795
-17.363958 56.675087 36.443035
-17.363949 56.674957 36.298275
-17.363939 56.674828 36.153515
-17.36393 56.674698 36.008755
-17.36392 56.674568 35.863995
-17.363911 56.674438 35.719234
-17.363901 56.674309 35.574474
-17.363892 56.674179 35.429714
-17.363882 56.674049 35.284954
-17.363873 56.67392 35.140194
-17.363863 56.67379 34.995434
-17.363853 56.67366 34.850674
-17.363844 56.673531 34.705914
-17.363834 56.673401 34.561153
-17.363825 56.673271 34.416393
-17.363815 56.673141 34.271633
-17.363806 56.673012 34.126873
-17.363796 56.672882 33.982113
-17.363787 56.672752 33.837353
-17.363777 56.672623 33.692593
-17.363768 56.672493 33.547832
-17.363758 56.672363 33.403072
-17.363749 56.672234 33.258312
-17.363739 56.672104 33.113552
-17.363729 56.671974 32.968792
-17.36372 56.671844 32.824032
-17.36371 56.671715 32.679272
-17.363701 56.671585 32.534512
-17.363691 56.671455 32.389751
-17.363682 56.671326 32.244991
-17.363672 56.671196 32.100231
-17.363663 56.671066 31.955469
-17.363653 56.670937 31.810707
-17.363644 56.670807 31.665945
-17.363634 56.670677 31.521183
-17.363625 56.670547 31.376421
-17.363615 56.670418 31.231659
-17.363605 56.670288 31.086897
-17.363596 56.670158 30.942135
-17.363586 56.670029 30.797373
-17.363577 56.669899 30.652611
-17.363567 56.669769 30.507849
-17.363558 56.66964 30.363087
-17.363548 56.66951 30.218325
-17.363539 56.66938 30.073563
-17.363529 56.66925 29.928801
-17.36352 56.669121 29.784039
-17.36351 56.668991 29.639277
-17.363501 56.668861 29.494514
-17.363491 56.668732 29.349752
-17.363482 56.668602 29.20499
-17.363472 56.668472 29.060228
-17.363462 56.668343 28.915466
-17.363453 56.668213 28.770704
-17.363443 56.668083 28.625942
-17.363434 56.667953 28.48118
-17.363424 56.667824 28.336418
-17.363415 56.667694 28.191656
-17.363405 56.667564 28.046894
-17.363396 56.667435 27.902132
-17.363386 56.667305 27.75737
-17.363377 56.667175 27.612608
-17.363367 56.667046 27.467846
-17.363358 56.666916 27.323084
-17.363348 56.666786 27.178322
-17.363338 56.666656 27.03356
-17.363329 56.666527 26.888798
-17.363319 56.666397 26.744036
-17.36331 56.666267 26.599274
-17.3633 56.666138 26.454512
-17.363291 56.666008 26.30975
-17.363281 56.665878 26.164988
-17.363272 56.665749 26.020226
-17.363262 56.665619 25.875463
-17.363253 56.665489 25.730701
-17.363243 56.665359 25.585939
-17.363234 56.66523 25.441177
-17.363224 56.6651 25.296415
-17.363214 56.66497 25.151653
-17.363205 56.664841 25.006891
-17.363195 56.664711 24.862129
-17.363186 56.664581 24.717367
-17.363176 56.664452 24.572605
-17.363167 56.664322 24.427843
-17.363157 56.664192 24.283081
-17.363148 56.664063 24.138319
-17.363138 56.663933 23.993557
-17.363129 56.663803 23.848795
-17.363119 56.663673 23.704033
-17.36311 56.663544 23.559271
-17.3631 56.663414 23.414509
-17.363091 56.663284 23.269747
-17.363081 56.663155 23.124985
-17.363071 56.663025 22.980223
-17.363062 56.662895 22.835461
-17.363052 56.662766 22.690699
-17.363043 56.662636 22.545937
-17.363033 56.662506 22.401175
-17.363024 56.662376 22.256413
-17.363014 56.662247 22.11165
-17.363005 56.662117 21.966888
-17.362995 56.661987 21.822126
-17.362986 56.661858 21.677364
-17.362976 56.661728 21.532602
-17.362967 56.661598 21.38784
-17.362957 56.661469 21.243078
-17.362947 56.661339 21.098316
-17.362938 56.661209 20.953554
-17.362928 56.661079 20.808792
-17.362919 56.66095 20.66403
-17.362909 56.66082 20.519268
-17.3629 56.66069 20.374506
-17.36289 56.660561 20.229744
-17.362881 56.660431 20.084982
-17.362871 56.660301 19.94022
-17.362862 56.660172 19.795458
-17.362852 56.660042 19.650696
-17.362843 56.659912 19.505934
-17.362833 56.659782 19.361172
-17.362823 56.659653 19.21641
-17.362814 56.659523 19.071648
-17.362804 56.659393 18.926886
-17.362795 56.659264 18.782124
-17.362785 56.659134 18.637362
-17.362776 56.659004 18.492599
-17.362766 56.658875 18.347837
-17.362757 56.658745 18.203075
-17.362747 56.658615 18.058313
-17.362738 56.658485 17.913551
-17.362728 56.658356 17.768789
-17.362719 56.658226 17.624027
-17.362709 56.658096 17.479265
-17.3627 56.657967 17.334503
-17.36269 56.657837 17.189741
-17.36268 56.657707 17.044979
-17.362671 56.657578 16.900217
-17.362661 56.657448 16.755455
-17.362652 56.657318 16.610693
-17.362642 56.657188 16.465931
-17.362633 56.657059 16.321169
-17.362623 56.656929 16.176407
-17.362614 56.656799 16.031645
-17.362604 56.65667 15.886884
-17.362595 56.65654 15.742123
-17.362585 56.65641 15.597362
-17.362576 56.656281 15.4526
-17.362566 56.656151 15.307839
-17.362556 56.656021 15.163078
-17.362547 56.655891 15.018317
-17.362537 56.655762 14.873556
-17.362528 56.655632 14.728795
-17.362518 56.655502 14.584034
-17.362509 56.655373 14.439273
-17.362499 56.655243 14.294512
-17.36249 56.655113 14.149751
-17.36248 56.654984 14.00499
-17.362471 56.654854 13.860229
-17.362461 56.654724 13.715467
-17.362452 56.654594 13.570706
-17.362442 56.654465 13.425945
-17.362432 56.654335 13.281184
-17.362423 56.654205 13.136423
-17.362413 56.654076 12.991662
-17.362404 56.653946 12.846901
-17.362394 56.653816 12.70214
-17.362385 56.653687 12.557379
-17.111336 56.706272 48.747646
-17.111326 56.706142 48.602886
-17.111317 56.706013 48.458126
-17.111307 56.705883 48.313366
-17.111298 56.705753 48.168606
-17.111288 56.705624 48.023846
-17.111279 56.705494 47.879086
-17.111269 56.705364 47.734325
-17.111259 56.705235 47.589565
-17.11125 56.705105 47.444805
-17.11124 56.704975 47.300045
-17.111231 56.704845 47.155285
-17.111221 56.704716 47.010525
-17.111212 56.704586 46.865765
-17.111202 56.704456 46.721004
-17.111193 56.704327 46.576244
-17.111183 56.704197 46.431484
-17.111174 56.704067 46.286724
-17.111164 56.703938 46.141964
-17.111155 56.703808 45.997204
-17.111145 56.703678 45.852444
-17.111135 56.703548 45.707684
-17.111126 56.703419 45.562923
-17.111116 56.703289 45.418163
-17.111107 56.703159 45.273403
-17.111097 56.70303 45.128643
-17.111088 56.7029 44.983883
-17.111078 56.70277 44.839123
-17.111069 56.702641 44.694363
-17.111059 56.702511 44.549603
-17.11105 56.702381 44.404842
-17.11104 56.702251 44.260082
-17.111031 56.702122 44.115322
-17.111021 56.701992 43.970562
-17.111012 56.701862 43.825802
-17.111002 56.701733 43.681042
-17.110992 56.701603 43.536282
-17.110983 56.701473 43.391521
-17.110973 56.701344 43.246761
-17.110964 56.701214 43.102001
-17.110954 56.701084 42.957241
-17.110945 56.700954 42.812481
-17.110935 56.700825 42.667721
-17.110926 56.700695 42.522961
-17.110916 56.700565 42.378201
-17.110907 56.700436 42.23344
-17.110897 56.700306 42.08868
-17.110888 56.700176 41.94392
-17.110878 56.700047 41.79916
-17.110868 56.699917 41.6544
-17.110859 56.699787 41.50964
-17.110849 56.699657 41.36488
-17.11084 56.699528 41.220119
-17.11083 56.699398 41.075359
-17.110821 56.699268 40.930599
-17.110811 56.699139 40.785839
-17.110802 56.699009 40.641079
-17.110792 56.698879 40.496319
-17.110783 56.69875 40.351559
-17.110773 56.69862 40.206799
-17.110764 56.69849 40.062038
-17.110754 56.69836 39.917278
-17.110744 56.698231 39.772518
-17.110735 56.698101 39.627758
-17.110725 56.697971 39.482998
-17.110716 56.697842 39.338238
-17.110706 56.697712 39.193478
-17.110697 56.697582 39.048717
-17.110687 56.697453 38.903957
-17.110678 56.697323 38.759197
-17.110668 56.697193 38.614437
-17.110659 56.697063 38.469677
-17.110649 56.696934 38.324917
-17.11064 56.696804 38.180157
-17.11063 56.696674 38.035397
-17.11062 56.696545 37.890636
-17.110611 56.696415 37.745876
-17.110601 56.696285 37.601116
-17.110592 56.696156 37.456356
-17.110582 56.696026 37.311596
-17.110573 56.695896 37.166836
-17.110563 56.695766 37.022076
-17.110554 56.695637 36.877316
-17.110544 56.695507 36.732555
-17.110535 56.695377 36.587795
-17.110525 56.695248 36.443035
-17.110516 56.695118 36.298275
-17.110506 56.694988 36.153515
-17.110497 56.694859 36.008755
-17.110487 56.694729 35.863995
-17.110477 56.694599 35.719234
-17.110468 56.694469 35.574474
-17.110458 56.69434 35.429714
-17.110449 56.69421 35.284954
-17.110439 56.69408 35.140194
-17.11043 56.693951 34.995434
-17.11042 56.693821 34.850674
-17.110411 56.693691 34.705914
-17.110401 56.693562 34.561153
-17.110392 56.693432 34.416393
-17.110382 56.693302 34.271633
-17.110373 56.693172 34.126873
-17.110363 56.693043 33.982113
-17.110353 56.692913 33.837353
-17.110344 56.692783 33.692593
-17.110334 56.692654 33.547832
-17.110325 56.692524 33.403072
-17.110315 56.692394 33.258312
-17.110306 56.692265 33.113552
-17.110296 56.692135 32.968792
-17.110287 56.692005 32.824032
-17.110277 56.691875 32.679272
-17.110268 56.691746 32.534512
-17.110258 56.691616 32.389751
-17.110249 56.691486 32.244991
-17.110239 56.691357 32.100231
-17.110229 56.691227 31.955469
-17.11022 56.691097 31.810707
-17.11021 56.690968 31.665945
-17.110201 56.690838 31.521183
-17.110191 56.690708 31.376421
-17.110182 56.690578 31.231659
-17.110172 56.690449 31.086897
-17.110163 56.690319 30.942135
-17.110153 56.690189 30.797373
-17.110144 56.69006 30.652611
-17.110134 56.68993 30.507849
-17.110125 56.6898 30.363087
-17.110115 56.689671 30.218325
-17.110106 56.689541 30.073563
-17.110096 56.689411 29.928801
-17.110086 56.689281 29.784039
-17.110077 56.689152 29.639277
-17.110067 56.689022 29.494514
-17.110058 56.688892 29.349752
-17.110048 56.688763 29.20499
-17.110039 56.688633 29.060228
-17.110029 56.688503 28.915466
-17.11002 56.688374 28.770704
-17.11001 56.688244 28.625942
-17.110001 56.688114 28.48118
-17.109991 56.687984 28.336418
-17.109982 56.687855 28.191656
-17.109972 56.687725 28.046894
-17.109962 56.687595 27.902132
-17.109953 56.687466 27.75737
-17.109943 56.687336 27.612608
-17.109934 56.687206 27.467846
-17.109924 56.687077 27.323084
-17.109915 56.686947 27.178322
-17.109905 56.686817 27.03356
-17.109896 56.686687 26.888798
-17.109886 56.686558 26.744036
-17.109877 56.686428 26.599274
-17.109867 56.686298 26.454512
-17.109858 56.686169 26.30975
-17.109848 56.686039 26.164988
-17.109838 56.685909 26.020226
-17.109829 56.68578 25.875463
-17.109819 56.68565 25.730701
-17.10981 56.68552 25.585939
-17.1098 56.68539 25.441177
-17.109791 56.685261 25.296415
-17.109781 56.685131 25.151653
-17.109772 56.685001 25.006891
-17.109762 56.684872 24.862129
-17.109753 56.684742 24.717367
-17.109743 56.684612 24.572605
-17.109734 56.684483 24.427843
-17.109724 56.684353 24.283081
-17.109715 56.684223 24.138319
-17.109705 56.684093 23.993557
-17.109695 56.683964 23.848795
-17.109686 56.683834 23.704033
-17.109676 56.683704 23.559271
-17.109667 56.683575 23.414509
-17.109657 56.683445 23.269747
-17.109648 56.683315 23.124985
-17.109638 56.683186 22.980223
-17.109629 56.683056 22.835461
-17.109619 56.682926 22.690699
-17.10961 56.682796 22.545937
-17.1096 56.682667 22.401175
-17.109591 56.682537 22.256413
-17.109581 56.682407 22.11165
-17.109571 56.682278 21.966888
-17.109562 56.682148 21.822126
-17.109552 56.682018 21.677364
-17.109543 56.681889 21.532602
-17.109533 56.681759 21.38784
-17.109524 56.681629 21.243078
-17.109514 56.681499 21.098316
-17.109505 56.68137 20.953554
-17.109495 56.68124 20.808792
-17.109486 56.68111 20.66403
-17.109476 56.680981 20.519268
-17.109467 56.680851 20.374506
-17.109457 56.680721 20.229744
-17.109447 56.680592 20.084982
-17.109438 56.680462 19.94022
-17.109428 56.680332 19.795458
-17.109419 56.680202 19.650696
-17.109409 56.680073 19.505934
-17.1094 56.679943 19.361172
-17.10939 56.679813 19.21641
-17.109381 56.679684 19.071648
-17.109371 56.679554 18.926886
-17.109362 56.679424 18.782124
-17.109352 56.679295 18.637362
-17.109343 56.679165 18.492599
-17.109333 56.679035 18.347837
-17.109324 56.678905 18.203075
-17.109314 56.678776 18.058313
-17.109304 56.678646 17.913551
-17.109295 56.678516 17.768789
-17.109285 56.678387 17.624027
-17.109276 56.678257 17.479265
-17.109266 56.678127 17.334503
-17.109257 56.677998 17.189741
-17.109247 56.677868 17.044979
-17.109238 56.677738 16.900217
-17.109228 56.677608 16.755455
-17.109219 56.677479 16.610693
-17.109209 56.677349 16.465931
-17.1092 56.677219 16.321169
-17.10919 56.67709 16.176407
-17.10918 56.67696 16.031645
-17.109171 56.67683 15.886884
-17.109161 56.676701 15.742123
-17.109152 56.676571 15.597362
-17.109142 56.676441 15.4526
-17.109133 56.676311 15.307839
-17.109123 56.676182 15.163078
-17.109114 56.676052 15.018317
-17.109104 56.675922 14.873556
-17.109095 56.675793 14.728795
-17.109085 56.675663 14.584034
-17.109076 56.675533 14.439273
-17.109066 56.675404 14.294512
-17.109056 56.675274 14.149751
-17.109047 56.675144 14.00499
-17.109037 56.675014 13.860229
-17.109028 56.674885 13.715467
-17.109018 56.674755 13.570706
-17.109009 56.674625 13.425945
-17.108999 56.674496 13.281184
-17.10899 56.674366 13.136423
-17.10898 56.674236 12.991662
-17.108971 56.674107 12.846901
-17.108961 56.673977 12.70214
-17.108952 56.673847 12.557379
-16.857903 56.726433 48.747646
-16.857893 56.726303 48.602886
-16.857883 56.726173 48.458126
-16.857874 56.726044 48.313366
-16.857864 56.725914 48.168606
-16.857855 56.725784 48.023846
-16.857845 56.725655 47.879086
-16.857836 56.725525 47.734325
-16.857826 56.725395 47.589565
-16.857817 56.725266 47.444805
-16.857807 56.725136 47.300045
-16.857798 56.725006 47.155285
-16.857788 56.724876 47.010525
-16.857779 56.724747 46.865765
-16.857769 56.724617 46.721004
-16.857759 56.724487 46.576244
-16.85775 56.724358 46.431484
-16.85774 56.724228 46.286724
-16.857731 56.724098 46.141964
-16.857721 56.723969 45.997204
-16.857712 56.723839 45.852444
-16.857702 56.723709 45.707684
-16.857693 56.723579 45.562923
-16.857683 56.72345 45.418163
-16.857674 56.72332 45.273403
-16.857664 56.72319 45.128643
-16.857655 56.723061 44.983883
-16.857645 56.722931 44.839123
-16.857635 56.722801 44.694363
-16.857626 56.722672 44.549603
-16.857616 56.722542 44.404842
-16.857607 56.722412 44.260082
-16.857597 56.722282 44.115322
-16.857588 56.722153 43.970562
-16.857578 56.722023 43.825802
-16.857569 56.721893 43.681042
-16.857559 56.721764 43.536282
-16.85755 56.721634 43.391521
-16.85754 56.721504 43.246761
-16.857531 56.721375 43.102001
-16.857521 56.721245 42.957241
-16.857512 56.721115 42.812481
-16.857502 56.720985 42.667721
-16.857492 56.720856 42.522961
-16.857483 56.720726 42.378201
-16.857473 56.720596 42.23344
-16.857464 56.720467 42.08868
-16.857454 56.720337 41.94392
-16.857445 56.720207 41.79916
-16.857435 56.720078 41.6544
-16.857426 56.719948 41.50964
-16.857416 56.719818 41.36488
-16.857407 56.719688 41.220119
-16.857397 56.719559 41.075359
-16.857388 56.719429 40.930599
-16.857378 56.719299 40.785839
-16.857368 56.71917 40.641079
-16.857359 56.71904 40.496319
-16.857349 56.71891 40.351559
-16.85734 56.718781 40.206799
-16.85733 56.718651 40.062038
-16.857321 56.718521 39.917278
-16.857311 56.718391 39.772518
-16.857302 56.718262 39.627758
-16.857292 56.718132 39.482998
-16.857283 56.718002 39.338238
-16.857273 56.717873 39.193478
-16.857264 56.717743 39.048717
-16.857254 56.717613 38.903957
-16.857244 56.717484 38.759197
-16.857235 56.717354 38.614437
-16.857225 56.717224 38.469677
-16.857216 56.717094 38.324917
-16.857206 56.716965 38.180157
-16.857197 56.716835 38.035397
-16.857187 56.716705 37.890636
-16.857178 56.716576 37.745876
-16.857168 56.716446 37.601116
-16.857159 56.716316 37.456356
-16.857149 56.716187 37.311596
-16.85714 56.716057 37.166836
-16.85713 56.715927 37.022076
-16.857121 56.715797 36.877316
-16.857111 56.715668 36.732555
-16.857101 56.715538 36.587795
-16.857092 56.715408 36.443035
-16.857082 56.715279 36.298275
-16.857073 56.715149 36.153515
-16.857063 56.715019 36.008755
-16.857054 56.71489 35.863995
-16.857044 56.71476 35.719234
-16.857035 56.71463 35.574474
-16.857025 56.7145 35.429714
-16.857016 56.714371 35.284954
-16.857006 56.714241 35.140194
-16.856997 56.714111 34.995434
-16.856987 56.713982 34.850674
-16.856977 56.713852 34.705914
-16.856968 56.713722 34.561153
-16.856958 56.713593 34.416393
-16.856949 56.713463 34.271633
-16.856939 56.713333 34.126873
-16.85693 56.713203 33.982113
-16.85692 56.713074 33.837353
-16.856911 56.712944 33.692593
-16.856901 56.712814 33.547832
-16.856892 56.712685 33.403072
-16.856882 56.712555 33.258312
-16.856873 56.712425 33.113552
-16.856863 56.712296 32.968792
-16.856853 56.712166 32.824032
-16.856844 56.712036 32.679272
-16.856834 56.711906 32.534512
-16.856825 56.711777 32.389751
-16.856815 56.711647 32.244991
-16.856806 56.711517 32.100231
-16.856796 56.711388 31.955469
-16.856787 56.711258 31.810707
-16.856777 56.711128 31.665945
-16.856768 56.710999 31.521183
-16.856758 56.710869 31.376421
-16.856749 56.710739 31.231659
-16.856739 56.710609 31.086897
-16.85673 56.71048 30.942135
-16.85672 56.71035 30.797373
-16.85671 56.71022 30.652611
-16.856701 56.710091 30.507849
-16.856691 56.709961 30.363087
-16.856682 56.709831 30.218325
-16.856672 56.709702 30.073563
-16.856663 56.709572 29.928801
-16.856653 56.709442 29.784039
-16.856644 56.709312 29.639277
-16.856634 56.709183 29.494514
-16.856625 56.709053 29.349752
-16.856615 56.708923 29.20499
-16.856606 56.708794 29.060228
-16.856596 56.708664 28.915466
-16.856586 56.708534 28.770704
-16.856577 56.708405 28.625942
-16.856567 56.708275 28.48118
-16.856558 56.708145 28.336418
-16.856548 56.708015 28.191656
-16.856539 56.707886 28.046894
-16.856529 56.707756 27.902132
-16.85652 56.707626 27.75737
-16.85651 56.707497 27.612608
-16.856501 56.707367 27.467846
-16.856491 56.707237 27.323084
-16.856482 56.707108 27.178322
-16.856472 56.706978 27.03356
-16.856462 56.706848 26.888798
-16.856453 56.706718 26.744036
-16.856443 56.706589 26.599274
-16.856434 56.706459 26.454512
-16.856424 56.706329 26.30975
-16.856415 56.7062 26.164988
-16.856405 56.70607 26.020226
-16.856396 56.70594 25.875463
-16.856386 56.705811 25.730701
-16.856377 56.705681 25.585939
-16.856367 56.705551 25.441177
-16.856358 56.705421 25.296415
-16.856348 56.705292 25.151653
-16.856339 56.705162 25.006891
-16.856329 56.705032 24.862129
-16.856319 56.704903 24.717367
-16.85631 56.704773 24.572605
-16.8563 56.704643 24.427843
-16.856291 56.704514 24.283081
-16.856281 56.704384 24.138319
-16.856272 56.704254 23.993557
-16.856262 56.704124 23.848795
-16.856253 56.703995 23.704033
-16.856243 56.703865 23.559271
-16.856234 56.703735 23.414509
-16.856224 56.703606 23.269747
-16.856215 56.703476 23.124985
-16.856205 56.703346 22.980223
-16.856195 56.703217 22.835461
-16.856186 56.703087 22.690699
-16.856176 56.702957 22.545937
-16.856167 56.702827 22.401175
-16.856157 56.702698 22.256413
-16.856148 56.702568 22.11165
-16.856138 56.702438 21.966888
-16.856129 56.702309 21.822126
-16.856119 56.702179 21.677364
-16.85611 56.702049 21.532602
-16.8561 56.70192 21.38784
-16.856091 56.70179 21.243078
-16.856081 56.70166 21.098316
-16.856071 56.70153 20.953554
-16.856062 56.701401 20.808792
-16.856052 56.701271 20.66403
-16.856043 56.701141 20.519268
-16.856033 56.701012 20.374506
-16.856024 56.700882 20.229744
-16.856014 56.700752 20.084982
-16.856005 56.700623 19.94022
-16.855995 56.700493 19.795458
-16.855986 56.700363 19.650696
-16.855976 56.700233 19.505934
-16.855967 56.700104 19.361172
-16.855957 56.699974 19.21641
-16.855947 56.699844 19.071648
-16.855938 56.699715 18.926886
-16.855928 56.699585 18.782124
-16.855919 56.699455 18.637362
-16.855909 56.699326 18.492599
-16.8559 56.699196 18.347837
-16.85589 56.699066 18.203075
-16.855881 56.698936 18.058313
-16.855871 56.698807 17.913551
-16.855862 56.698677 17.768789
-16.855852 56.698547 17.624027
-16.855843 56.698418 17.479265
-16.855833 56.698288 17.334503
-16.855824 56.698158 17.189741
-16.855814 56.698029 17.044979
-16.855804 56.697899 16.900217
-16.855795 56.697769 16.755455
-16.855785 56.697639 16.610693
-16.855776 56.69751 16.465931
-16.855766 56.69738 16.321169
-16.855757 56.69725 16.176407
-16.855747 56.697121 16.031645
-16.855738 56.696991 15.886884
-16.855728 56.696861 15.742123
-16.855719 56.696732 15.597362
-16.855709 56.696602 15.4526
-16.8557 56.696472 15.307839
-16.85569 56.696342 15.163078
-16.85568 56.696213 15.018317
-16.855671 56.696083 14.873556
-16.855661 56.695953 14.728795
-16.855652 56.695824 14.584034
-16.855642 56.695694 14.439273
-16.855633 56.695564 14.294512
-16.855623 56.695435 14.149751
-16.855614 56.695305 14.00499
-16.855604 56.695175 13.860229
-16.855595 56.695045 13.715467
-16.855585 56.694916 13.570706
-16.855576 56.694786 13.425945
-16.855566 56.694656 13.281184
-16.855556 56.694527 13.136423
-16.855547 56.694397 12.991662
-16.855537 56.694267 12.846901
-16.855528 56.694138 12.70214
-16.855518 56.694008 12.557379
-16.604469 56.746593 48.747646
-16.60446 56.746464 48.602886
-16.60445 56.746334 48.458126
-16.604441 56.746204 48.313366
-16.604431 56.746075 48.168606
-16.604422 56.745945 48.023846
-16.604412 56.745815 47.879086
-16.604403 56.745686 47.734325
-16.604393 56.745556 47.589565
-16.604383 56.745426 47.444805
-16.604374 56.745296 47.300045
-16.604364 56.745167 47.155285
-16.604355 56.745037 47.010525
-16.604345 56.744907 46.865765
-16.604336 56.744778 46.721004
-16.604326 56.744648 46.576244
-16.604317 56.744518 46.431484
-16.604307 56.744389 46.286724
-16.604298 56.744259 46.141964
-16.604288 56.744129 45.997204
-16.604279 56.743999 45.852444
-16.604269 56.74387 45.707684
