# .PCD v0.7 - Point Cloud Data file format
VERSION 0.7
FIELDS x y z
SIZE 4 4 4
TYPE F F F
COUNT 1 1 1
WIDTH 1559
HEIGHT 1
VIEWPOINT 0 0 0 1 0 0 0
POINTS 1559
DATA ascii
-23.176004 56.116375 26.111324
-23.166649 56.115368 25.761206
-23.150185 56.1231 25.425135
-23.161345 56.097694 25.059145
-23.150343 56.099174 24.725914
-23.131823 56.109859 24.406189
-23.105555 56.129997 24.099592
-23.112425 56.110416 23.758127
-23.106487 56.106388 23.436035
-23.092623 56.112022 23.126917
-23.086336 56.108685 22.813166
-23.092995 56.089954 22.489363
-23.065001 56.112904 22.206352
-23.06041 56.107914 21.901886
-23.06885 56.08744 21.587776
-23.05266 56.096581 21.302145
-23.05485 56.083836 21.00149
-23.053816 56.075066 20.707436
-23.038448 56.083527 20.430101
-23.036114 56.076523 20.143448
-23.382566 56.130882 32.533909
-23.356739 56.146317 32.103092
-23.343292 56.146923 31.659184
-23.333731 56.143078 31.217121
-23.328037 56.134804 30.776976
-23.321737 56.127541 30.345951
-23.305712 56.132366 29.938084
-23.297688 56.127712 29.524828
-23.2932 56.119011 29.113382
-23.269169 56.134254 28.738251
-23.276146 56.112118 28.323473
-23.249144 56.131374 27.964897
-23.243971 56.124393 27.580692
-23.23246 56.125286 27.211472
-23.238407 56.105278 26.82407
-23.228207 56.104984 26.464628
-23.220922 56.101349 26.106674
-23.216543 56.094391 25.750257
-23.190247 56.114025 25.426916
-23.191433 56.100697 25.073383
-23.180374 56.102287 24.740017
-23.182072 56.088684 24.395782
-23.160988 56.102631 24.083303
-23.152563 56.101498 23.759905
-23.146641 56.0975 23.437813
-23.132788 56.103157 23.128695
-23.131762 56.093559 22.8092
-23.127916 56.087475 22.496807
-23.126451 56.078674 22.18574
-23.111319 56.086365 21.892612
-23.125219 56.059422 21.573195
-23.103727 56.074947 21.293161
-23.095118 56.075165 21.003263
-23.088627 56.07296 20.714436
-23.084244 56.068344 20.426716
-23.081955 56.061333 20.140137
-23.415146 56.137722 32.547035
-23.402056 56.137508 32.093971
-23.397284 56.127449 31.635489
-23.370373 56.144661 31.222633
-23.364624 56.13636 30.782431
-23.358271 56.129074 30.351347
-23.355661 56.117504 29.922194
-23.329578 56.134705 29.537111
-23.324997 56.126026 29.125544
-23.300867 56.141293 28.750282
-23.303104 56.124817 28.342205
-23.299433 56.115734 27.94964
-23.284863 56.120056 27.578955
-23.287655 56.10358 27.189844
-23.264847 56.118252 26.842026
-23.25452 56.118023 26.482388
-23.251999 56.108559 26.117802
-23.252459 56.095692 25.754889
-23.231071 56.109329 25.42518
-23.227253 56.101963 25.077879
-23.211111 56.109596 24.750603
-23.212729 56.096016 24.406235
-23.201775 56.09771 24.08157
-23.188196 56.102699 23.764124
-23.18223 56.098686 23.441963
-23.183966 56.085579 23.115339
-23.162018 56.101006 22.818949
-23.168657 56.082298 22.495075
-23.167183 56.073444 22.18401
-23.157385 56.074688 21.885359
-23.144428 56.079823 21.593271
-23.139023 56.076035 21.29681
-23.135815 56.06974 21.001535
-23.129316 56.067486 20.712709
-23.119421 56.069389 20.430145
-23.128162 56.049164 20.133331
-23.105722 56.066227 19.868021
-23.453505 56.13728 32.553814
-23.440348 56.137066 32.100693
-23.405239 56.163898 31.693363
-23.404165 56.149532 31.236492
-23.385082 56.157375 30.817757
-23.37405 56.155685 30.393505
-23.384651 56.127983 29.942764
-23.362953 56.139767 29.550484
-23.339973 56.153328 29.16659
-23.334038 56.14645 28.763405
-23.326866 56.141296 28.368847
-23.313629 56.143711 27.989544
-23.303535 56.142525 27.611776
-23.301346 56.132 27.228971
-23.302343 56.117832 26.847942
-23.291958 56.117607 26.488237
-23.274719 56.125828 26.142879
-23.270086 56.119026 25.786062
-23.248491 56.132832 25.456017
-23.259474 56.107578 25.089689
-23.238201 56.121311 24.768438
-23.249844 56.095623 24.41168
-23.228619 56.109592 24.098991
-23.225203 56.10231 23.769432
-23.224365 56.092091 23.441319
-23.205235 56.103951 23.137941
-23.193624 56.106915 22.829786
-23.184341 56.10722 22.522774
-23.198631 56.079441 22.194561
-23.183403 56.087116 21.901289
-23.17033 56.092323 21.608982
-23.17564 56.07568 21.301548
-23.161499 56.082386 21.016806
-23.154892 56.0802 20.727757
-23.139381 56.088741 20.450125
-23.147676 56.05925 19.867382
-23.432806 56.195042 32.662003
-23.4576 56.148613 32.141678
-23.435249 56.159954 31.712107
-23.412252 56.172344 31.291399
-23.406109 56.164509 30.850651
-23.386003 56.173904 30.44043
-23.405357 56.135662 29.975164
-23.3971 56.131203 29.5616
-23.369501 56.150425 29.184595
-23.368105 56.138123 28.774395
-23.337612 56.161263 28.413893
-23.33353 56.152653 28.020687
-23.328018 56.145996 27.635965
-23.335268 56.124142 27.239702
-23.321791 56.127518 26.8783
-23.320961 56.115829 26.505331
-23.308535 56.118309 26.15341
-23.303869 56.111618 25.796524
-23.282232 56.125523 25.466413
-23.283184 56.112415 25.112473
-23.271877 56.114216 24.778696
-23.263195 56.113018 24.446234
-23.252008 56.114971 24.121155
-23.247555 56.097832 23.463058
-23.243965 56.091114 23.142033
-23.237606 56.087856 22.828138
-23.223074 56.094501 22.526867
-23.221426 56.085865 22.215441
-23.206097 56.0937 21.921951
-23.198309 56.09264 21.623976
-23.187319 56.095512 21.332525
-23.200249 56.069962 21.020893
-23.182688 56.080894 20.742306
-23.172623 56.082985 20.459368
-23.175674 56.069557 20.167259
-23.164165 56.073566 19.891487
-23.484324 56.14743 32.64249
-23.462233 56.158497 32.203541
-23.456959 56.149395 31.744282
-23.447008 56.146267 31.301619
-23.427691 56.154778 30.882465
-23.452082 56.110554 30.400673
-23.422335 56.132217 30.01367
-23.409435 56.133698 29.606871
-23.404581 56.125683 29.194796
-23.394011 56.124813 28.798368
-23.372803 56.137005 28.424095
-23.359383 56.139992 28.044409
-23.363333 56.122234 27.646156
-23.370649 56.100639 27.24988
-23.357225 56.10424 26.888477
-23.346745 56.104481 26.528505
-23.319613 56.12492 26.195759
-23.309883 56.124588 25.8449
-23.317881 56.103138 25.476585
-23.298868 56.114292 25.147568
-23.297548 56.104366 24.801188
-23.288845 56.103455 24.468586
-23.282749 56.099567 24.137341
-23.274101 56.098881 23.813452
-23.262779 56.101536 23.49675
-23.26432 56.088932 23.169622
-23.242149 56.10482 22.872744
-23.243319 56.09293 22.554028
-23.2363 56.09095 22.247978
-23.226234 56.092724 21.948675
-23.229164 56.079113 21.639568
-23.218185 56.082207 21.348045
-23.209343 56.082859 21.057556
-23.208107 56.074558 20.762901
-23.192513 56.08345 20.484974
-23.189978 56.0769 20.197716
-23.195107 56.061344 19.906618
-23.478909 56.163177 32.720051
-23.503736 56.117744 32.199375
-23.472672 56.140419 31.784164
-23.47142 56.127216 31.326733
-23.46096 56.125439 30.893053
-23.445354 56.130142 30.475512
-23.437834 56.125309 30.052563
-23.420334 56.132767 29.652533
-23.429138 56.1087 29.219269
-23.404718 56.124947 28.843393
-23.406725 56.109539 28.434656
-23.393404 56.112812 28.054968
-23.383232 56.112488 27.676809
-23.376196 56.108585 27.300232
-23.362633 56.112717 26.938437
-23.356874 56.107647 26.57156
-23.349224 56.105026 26.212734
-23.354357 56.087246 25.842691
-23.332695 56.101761 25.512323
-23.333656 56.089321 25.158092
-23.32234 56.091743 24.824039
-23.308567 56.097244 24.497396
-23.302454 56.093727 24.165937
-23.282438 56.096409 23.524923
-23.294413 56.071705 23.185938
-23.277534 56.081577 22.883245
-23.268209 56.08255 22.575872
-23.266529 56.074532 22.264072
-23.25115 56.082951 21.970226
-23.264881 56.056816 21.650047
-23.248556 56.066582 21.363909
-23.228851 56.080456 21.083967
-23.238569 56.059444 20.778608
-23.217497 56.075134 20.505774
-23.214979 56.068867 20.218359
-23.220129 56.0536 19.927099
-23.50005 56.152832 32.75116
-23.507673 56.128658 32.259823
-23.480705 56.146652 31.83688
-23.488037 56.123413 31.364552
-23.473057 56.127415 30.937836
-23.461771 56.127201 30.512846
-23.44965 56.128231 30.096731
-23.441099 56.125187 29.68235
-23.440685 56.112564 29.262804
-23.420744 56.123676 28.879725
-23.422665 56.108688 28.470726
-23.404535 56.118015 28.097549
-23.417965 56.089615 27.685545
-23.406204 56.091675 27.315605
-23.37336 56.119209 26.980038
-23.386925 56.09124 26.586798
-23.379295 56.088871 26.227901
-23.354824 56.106834 25.89603
-23.372759 56.074184 25.514738
-23.333715 56.109875 25.21048
-23.342394 56.088627 24.851267
-23.333651 56.08836 24.518314
-23.332642 56.078995 24.180683
-23.308521 56.097359 23.874397
-23.307468 56.088318 23.54542
-23.303761 56.082577 23.223743
-23.307796 56.067741 22.897697
-23.293196 56.075233 22.595932
-23.27552 56.086487 22.300802
-23.276102 56.076126 21.989994
-23.279043 56.063076 21.68058
-23.257208 56.079586 21.39954
-23.253754 56.074352 21.103291
-23.252493 56.06662 20.808254
-23.258926 56.049862 20.509296
-23.256491 56.043728 20.221954
-23.250565 56.041828 19.940792
-23.534565 56.150742 32.771
-23.572083 56.090328 32.227844
-23.52355 56.134331 31.841835
-23.522041 56.121716 31.384037
-23.506893 56.125843 30.957203
-23.499905 56.120369 30.524948
-23.474144 56.137768 30.130028
-23.474445 56.123981 29.701355
-23.473873 56.111485 29.281685
-23.467661 56.106007 28.87779
-23.446203 56.119068 28.503023
-23.456093 56.094658 28.088976
-23.441044 56.10041 27.717329
-23.419481 56.114159 27.360413
-23.429764 56.08989 26.965284
-23.404465 56.108456 26.624311
-23.386772 56.118061 26.277971
-23.391607 56.100864 25.907381
-23.38456 56.098057 25.557558
-23.370293 56.104034 25.221701
-23.363722 56.100956 24.880932
-23.370031 56.082657 24.529396
-23.358683 56.085583 24.203762
-23.349863 56.085625 23.879381
-23.343559 56.082798 23.556297
-23.33453 56.083351 23.240374
-23.333179 56.074883 22.919935
-23.318417 56.0825 22.617958
-23.30591 56.087543 22.317009
-23.311733 56.070908 22.000519
-23.31459 56.057922 21.691031
-23.314367 56.048714 21.388363
-23.29458 56.062828 21.108284
-23.287775 56.06163 20.818487
-23.283091 56.058018 20.529789
-23.27496 56.058586 20.247314
-23.274443 56.050228 19.960836
-23.599998 56.128864 32.740532
-23.586006 56.130474 32.28624
-23.576027 56.12751 31.833824
-23.565659 56.125294 31.390623
-23.537064 56.145344 30.985352
-23.5387 56.129147 30.538567
-23.521734 56.135639 30.129358
-23.517355 56.127197 29.707712
-23.516615 56.114613 29.287983
-23.519491 56.097916 28.870235
-23.502619 56.105194 28.488701
-23.498339 56.097542 28.095095
-23.459385 56.131714 27.756914
-23.475769 56.099651 27.346487
-23.447401 56.121468 27.004093
-23.446079 56.111031 26.63018
-23.442942 56.102955 26.264448
-23.423037 56.115116 25.925875
-23.435678 56.088509 25.550619
-23.416323 56.100327 25.221073
-23.424799 56.079044 24.861792
-23.420937 56.072662 24.522673
-23.399269 56.087666 24.209177
-23.39031 56.087639 23.884729
-23.378675 56.090939 23.567471
-23.374704 56.085236 23.245586
-23.37322 56.076702 22.925079
-23.353025 56.090557 22.628712
-23.367002 56.063892 22.299582
-23.356741 56.06617 21.999918
-23.332527 56.085125 21.717747
-23.337477 56.06955 21.409327
-23.322926 56.077232 21.123638
-23.332407 56.056515 20.817898
-23.322107 56.059353 20.534369
-23.319407 56.053284 20.246729
-23.318802 56.044834 19.960253
-23.619013 56.156273 32.784569
-23.617538 56.142464 32.307774
-23.616001 56.129044 31.84053
-23.574821 56.163807 31.448135
-23.572321 56.152088 30.999147
-23.582706 56.125107 30.537954
-23.588177 56.104336 30.093327
-23.547523 56.139385 29.72817
-23.53739 56.137882 29.322176
-23.535343 56.126881 28.911015
-23.532145 56.117489 28.5086
-23.518236 56.121185 28.128345
-23.502739 56.12698 27.756317
-23.495098 56.123543 27.379093
-23.490582 56.116547 27.003502
-23.48431 56.111851 26.636101
-23.485956 56.097858 26.263863
-23.470909 56.104019 25.918913
-23.468575 56.095142 25.562653
-23.459095 56.094971 25.220491
-23.442232 56.103764 24.892071
-23.453379 56.079285 24.534302
-23.431561 56.09428 24.220669
-23.422453 56.094254 23.896084
-23.410673 56.097546 23.578686
-23.411787 56.085617 23.250839
-23.404936 56.083305 22.936014
-23.389896 56.090855 22.633827
-23.398441 56.070492 22.310234
-23.379879 56.072491 21.711723
-23.379368 56.063255 21.408768
-23.39205 56.038486 21.096504
-23.352196 56.076107 20.838308
-23.358274 56.05938 20.538982
-23.355476 56.053276 20.25127
-23.360361 56.038185 19.959703
-23.629082 56.172554 32.84425
-23.631584 56.15406 32.359653
-23.621092 56.151569 31.90671
-23.605833 56.155109 31.470242
-23.603233 56.143646 31.02113
-23.604589 56.127689 30.574099
-23.591845 56.128975 30.157564
-23.587231 56.120716 29.735731
-23.563305 56.13591 29.350624
-23.575016 56.108501 28.918571
-23.557787 56.116077 28.536661
-23.539028 56.125683 28.162989
-23.537607 56.114697 27.770582
-23.529911 56.111431 27.393293
-23.525343 56.104614 27.017633
-23.509281 56.111736 26.663187
-23.515709 56.092136 26.2843
-23.500566 56.098499 25.93922
-23.493162 56.095776 25.58913
-23.47352 56.107819 25.259251
-23.476677 56.092815 24.905796
-23.477598 56.080639 24.56016
-23.460779 56.089752 24.24029
-23.456749 56.083767 23.909599
-23.429325 56.105759 23.609819
-23.430292 56.094097 23.281685
-23.428555 56.085785 22.960823
-23.418697 56.087254 22.65274
-23.421837 56.07341 22.334606
-23.405958 56.08226 22.040121
-23.413849 56.06303 21.724731
-23.402431 56.066807 21.432482
-23.393162 56.068142 21.14126
-23.386028 56.067047 20.851097
-23.386545 56.057003 20.55686
-23.37812 56.057636 20.27409
-23.377321 56.049351 19.987312
-23.68445 56.129684 32.83506
-23.674158 56.126923 32.372799
-23.676659 56.10902 31.897858
-23.648344 56.128544 31.483389
-23.654568 56.106712 31.019844
-23.624702 56.128578 30.622984
-23.629761 56.108681 30.177784
-23.60232 56.128075 29.791027
-23.601076 56.116222 29.370728
-23.608093 56.094696 28.945496
-23.595427 56.097004 28.556627
-23.567169 56.118183 28.196447
-23.579865 56.090515 27.783709
-23.557764 56.104691 27.426357
-23.57238 56.075146 27.024172
-23.556328 56.082447 26.669798
-23.552958 56.074776 26.30386
-23.53775 56.081398 25.958719
-23.535267 56.073002 25.602247
-23.515594 56.085251 25.272377
-23.503561 56.088543 24.937447
-23.504353 56.076714 24.591595
-23.492527 56.080044 24.265484
-23.488405 56.074352 23.93465
-23.492075 56.05954 23.599346
-23.466991 56.079018 23.300634
-23.470469 56.064701 22.973938
-23.455284 56.072655 22.671543
-23.453035 56.065384 22.358944
-23.431698 56.080849 22.069862
-23.439474 56.061932 21.75424
-23.433371 56.05957 21.456379
-23.42948 56.054695 21.159689
-23.42779 56.047321 20.864204
-23.417233 56.050537 20.580307
-23.419842 56.038284 20.287189
-23.407848 56.043381 20.010454
-23.708998 56.128853 32.874336
-23.711393 56.110939 32.38966
-23.692102 56.119446 31.951323
-23.685413 56.113041 31.500134
-23.669426 56.118084 31.072594
-23.675024 56.097431 30.618149
-23.666599 56.093887 30.194342
-23.652735 56.097103 29.78644
-23.646948 56.090855 29.373228
-23.630802 56.097237 28.98258
-23.622614 56.094292 28.586617
-23.622488 56.081909 28.185587
-23.601995 56.094086 27.820026
-23.608465 56.074219 27.422527
-23.608635 56.062084 27.040211
-23.573025 56.092827 26.711849
-23.579254 56.073818 26.332674
-23.568848 56.074814 25.980951
-23.561277 56.072594 25.630659
-23.556528 56.067177 25.281843
-23.529287 56.088661 24.965458
-23.514662 56.095272 24.637733
-23.543634 56.050213 24.262863
-23.518892 56.069126 23.956062
-23.512068 56.066887 23.632418
-23.497282 56.074215 23.321768
-23.516478 56.041378 22.977638
-23.485388 56.068275 22.69239
-23.509733 56.029613 22.351553
-23.493834 56.038734 22.057154
-23.480108 56.045387 21.763704
-23.47398 56.043156 21.465843
-23.464598 56.044868 21.174477
-23.462854 56.037663 20.878914
-23.45224 56.041031 20.594948
-23.454798 56.028946 20.301748
-23.442747 56.034191 20.024942
-23.743111 56.128494 32.878937
-23.75839 56.095028 32.372028
-23.734854 56.108608 31.941141
-23.715065 56.117928 31.511835
-23.725584 56.091068 31.04089
-23.709015 56.097027 30.622456
-23.682508 56.115135 30.226957
-23.695782 56.085754 29.776564
-23.685457 56.084915 29.370384
-23.646139 56.119003 29.014261
-23.656475 56.093845 28.590614
-23.646893 56.092735 28.203077
-23.645317 56.08226 27.810467
-23.647051 56.068031 27.419685
-23.637569 56.067387 27.050537
-23.631126 56.063297 26.682934
-23.612968 56.073338 26.336281
-23.602537 56.074333 25.984491
-23.594944 56.072109 25.634132
-23.585146 56.072662 25.291498
-23.593264 56.052067 24.931711
-23.57373 56.064491 24.610441
-23.566948 56.061905 24.278151
-23.552441 56.068623 23.959192
-23.556 56.054035 23.623672
-23.54126 56.061283 23.313093
-23.534151 56.059605 22.997841
-23.524151 56.061474 22.689548
-23.532505 56.041733 22.365568
-23.516514 56.050922 22.07095
-23.491888 56.070423 21.788225
-23.518236 56.029774 21.457605
-23.503428 56.037876 21.171638
-23.490696 56.043617 20.88658
-23.485561 56.040489 20.597286
-23.488104 56.0284 20.304014
-23.476032 56.033638 20.027132
-23.785175 56.129715 32.859497
-23.783354 56.116665 32.382221
-23.781471 56.103992 31.914499
-23.748644 56.128815 31.507116
-23.750322 56.112404 31.050549
-23.738148 56.112896 30.624779
-23.729666 56.109203 30.200788
-23.715738 56.112278 29.792698
-23.723694 56.089363 29.35841
-23.689045 56.117691 28.995363
-23.718199 56.069874 28.544441
-23.689983 56.0909 28.18432
-23.678978 56.091537 27.805201
-23.675924 56.08287 27.421007
-23.680923 56.064796 27.031988
-23.655058 56.083717 26.690508
-23.651567 56.07613 26.324306
-23.660986 56.053345 25.946997
-23.633625 56.074512 25.622158
-23.613813 56.086834 25.292011
-23.616842 56.072147 24.938276
-23.607435 56.072395 24.604576
-23.600657 56.069668 24.272217
-23.601662 56.057842 23.935278
-23.584511 56.067688 23.623501
-23.59594 56.043789 23.283636
-23.562593 56.073067 22.997381
-23.552563 56.074837 22.688942
-23.571579 56.042358 22.353603
-23.544868 56.064098 22.070059
-23.547245 56.051548 21.759838
-23.535658 56.055611 21.467226
-23.542643 56.037849 21.159674
-23.546453 56.023949 20.85887
-23.54698 56.014034 20.564629
-23.516291 56.041019 20.302248
-23.520975 56.026394 20.010145
-23.832075 56.121544 32.823765
-23.808947 56.134014 32.383602
-23.802727 56.126411 31.923094
-23.8006 56.114166 31.464643
-23.784801 56.118629 31.037153
-23.777193 56.113506 30.604235
-23.777878 56.098686 30.166138
-23.755035 56.112324 29.772272
-23.740116 56.116676 29.372864
-23.747154 56.094967 28.947464
-23.720421 56.113892 28.578901
-23.729776 56.089863 28.164154
-23.714125 56.095928 27.791803
-23.70635 56.092777 27.414253
-23.696871 56.09185 27.044907
-23.680674 56.09911 26.690128
-23.677183 56.0914 26.323797
-23.691566 56.062592 25.939991
-23.679205 56.065792 25.596142
-23.659531 56.077843 25.266123
-23.647511 56.08094 24.931049
-23.653442 56.062862 24.578968
-23.621109 56.090355 24.276917
-23.627254 56.072319 23.933811
-23.615303 56.07589 23.615992
-23.616283 56.064266 23.287718
-23.609278 56.062241 22.972466
-23.604687 56.057476 22.658485
-23.586462 56.068962 22.362646
-23.591944 56.052528 22.045578
-23.589041 56.046131 21.740973
-23.5721 56.056419 21.453819
-23.562725 56.057873 21.162226
-23.572014 56.037411 20.855967
-23.561466 56.040459 20.571917
-23.541836 56.054295 20.299032
-23.552124 56.032978 20.001768
-23.828754 56.148151 32.869465
-23.831396 56.129856 32.384579
-23.80357 56.148468 31.96063
-23.788206 56.152355 31.523617
-23.798868 56.125286 31.052349
-23.791334 56.120312 30.619244
-23.783051 56.116478 30.195127
-23.760178 56.130344 29.800945
-23.745237 56.13493 29.401217
-23.742979 56.124565 28.989296
-23.744255 56.110207 28.579285
-23.739588 56.103161 28.184782
-23.719179 56.115093 27.818869
-23.730612 56.089249 27.414436
-23.730957 56.076828 27.031874
-23.680767 56.124741 26.722704
-23.701834 56.088013 26.323769
-23.701485 56.07695 25.959023
-23.699127 56.068443 25.602285
-23.664425 56.098507 25.290836
-23.652372 56.101807 24.955416
-23.668509 56.071823 24.59079
-23.651628 56.081142 24.270422
-23.642403 56.08152 23.945202
-23.640921 56.072865 23.615383
-23.626276 56.079918 23.304502
-23.61928 56.078041 22.988962
-23.628578 56.047142 22.344921
-23.601976 56.068783 22.061201
-23.609919 56.049747 21.745382
-23.603941 56.047256 21.447298
-23.593115 56.041252 20.859926
-23.566008 56.063946 20.591217
-23.563066 56.05827 20.302677
-23.573439 56.037025 20.005268
-23.810488 56.171757 32.947723
-23.821632 56.143925 32.447472
-23.806797 56.14753 32.001072
-23.800291 56.141411 31.549219
-23.793329 56.136093 31.106581
-23.776785 56.142475 30.687332
-23.791039 56.112289 30.22724
-23.76823 56.126606 29.832804
-23.757978 56.126144 29.425861
-23.75585 56.116199 29.013742
-23.743174 56.119038 28.624033
-23.738504 56.112534 28.229137
-23.732395 56.107933 27.84272
-23.72471 56.105396 27.46464
-23.715313 56.105072 27.094759
-23.713852 56.09549 26.719915
-23.710566 56.088253 26.353243
-23.720221 56.06583 25.975471
-23.687984 56.093243 25.656437
-23.683405 56.088005 25.307005
-23.676558 56.085606 24.965273
-23.662205 56.092228 24.637178
-23.660711 56.083767 24.298223
-23.656723 56.078396 23.966757
-23.655336 56.070084 23.636721
-23.646027 56.071259 23.319801
-23.639151 56.069675 23.004114
-23.629372 56.071636 22.695375
-23.621933 56.070946 22.387804
-23.616817 56.067627 22.081438
-23.619436 56.055305 21.770853
-23.6026 56.065998 21.48325
-23.615286 56.042046 21.169945
-23.59235 56.051277 20.599991
-23.583973 56.052387 20.316462
-23.583254 56.044594 20.028925
-23.821583 56.141029 32.973587
-23.820021 56.129383 32.495358
-23.805277 56.133736 32.048653
-23.807697 56.117847 31.581953
-23.792007 56.123802 31.153542
-23.78903 56.114826 30.712542
-23.780842 56.112286 30.287735
-23.780909 56.100128 29.857744
-23.752375 56.122196 29.478519
-23.759615 56.101925 29.052212
-23.742346 56.11097 28.669079
-23.742493 56.099514 28.267082
-23.726934 56.106873 27.893812
-23.738556 56.082176 27.488762
-23.729338 56.082363 27.118744
-23.723166 56.079098 26.750267
-23.710152 56.084087 26.396276
-23.690052 56.097599 26.056419
-23.692686 56.084366 25.692476
-23.683157 56.085659 25.349009
-23.68145 56.077847 25.000751
-23.667177 56.085003 24.67238
-23.665779 56.077091 24.333138
-23.66707 56.066139 23.995417
-23.655357 56.070641 23.676952
-23.651356 56.06617 23.353848
-23.633972 56.077568 23.049377
-23.650848 56.048752 22.711792
-23.638226 56.05476 22.409754
-23.633259 56.051865 22.103235
-23.630604 56.046352 21.797958
-23.613869 56.057476 21.510136
-23.61021 56.053333 21.212547
-23.614285 56.040211 20.910917
-23.598398 56.050594 20.631355
-23.606852 56.032524 20.332237
-23.595074 56.03825 20.054657
-23.831083 56.117943 32.993214
-23.829792 56.106804 32.514854
-23.819666 56.10643 32.060699
-23.813557 56.101505 31.608469
-23.798056 56.107964 31.179871
-23.79528 56.09951 30.738678
-23.800917 56.081291 30.292416
-23.764616 56.113029 29.918625
-23.768417 56.097382 29.490152
-23.77594 56.077526 29.06377
-23.768326 56.07579 28.666893
-23.768816 56.06464 28.26495
-23.743996 56.083603 27.905159
-23.75106 56.06501 27.506678
-23.742039 56.065598 27.13652
-23.726255 56.074318 26.780931
-23.71829 56.073944 26.420223
-23.703304 56.081997 26.073784
-23.696104 56.08099 25.722321
-23.711952 56.052963 25.347353
-23.685087 56.07539 25.030037
-23.696545 56.052811 24.670851
-23.679949 56.063377 24.349783
-23.681425 56.052795 24.011915
-23.664644 56.063797 23.699202
-23.671314 56.04734 23.364225
-23.670025 56.040356 23.042414
-23.660551 56.043079 22.733381
-23.64805 56.049454 22.431124
-23.637812 56.053265 22.129923
-23.646124 56.035419 21.813412
-23.634998 56.040455 21.520046
-23.609539 56.062359 21.24366
-23.630274 56.030251 20.925913
-23.62009 56.034431 20.641027
-23.606379 56.042816 20.362213
-23.622759 56.016083 20.059145
-23.874561 56.092632 32.952675
-23.856331 56.101871 32.504097
-23.859581 56.0858 32.02795
-23.844976 56.091175 31.590435
-23.838665 56.086914 31.147472
-23.84075 56.07291 30.699318
-23.828581 56.076015 30.281645
-23.815414 56.080486 29.872715
-23.801109 56.086491 29.472403
-23.808893 56.066528 29.046089
-23.782665 56.086987 28.676611
-23.792747 56.064671 28.260937
-23.79682 56.049644 27.86083
-23.789789 56.047894 27.482601
-23.766417 56.065582 27.132299
-23.76059 56.062706 26.763615
-23.757792 56.056404 26.396526
-23.74305 56.064316 26.050211
-23.756191 56.03952 25.673645
-23.737041 56.052879 25.342785
-23.735771 56.045319 24.99452
-23.732166 56.04063 24.653931
-23.736433 56.026814 24.308784
-23.712242 56.046547 24.001089
-23.706091 56.045193 23.676579
-23.707731 56.034805 23.347574
-23.706638 56.027733 23.025833
-23.68667 56.042896 22.728228
-23.695782 56.024067 22.403456
-23.680382 56.034058 22.108004
-23.672606 56.035202 21.808037
-23.683481 56.01461 21.493031
-23.658245 56.036362 21.216848
-23.679245 56.004112 20.89934
-23.663729 56.014652 20.619841
-23.661406 56.009846 20.33098
-23.655563 56.009228 20.048296
-23.89805 56.130249 32.952541
-23.918797 56.092621 32.437355
-23.913576 56.086151 31.976227
-23.899174 56.090832 31.53894
-23.884127 56.096497 31.110626
-23.895357 56.071178 30.648329
-23.856064 56.106022 30.273371
-23.865818 56.082886 29.829226
-23.8563 56.082802 29.422138
-23.854935 56.07325 29.009884
-23.838238 56.082027 28.626852
-23.853277 56.053444 28.204697
-23.833603 56.066082 27.838427
-23.836273 56.052479 27.446932
-23.822744 56.058167 27.083601
-23.802362 56.072086 26.734692
-23.804583 56.059486 26.36124
-23.804903 56.049282 25.995943
-23.803194 56.041615 25.638649
-23.784138 56.054508 25.307907
-23.772772 56.058472 24.972118
-23.774328 56.047359 24.625439
-23.778664 56.033108 24.280378
-23.749317 56.058559 23.978685
-23.74843 56.050682 23.648289
-23.734308 56.058456 23.336815
-23.749104 56.03241 22.997705
-23.734529 56.04092 22.694481
-23.732985 56.034256 22.381077
-23.717604 56.043903 22.085611
-23.731621 56.019215 21.763821
-23.731705 56.010944 21.459896
-23.695534 56.045185 21.194454
-23.71657 56.012585 20.876984
-23.695503 56.029308 20.602631
-23.698771 56.017666 20.308617
-23.69858 56.010151 20.020924
-23.945076 56.149185 32.924923
-23.944077 56.136745 32.446712
-23.942991 56.12468 31.978041
-23.93281 56.123688 31.533318
-23.908657 56.139538 31.119268
-23.910624 56.124565 30.671024
-23.907436 56.115948 30.23908
-23.898821 56.113987 29.82313
-23.893785 56.10799 29.408972
-23.892311 56.097973 28.996666
-23.875504 56.106316 28.613562
-23.871408 56.099785 28.218407
-23.875454 56.083813 27.818336
-23.858713 56.09259 27.453371
-23.859591 56.080719 27.070086
-23.844015 56.08844 26.714602
-23.846176 56.075382 26.341164
-23.836458 56.076492 25.988605
-23.819534 56.086239 25.650072
-23.825548 56.069096 25.287842
-23.824324 56.060631 24.939734
-23.805349 56.073185 24.617563
-23.804386 56.064674 24.278402
-23.7957 56.065372 23.952671
-23.789553 56.063206 23.628237
-23.775372 56.070591 23.316755
-23.784807 56.050362 22.983414
-23.764797 56.064804 22.685776
-23.77927 56.038906 22.355453
-23.763868 56.048145 22.060051
-23.745205 56.061295 21.771055
-23.756033 56.039997 21.456022
-23.752752 56.03532 21.158512
-23.751684 56.028156 20.862211
-23.736103 56.038052 20.582615
-23.728123 56.039139 20.298771
-23.722195 56.03791 20.01594
-23.979834 56.150757 32.927673
-23.97444 56.14341 32.456779
-23.986425 56.11565 31.966051
-23.967415 56.125019 31.535896
-23.952148 56.130165 31.107395
-23.949636 56.120384 30.666349
-23.923656 56.138683 30.269764
-23.919422 56.131382 29.846497
-23.923494 56.114456 29.418196
-23.912571 56.115501 29.019535
-23.90975 56.107151 28.615715
-23.886566 56.12307 28.247522
-23.89521 56.101536 27.840441
-23.892817 56.093235 27.455332
-23.898527 56.075542 27.065424
-23.868189 56.100559 26.729424
-23.865276 56.093369 26.362219
-23.86039 56.088661 26.003029
-23.853399 56.086582 25.651705
-23.854309 56.075348 25.295635
-23.827488 56.096882 24.97818
-23.844221 56.067318 24.612906
-23.822552 56.083042 24.297821
-23.824137 56.07156 23.959913
-23.807419 56.081696 23.647095
-23.803648 56.076748 23.323713
-23.807701 56.06274 22.995972
-23.814316 56.045853 22.66979
-23.80195 56.051327 22.367584
-23.786434 56.060585 22.071962
-23.784 56.054623 21.766399
-23.769499 56.054268 21.175066
-23.773844 56.040676 20.873245
-23.780449 56.024544 20.572817
-23.778095 56.01897 20.28397
-23.76095 56.03075 20.011292
-23.987686 56.137478 32.966167
-23.96928 56.146206 32.517155
-23.976803 56.124409 32.033314
-23.975384 56.113468 31.573654
-23.955658 56.124458 31.152105
-23.953138 56.11528 30.710747
-23.945368 56.11253 30.285563
-23.950495 56.094742 29.848202
-23.922291 56.11655 29.468597
-23.915987 56.112659 29.062668
-23.927326 56.088135 28.638052
-23.904221 56.104439 28.269735
-23.903366 56.094666 27.8759
-23.886456 56.103981 27.510412
-23.896961 56.081169 27.113468
-23.896063 56.071949 26.738092
-23.873478 56.088398 26.396606
-23.893593 56.054779 26.005322
-23.871691 56.070698 25.672949
-23.857473 56.077713 25.335421
-23.861256 56.063725 24.980669
-23.842186 56.076679 24.658083
-23.84634 56.062519 24.312479
-23.832397 56.069698 23.992348
-23.831429 56.061787 23.661606
-23.822483 56.063335 23.343958
-23.810659 56.068356 23.033281
-23.801199 56.070713 22.723734
-23.804861 56.057827 22.404163
-23.805569 56.048504 22.09161
-23.808662 56.036499 21.780447
-23.786701 56.053844 21.497597
-23.788843 56.043137 21.194263
-23.80991 56.010456 20.876596
-23.772057 56.046577 20.617468
-23.769621 56.041477 20.328091
-23.769302 56.033993 20.039875
-23.995581 56.102802 33.005795
-23.990376 56.09684 32.53447
-23.96299 56.117321 32.109169
-23.965948 56.102161 31.641754
-23.941683 56.119354 31.22699
-23.939091 56.111164 30.785131
-23.935808 56.103992 30.352369
-23.927078 56.103436 29.935604
-23.92659 56.093357 29.513664
-23.915672 56.095734 29.114367
-23.917606 56.083164 28.703062
-23.908749 56.083454 28.314014
-23.90316 56.080063 27.926607
-23.891119 56.0844 27.554163
-23.887041 56.079536 27.17664
-23.881172 56.076923 26.807291
-23.873377 56.076706 26.445974
-23.878536 56.061443 26.073427
-23.871651 56.060432 25.721619
-23.872681 56.050282 25.365053
-23.861259 56.054829 25.028643
-23.857649 56.050354 24.687431
-23.841192 56.061012 24.36578
-23.837669 56.056664 24.033318
-23.810471 56.08007 23.731718
-23.833157 56.04533 23.378532
-23.810759 56.063324 23.079134
-23.812031 56.053791 22.757881
-23.810394 56.047756 22.443678
-23.811161 56.039013 22.130823
-23.797935 56.046665 21.835722
-23.808857 56.026283 21.520075
-23.811153 56.016037 21.216654
-23.810175 56.009689 20.919819
-23.794645 56.020348 20.639706
-23.786737 56.022213 20.355331
-23.780886 56.021759 20.071966
-23.978086 56.125324 33.111465
-23.976801 56.115265 32.632046
-23.975424 56.105541 32.162159
-23.956015 56.117268 31.730762
-23.958319 56.103626 31.272177
-23.964697 56.0854 30.815777
-23.938538 56.105633 30.418303
-23.957272 56.073269 29.958975
-23.93819 56.085526 29.564798
-23.931828 56.083008 29.158291
-23.93841 56.065472 28.739889
-23.910387 56.088676 28.377726
-23.914215 56.074684 27.976454
-23.916601 56.062542 27.583769
-23.922298 56.04668 27.192961
-23.896755 56.067516 26.849642
-23.903778 56.050385 26.468733
-23.888931 56.058956 26.121605
-23.897053 56.04081 25.750536
-23.877739 56.05484 25.418779
-23.881508 56.042027 25.06345
-23.867533 56.050041 24.73423
-23.866518 56.043045 24.394144
-23.852524 56.051289 24.073463
-23.856791 56.038345 23.736248
-23.847839 56.040909 23.418104
-23.846666 56.034512 23.095434
-23.837265 56.037788 22.785528
-23.841011 56.025856 22.46557
-23.825506 56.036407 22.169237
-23.834047 56.019085 21.852005
-23.834036 56.011795 21.547115
-23.825268 56.014763 21.254166
-23.801981 56.034657 20.977991
-23.803009 56.026394 20.681793
-23.794992 56.028702 20.397045
-23.811634 56.002483 20.093239
-24.035782 56.096928 33.095699
-24.030134 56.0919 32.623844
-24.041931 56.066555 32.132092
-24.009264 56.093777 31.722801
-24.00704 56.085361 31.271542
-23.990679 56.093769 30.850933
-24.005396 56.065842 30.389456
-23.982685 56.082073 29.993639
-23.977291 56.078136 29.578337
-23.961378 56.086712 29.185564
-23.962992 56.074898 28.773804
-23.953806 56.075909 28.384312
-23.962347 56.056309 27.976332
-23.94524 56.066895 27.610275
-23.945822 56.056919 27.225845
-23.915085 56.08371 26.888781
-23.916843 56.072632 26.513979
-23.926718 56.052216 26.134573
-23.929659 56.040035 25.769741
-23.915255 56.048229 25.431616
-23.90353 56.05341 25.094734
-23.904785 56.043564 24.746933
-23.903641 56.036633 24.406776
-23.894745 56.038841 24.080065
-23.888397 56.038189 23.754637
-23.884584 56.034683 23.430531
-23.883289 56.028351 23.10779
-23.895227 56.006725 22.775093
-23.877394 56.019817 22.477783
-23.861765 56.030422 22.181385
-23.859262 56.02586 21.875002
-23.859074 56.018696 21.569893
-23.850124 56.021786 21.276726
-23.860018 56.003094 20.968882
-23.844286 56.014206 20.68841
-23.830566 56.023048 20.408758
-23.852758 55.990349 20.099852
-24.057722 56.13662 33.133774
-24.082153 56.095531 32.609882
-24.093803 56.069778 32.118202
-24.052099 56.107109 31.723497
-24.054142 56.093121 31.26498
-24.037601 56.101208 30.844372
-24.047569 56.078323 30.389994
-24.020027 56.099716 30.001133
-24.028353 56.079163 29.564837
-24.021709 56.07637 29.158335
-23.994852 56.097454 28.787767
-24.014051 56.064705 28.357475
-23.998466 56.072895 27.983219
-23.985979 56.077599 27.610395
-24.010849 56.038738 27.193037
-23.975178 56.070866 26.862738
-23.991821 56.04195 26.468821
-23.971714 56.056133 26.128071
-23.959368 56.061371 25.782169
-23.959963 56.051624 25.425123
-23.953218 56.050571 25.082071
-23.95953 56.034416 24.728245
-23.937546 56.051369 24.412361
-23.928442 56.05341 24.085514
-23.932421 56.040325 23.748163
-23.912577 56.05508 23.441525
-23.921717 56.036213 23.107075
-23.922762 56.026867 22.785675
-23.920898 56.021004 22.471329
-23.89971 56.037697 22.180462
-23.902517 56.026592 21.868551
-23.88571 56.038353 21.579611
-23.893135 56.022072 21.270281
-23.891788 56.01606 20.972927
-23.887058 56.014053 20.681974
-23.890087 56.003136 20.387051
-23.900953 55.983219 20.088415
-24.128088 56.112061 33.068485
-24.109167 56.121696 32.618839
-24.116259 56.100899 32.134323
-24.101032 56.106632 31.695784
-24.089655 56.108051 31.259001
-24.082108 56.105175 30.824045
-24.082941 56.092648 30.383904
-24.069172 56.097488 29.973915
-24.05426 56.103851 29.572533
-24.033367 56.117409 29.186522
-24.077335 56.055069 28.713131
-24.049076 56.077618 28.351084
-24.033417 56.085545 27.976759
-24.035439 56.072926 27.583961
-24.026087 56.07378 27.212749
-24.014864 56.076969 26.849579
-24.02652 56.053566 26.46212
-24.001328 56.07336 26.127665
-24.009079 56.054813 25.756414
-23.984287 56.074387 25.430683
-23.992781 56.055248 25.06893
-23.97843 56.062878 24.739504
-23.977055 56.055504 24.39922
-23.97839 56.045094 24.060455
-23.966618 56.05006 23.740919
-23.957312 56.052261 23.422565
-23.961134 56.039299 23.093946
-23.94068 56.054668 22.79525
-23.954872 56.029865 22.463814
-23.939054 56.040035 22.167334
-23.930904 56.041386 21.866344
-23.941513 56.021057 21.550333
-23.932417 56.023685 21.257166
-23.936615 56.010986 20.954582
-23.920704 56.021683 20.674026
-23.923685 56.010563 20.379036
-23.911882 56.016647 20.100382
-24.135868 56.130173 33.099697
-24.121191 56.134819 32.642372
-24.137051 56.103752 32.142986
-24.112923 56.119984 31.718842
-24.114964 56.105656 31.260218
-24.10293 56.108082 30.832338
-24.112947 56.084824 30.37792
-24.099266 56.089588 29.967928
-24.070446 56.112286 29.5874
-24.077736 56.092827 29.159851
-24.074512 56.085873 28.754938
-24.055611 56.097454 28.378906
-24.05913 56.082951 27.977463
-24.046616 56.087372 27.6045
-24.056801 56.065418 27.206755
-24.040714 56.074314 26.850084
-24.037489 56.068333 26.481869
-24.037298 56.058956 26.115295
-24.024958 56.063889 25.76932
-24.020487 56.05978 25.418446
-24.008589 56.064445 25.081421
-23.999363 56.06612 24.745689
-23.997995 56.058765 24.405268
-23.983629 56.066654 24.084232
-23.982292 56.059498 23.752569
-23.978258 56.055588 23.428186
-23.982092 56.042648 23.099428
-23.961626 56.058029 22.800581
-23.959614 56.052086 22.485807
-23.965456 56.037128 22.166849
-23.956984 56.030884 21.560467
-23.953394 56.027145 21.261768
-23.946463 56.027367 20.969505
-23.947285 56.018696 20.67317
-23.938534 56.013626 20.099375
-24.149563 56.116817 33.128586
-24.143639 56.111591 32.656322
-24.124287 56.122353 32.215435
-24.135571 56.097382 31.732664
-24.110699 56.11504 31.317179
-24.116676 56.096729 30.86031
-24.094612 56.111473 30.455252
-24.099148 56.095261 30.016569
-24.107538 56.074738 29.580032
-24.091497 56.082973 29.187061
-24.08828 56.076385 28.781952
-24.069363 56.088303 28.405729
-24.068064 56.079803 28.010784
-24.060369 56.078926 27.630926
-24.060755 56.068779 27.246113
-24.05942 56.060787 26.869602
-24.056232 56.055103 26.501249
-24.056082 56.046021 26.134537
-24.048828 56.045341 25.782122
-24.034231 56.053329 25.443647
-24.027458 56.052338 25.10025
-24.018261 56.054279 24.764378
-24.022135 56.041153 24.417784
-24.002583 56.05534 24.102638
-24.00128 56.04845 23.77083
-23.986652 56.057121 23.457935
-24.011843 56.019737 23.105904
-23.99684 56.029049 22.801386
-23.994957 56.023247 22.486679
-23.990044 56.021053 22.178846
-23.981985 56.022591 21.877707
-23.976183 56.021603 21.577694
-23.978167 56.011696 21.273537
-23.971292 56.012115 20.981197
-23.966572 56.010124 20.689943
-23.963993 56.005737 20.399811
-23.957876 56.005512 20.115841
-24.156284 56.115353 33.171104
-24.167803 56.090084 32.669018
-24.166222 56.080399 32.19878
-24.159931 56.076447 31.74523
-24.148651 56.078537 31.308079
-24.123007 56.09761 30.901318
-24.11462 56.096691 30.474712
-24.11458 56.086208 30.042917
-24.113638 56.076965 29.620098
-24.116367 56.063622 29.199238
-24.10372 56.068378 28.80772
-24.103971 56.058262 28.404243
-24.102833 56.049927 28.009357
-24.070913 56.077568 27.662745
-24.076176 56.062077 27.271093
-24.074841 56.054413 26.894379
-24.076641 56.043243 26.519384
-24.066471 56.046116 26.165277
-24.054106 56.051662 25.818893
-24.044521 56.054096 25.473841
-24.053123 56.035557 25.111666
-24.05434 56.025707 24.763527
-24.027084 56.048965 24.453173
-24.028431 56.039185 24.11384
-24.027195 56.032509 23.781958
-24.023254 56.029064 23.457357
-24.021843 56.022797 23.134121
-24.006788 56.032402 22.829315
-24.015709 56.014385 22.503111
-23.999914 56.025017 22.206192
-23.997297 56.020515 21.899302
-24.002522 56.007046 21.588297
-23.987921 56.016544 21.299994
-23.981007 56.017246 21.007357
-23.965025 56.028481 20.726126
-23.990561 55.991928 20.410105
-23.96748 56.011486 20.141094
-24.185266 56.101738 33.168949
-24.201298 56.071377 32.659485
-24.177734 56.087555 32.225914
-24.171379 56.083817 31.772123
-24.151001 56.096653 31.349133
-24.15707 56.078804 30.892014
-24.158016 56.067139 30.451307
-24.130373 56.088989 30.061806
-24.148129 56.058102 29.610977
-24.146282 56.05024 29.197071
-24.12896 56.060555 28.81238
-24.114864 56.067261 28.429136
-24.123344 56.047867 28.02059
-24.10117 56.064259 27.660568
-24.116367 56.037373 27.255777
-24.110243 56.0354 26.8857
-24.09219 56.047398 26.536522
-24.107153 56.021229 26.150358
-24.079723 56.044342 25.823015
-24.095722 56.017242 25.44672
-24.068548 56.040276 25.127985
-24.074923 56.02457 24.77354
-24.078957 56.011692 24.426872
-24.054264 56.032158 24.117613
-24.047783 56.031651 23.791548
-24.054495 56.016003 23.45517
-24.031733 56.0345 23.154917
-24.054342 56.000698 22.810101
-24.04175 56.007637 22.506523
-24.031443 56.012024 22.204
-24.023407 56.013866 21.902565
-24.01211 56.019554 21.607639
-24.025213 55.997204 21.292488
-24.01281 56.004318 21.005159
-24.019352 55.989697 20.703281
-23.999928 56.005039 20.428253
-23.993807 56.005138 20.143906
-24.220341 56.102436 33.147392
-24.218967 56.092243 32.667515
-24.217501 56.08239 32.197166
-24.197887 56.093945 31.765268
-24.191088 56.090736 31.320612
-24.192772 56.077835 30.870764
-24.189243 56.071213 30.437204
-24.175585 56.076576 30.026642
-24.17951 56.061646 29.596876
-24.163565 56.070015 29.203642
-24.16048 56.063587 28.798277
-24.141644 56.07563 28.421785
-24.155012 56.050404 28.006493
-24.132891 56.066555 27.646458
-24.13833 56.050854 27.254818
-24.127232 56.054485 26.891108
-24.134121 56.037395 26.509554
-24.124052 56.040104 26.155373
-24.111784 56.045483 25.808914
-24.107412 56.041832 25.45756
-24.111032 56.029057 25.101561
-24.10718 56.025055 24.759451
-24.095617 56.030075 24.430862
-24.097149 56.020069 24.091606
-24.074919 56.037617 23.783333
-24.071009 56.034103 23.458519
-24.05891 56.040138 23.146555
-24.070776 56.01862 22.813032
-24.068991 56.012947 22.498037
-24.042315 56.03606 22.212011
-24.050688 56.01886 21.893927
-24.050463 56.011662 21.588163
-24.035872 56.021084 21.299629
-24.045752 56.002419 20.991072
-24.041115 56.000542 20.699518
-24.044275 55.989773 20.404001
-24.032585 55.996159 20.124809
-24.258543 56.109104 33.122726
-24.283632 56.067661 32.598682
-24.247047 56.098534 32.18726
-24.245354 56.088856 31.726278
-24.225172 56.100964 31.303383
-24.226921 56.087688 30.853546
-24.214239 56.091438 30.434132
-24.209839 56.085728 30.009422
-24.213825 56.070442 29.57967
-24.216841 56.056473 29.158894
-24.2092 56.055077 28.760607
-24.190523 56.066669 28.384296
-24.184679 56.063503 27.995983
-24.191887 56.045345 27.596111
-24.177866 56.051975 27.231054
-24.171816 56.0495 26.860912
-24.168829 56.043617 26.492361
-24.163845 56.040184 26.131817
-24.156733 56.039349 25.779127
-24.147362 56.041248 25.434135
-24.135609 56.046024 25.096685
-24.136917 56.035812 24.748352
-24.120129 56.046635 24.425707
-24.142683 56.012115 24.062529
-24.120552 56.029324 23.754377
-24.116753 56.025459 23.429708
-24.110123 56.024971 23.112144
-24.100544 56.027973 22.801512
-24.1042 56.01582 22.480856
-24.077545 56.038677 22.194809
-24.102465 56.002224 21.860399
-24.08025 56.020134 21.576355
-24.076782 56.016544 21.277138
-24.086742 55.997597 20.968672
-24.076548 56.001911 20.682343
-24.074093 55.997398 20.391912
-24.073776 55.990513 20.102636
-24.308464 56.096394 33.078781
-24.294256 56.100655 32.621326
-24.301888 56.079639 32.136497
-24.273579 56.100803 31.719324
-24.266981 56.096836 31.274799
-24.259747 56.093819 30.839355
-24.233292 56.113388 30.441145
-24.242779 56.09129 29.995247
-24.232756 56.092098 29.58634
-24.240446 56.072487 29.158512
-24.237553 56.065365 28.75329
-24.218882 56.07674 28.376913
-24.232464 56.050827 27.961798
-24.220284 56.054981 27.588629
-24.211203 56.055691 27.216949
-24.200233 56.058727 26.853306
-24.202271 56.046841 26.478277
-24.192289 56.049011 26.124098
-24.190273 56.042095 25.765059
-24.18095 56.043762 25.420073
-24.174398 56.042347 25.076473
-24.175797 56.031872 24.728224
-24.169544 56.03035 24.39362
-24.155413 56.03804 24.072289
-24.159679 56.024605 23.734484
-24.14529 56.032795 23.421499
-24.160152 56.00737 23.080948
-24.123693 56.041187 22.79883
-24.149086 56.003845 22.4557
-24.133467 56.013836 22.158756
-24.120058 56.021366 21.862764
-24.114384 56.020081 21.562389
-24.105394 56.02269 21.268475
-24.115377 56.003578 20.959957
-24.105188 56.007732 20.673555
-24.097086 56.009563 20.38813
-24.096752 56.002552 20.098717
-24.307497 56.133385 33.137585
-24.319441 56.107136 32.635452
-24.300436 56.117237 32.194344
-24.298784 56.107323 31.733191
-24.28767 56.10865 31.295725
-24.284975 56.10038 30.852962
-24.290808 56.082397 30.405159
-24.263367 56.103302 30.015591
-24.276791 56.076889 29.571785
-24.256239 56.090134 29.185343
-24.258055 56.077576 28.773045
-24.248972 56.077839 28.382963
-24.252903 56.063171 27.981152
-24.245579 56.061718 27.601156
-24.241434 56.056728 27.222784
-24.220551 56.071262 26.872038
-24.222561 56.059437 26.496805
-24.227695 56.044147 26.123352
-24.22576 56.037174 25.764305
-24.20113 56.056545 25.437963
-24.204866 56.04327 25.08185
-24.19071 56.050774 24.751768
-24.200092 56.031239 24.398844
-24.175447 56.05106 24.089312
-24.174381 56.0438 23.757162
-24.165257 56.045929 23.438084
-24.180101 56.020569 23.097317
-24.148991 56.048206 22.809305
-24.158083 56.029675 22.482788
-24.164257 56.014606 22.163422
-24.167398 56.003124 21.851027
-24.145231 56.020809 21.566887
-24.15856 55.99781 21.25172
-24.146297 56.00428 20.964294
-24.136135 56.008415 20.677809
-24.128063 56.010227 20.392298
-24.110676 56.022789 20.117781
-24.340065 56.110474 33.129189
-24.316978 56.12534 32.686043
-24.328951 56.099609 32.193367
-24.32745 56.089794 31.732212
-24.302866 56.107021 31.316301
-24.30019 56.098984 30.873356
-24.269093 56.124138 30.48188
-24.297237 56.080715 30.007597
-24.292048 56.076176 29.59161
-24.266745 56.095119 29.211851
-24.268534 56.082829 28.799297
-24.259413 56.083344 28.408957
-24.263321 56.068939 28.006886
-24.255959 56.06773 27.626627
-24.25178 56.062992 27.247988
-24.255749 56.048988 26.864536
-24.242863 56.054592 26.508631
-24.232878 56.056973 26.154102
-24.230869 56.050282 25.794716
-24.231804 56.040325 25.436939
-24.204649 56.062866 25.117722
-24.216398 56.040691 24.756821
-24.220627 56.027309 24.409836
-24.206547 56.035114 24.08828
-24.194967 56.040146 23.767868
-24.185871 56.042416 23.448645
-24.184628 56.035759 23.12492
-24.180494 56.032524 22.808264
-24.162458 56.045345 22.509668
-24.179539 56.017944 22.178911
-24.1882 56.000313 21.860857
-24.177139 56.005398 21.565836
-24.168268 56.008049 21.271837
-24.155964 56.014709 20.98411
-24.151405 56.012569 20.692181
-24.14333 56.014538 20.406443
-24.143034 56.007668 20.116718
-24.342712 56.114307 33.166759
-24.337223 56.109058 32.693848
-24.340454 56.093906 32.215725
-24.325518 56.100056 31.776127
-24.332623 56.080841 31.309542
-24.307253 56.099472 30.902283
-24.313133 56.082077 30.454042
-24.304323 56.081879 30.036022
-24.303846 56.07222 29.612843
-24.288059 56.080437 29.219137
-24.294771 56.062805 28.799704
-24.285805 56.063457 28.409357
-24.275272 56.066067 28.027336
-24.282673 56.04813 27.627022
-24.263803 56.060642 27.26804
-24.252857 56.064152 26.903851
-24.249931 56.058544 26.534698
-24.250061 56.049553 26.167191
-24.232824 56.060684 25.826525
-24.243998 56.039238 25.455969
-24.23237 56.044144 25.118093
-24.228645 56.040077 24.775431
-24.238159 56.020912 24.422224
-24.229414 56.022835 24.094584
-24.217924 56.028015 23.774099
-24.219624 56.01815 23.443203
-24.197002 56.036285 23.14246
-24.203735 56.020844 22.814272
-24.202141 56.015049 22.498848
-24.191999 56.019135 22.195793
-24.189663 56.01437 21.888395
-24.184107 56.013371 21.587639
-24.191977 55.997093 21.277466
-24.174137 56.010307 20.994881
-24.169636 56.008339 20.702799
-24.172964 55.997494 20.406773
-24.161375 56.003769 20.127031
-24.36071 56.110043 33.178326
-24.355297 56.104939 32.705296
-24.35861 56.089935 32.227051
-24.343733 56.096218 31.787329
-24.328188 56.103458 31.356554
-24.339361 56.079979 30.891861
-24.331551 56.078651 30.464874
-24.322798 56.078587 30.046726
-24.31296 56.079948 29.637299
-24.325665 56.05545 29.202082
-24.303839 56.070972 28.823648
-24.285173 56.082985 28.446541
-24.298904 56.057796 28.03071
-24.301497 56.045612 27.63695
-24.302479 56.035427 27.251621
-24.296722 56.033138 26.881075
-24.29907 56.021664 26.505701
-24.26907 56.047508 26.176579
-24.277397 56.029411 25.804346
-24.257959 56.043335 25.471298
-24.277414 56.012711 25.096323
-24.253052 56.032505 24.778185
-24.262659 56.013424 24.424908
-24.248701 56.021481 24.103134
-24.253216 56.008461 23.764898
-24.244354 56.010872 23.445669
-24.237965 56.01054 23.127668
-24.223183 56.019909 22.822247
-24.23255 56.001728 22.49551
-24.217018 56.012123 22.197964
-24.22028 56.001106 21.885054
-24.209269 56.006489 21.589661
-24.206043 56.003056 21.289995
-24.205061 55.997135 20.991533
-24.200659 55.995197 20.69945
-24.209778 55.977901 20.398357
-24.186884 55.9972 20.128672
-24.382063 56.125561 33.190979
-24.398684 56.094791 32.680958
-24.384291 56.100178 32.232056
-24.382902 56.090717 31.770477
-24.371998 56.092468 31.332575
-24.369545 56.084637 30.889381
-24.366381 56.077824 30.455271
-24.353003 56.082985 30.044123
-24.34317 56.084217 29.63463
-24.360659 56.054104 29.192488
-24.348467 56.058399 28.800428
-24.329922 56.07016 28.423441
-24.329159 56.061581 28.027794
-24.312092 56.071918 27.660435
-24.327803 56.044682 27.255133
-24.327011 56.036579 26.87797
-24.324337 56.030777 26.508953
-24.314575 56.033249 26.154282
-24.323032 56.014923 25.782194
-24.303701 56.028622 25.449274
-24.287004 56.039402 25.11747
-24.293808 56.023335 24.762516
-24.277222 56.034199 24.439352
-24.284325 56.018017 24.093546
-24.288885 56.004864 23.755316
-24.274698 56.013275 23.441881
-24.273708 56.006676 23.118084
-24.269817 56.00349 22.801352
-24.268373 55.997604 22.485928
-24.252871 56.00787 22.188377
-24.245115 56.009357 21.886341
-24.250759 55.995632 21.574713
-24.247601 55.992043 21.275124
