# .PCD v0.7 - Point Cloud Data file format
VERSION 0.7
FIELDS x y z
SIZE 4 4 4
TYPE F F F
COUNT 1 1 1
WIDTH 1558
HEIGHT 1
VIEWPOINT 0 0 0 1 0 0 0
POINTS 1558
DATA ascii
-16.129667 56.703575 14.825701
-16.123795 56.684151 14.365549
-16.113955 56.689308 13.913619
-16.103245 56.700005 13.464727
-16.090069 56.725948 13.0208
-16.487467 56.89003 37.845798
-16.460892 56.89259 36.557838
-16.440634 56.939941 35.957355
-16.439531 56.865833 35.280609
-16.417847 56.924084 34.701218
-16.416817 56.851624 34.041889
-16.404026 56.854992 33.439823
-16.375319 56.884033 32.268806
-16.356499 56.853653 31.085999
-16.149973 56.746624 20.002302
-16.113728 56.730927 18.082289
-16.103968 56.732132 17.610922
-16.096535 56.719486 17.137812
-16.083658 56.740276 16.677345
-16.077766 56.71888 16.206682
-16.064812 56.740658 15.750724
-16.057299 56.729687 15.287721
-16.045799 56.743122 14.833361
-16.03977 56.723709 14.37254
-16.034487 56.700069 13.912997
-16.018787 56.739552 13.470363
-16.013353 56.717297 13.01504
-16.46085 56.920567 39.874901
-16.447395 56.916824 39.197277
-16.435369 56.905159 38.52256
-16.420982 56.909645 37.868412
-16.378178 56.927101 35.95612
-16.348364 56.871578 34.061954
-16.337898 56.858315 33.44875
-16.308525 56.887268 32.277145
-16.29487 56.896469 31.697033
-16.289173 56.856812 31.093756
-16.089758 56.734329 20.48447
-16.040102 56.732777 18.082249
-16.026974 56.752743 17.616518
-16.01618 56.758957 17.148714
-16.006157 56.760834 16.681946
-16.000067 56.73941 16.210791
-15.994769 56.713593 15.741087
-15.98388 56.721542 15.283134
-15.972132 56.734871 14.828522
-15.961109 56.74408 14.37464
-15.954033 56.729996 13.916908
-15.942856 56.740589 13.466999
-15.93401 56.737511 13.015625
-16.409193 56.954849 40.603477
-16.382557 56.940105 39.232182
-16.355419 56.933296 37.902348
-16.336494 56.879593 36.572571
-16.316732 56.918667 35.966003
-16.31004 56.877232 35.311218
-16.272671 56.866497 33.468494
-16.25774 56.880035 32.878666
-16.2355 56.86248 31.690039
-16.209646 56.870415 30.54117
-16.199104 56.860867 29.967487
-16.18404 56.879761 29.415401
-16.15991 56.88282 28.307199
-15.963925 56.761017 18.096859
-15.953669 56.762207 17.624584
-15.922862 56.767849 16.22308
-15.884534 56.763073 14.382191
-16.301453 56.924191 38.577492
-16.259306 56.924072 36.626518
-16.249775 56.898319 35.974113
-16.214615 56.867634 34.095165
-16.18578 56.884834 32.90189
-16.175934 56.866802 32.298203
-16.160364 56.884487 31.722778
-16.148733 56.878979 31.139196
-16.132627 56.901405 30.577837
-16.072712 56.899078 27.785131
-15.819344 56.752159 14.84345
-16.225771 56.967625 39.304367
-16.217077 56.932804 38.610489
-16.191566 57.001816 38.001987
-16.191092 56.919201 37.290901
-16.18157 56.892921 36.629673
-16.168114 56.891613 35.994114
-16.139788 56.900459 34.752907
-16.120705 56.935951 34.163097
-16.101423 56.895569 32.930977
-16.090212 56.886185 32.332047
-16.058685 56.924408 31.187141
-16.052496 56.887318 30.590195
-16.036022 56.912491 30.03528
-16.013599 56.90205 28.906834
-16.006264 56.874821 28.338861
-15.98164 56.881519 27.251072
-15.947268 56.880844 25.648827
-16.182035 56.963974 41.394222
-16.099857 56.940643 37.338223
-16.079651 56.979542 36.722118
-16.00526 56.877029 32.353874
-15.963486 56.904366 30.626041
-15.941935 56.889042 29.483063
-15.917556 56.893063 28.372557
-15.893048 56.900322 27.283676
-16.030916 56.998009 42.196434
-15.886486 56.99189 42.246914
-13.25029 57.137905 41.460445
-40.886803 56.167801 31.677565
-41.130749 56.131577 29.678822
-44.031944 56.072952 31.01475
-44.008942 56.003216 29.737801
-43.996315 55.971691 29.109684
-43.967915 55.975754 28.504885
-43.93845 55.982613 27.905958
-43.915394 55.975677 27.304724
-43.883648 55.988434 26.717163
-43.865856 55.970688 26.119574
-44.33205 55.980553 29.684769
-44.293728 56.006611 29.087353
-44.265396 56.010616 28.48303
-44.25087 55.98407 27.868259
-44.227905 55.976944 27.267826
-44.21508 55.947544 26.661463
-44.182346 55.963169 26.080442
-44.163445 55.948238 25.489532
-44.629902 56.019363 29.654415
-44.60994 56.003853 29.03628
-44.596394 55.974251 28.416193
-44.563564 55.988995 27.823019
-44.548069 55.964809 27.215385
-44.49527 55.967258 26.037615
-44.476402 55.952045 25.447514
-44.93465 55.942757 28.34235
-44.815411 55.975903 25.987789
-44.815018 55.917824 25.379717
-45.326393 56.051647 30.774679
-45.318474 56.005466 30.132023
-45.281544 56.027771 29.531057
-45.268574 55.99456 28.906212
-45.265545 55.938732 28.275591
-45.229332 55.960835 27.68865
-45.199203 55.969185 27.099102
-45.189747 55.929916 26.491585
-45.175629 55.901981 25.894209
-45.134724 55.936661 25.329082
-45.125595 55.898041 24.73554
-49.446472 55.888023 33.064514
-49.428619 55.858097 32.416477
-49.511971 55.865585 26.948311
-49.435486 55.861053 25.218702
-49.407936 55.866276 24.653114
-49.395046 55.831257 24.074446
-49.356594 55.797955 22.944735
-49.330845 55.80006 22.392824
-49.313469 55.779449 21.83567
-50.692627 55.901588 31.055027
-50.866913 55.859489 26.820261
-50.707726 55.806568 22.842854
-51.414143 55.861343 30.937769
-51.234486 55.834484 26.763348
-51.615433 55.787251 26.686577
-51.456638 55.718178 22.721178
-2.9282713 57.28944 31.828714
-2.8916018 57.317768 31.421099
-2.9074144 57.284908 30.934547
-2.9097316 57.268135 30.479509
-2.9252236 57.236244 30.012335
-2.8763006 57.279835 29.654259
-2.8996348 57.2393 29.191263
-2.8271992 57.297802 28.467043
-2.8524189 57.255791 28.024174
-2.990546 57.306286 31.856062
-2.9977026 57.283215 31.374802
-3.0003779 57.265697 30.910526
-2.9893103 57.264553 30.477409
-2.9639618 57.280357 30.074802
-2.946671 57.286961 29.666504
-2.9606256 57.257294 29.217529
-2.9273813 57.282978 28.847775
-2.9442232 57.250427 28.40991
-2.9412696 57.241199 28.008745
-2.9035428 57.272682 27.663769
-2.9120111 57.250553 27.259104
-2.8791084 57.219147 25.073357
-2.8494091 57.242558 24.757629
-2.8324351 57.251358 24.430357
-2.8180633 57.257278 24.104244
-2.8114829 57.254318 23.773279
-2.807549 57.248444 23.443697
-3.0562913 57.316944 31.864931
-3.0501509 57.309391 31.405655
-3.039273 57.307671 30.963009
-3.0368319 57.296326 30.515018
-3.0248227 57.296452 30.090605
-3.0348332 57.271049 29.639544
-3.0119996 57.284325 29.247179
-2.9878745 57.299313 28.863211
-2.9998801 57.272308 28.432142
-2.9825511 57.279778 28.051361
-2.9971123 57.250256 27.631275
-2.9912803 57.244728 27.247122
-2.9547174 57.275185 26.91132
-2.9404397 57.279846 26.549963
-2.939034 57.269711 26.176952
-2.9258423 57.27346 25.825073
-2.9355929 57.250721 25.448973
-2.9434695 57.230343 25.081173
-2.9188039 57.247898 24.759115
-2.901804 57.256691 24.431845
-2.9080575 57.238678 24.081221
-2.8859916 57.253616 23.768709
-2.8450804 57.220749 21.257389
-2.8299892 57.219307 20.67127
-2.8285301 57.211731 20.377258
-3.1164684 57.322319 31.412411
-3.1143968 57.310165 30.95513
-3.0818737 57.319962 30.111521
-3.0516219 57.301628 28.459242
-3.0530427 57.287113 28.050779
-3.0580156 57.268673 27.644283
-3.0206265 57.275593 26.536188
-3.0011661 57.274731 25.818031
-2.9885144 57.266624 25.112267
-3.257786 57.324787 31.475046
-3.3516085 57.319748 32.09375
-3.3277388 57.321114 31.197004
-3.3240335 57.3125 30.747839
-3.4043679 57.311012 32.121449
-3.4188881 57.280994 31.624092
-3.3893554 57.302952 31.209831
-3.3812776 57.29995 30.767916
-3.3816304 57.287292 30.320719
-3.3529608 57.297043 29.496401
-3.3416712 57.298653 29.09025
-3.3479097 57.279961 28.664934
-3.3531671 57.262627 28.248632
-3.3287685 57.280113 27.882166
-3.3218002 57.27742 27.496649
-3.3225243 57.255447 26.724049
-3.3155158 57.253304 26.356903
-3.282392 57.252136 24.948647
-3.2851157 57.239407 24.595631
-3.27017 57.24733 24.268948
-3.2103286 57.212578 20.52729
-3.5084355 57.300831 32.084892
-3.505445 57.290951 31.61734
-3.4934349 57.291943 31.173874
-3.4942827 57.278057 30.717745
-3.490222 57.270187 30.278173
-3.4537203 57.300625 29.897686
-3.4616852 57.279076 29.454599
-3.4504597 57.280258 29.048824
-3.4474058 57.272064 28.637789
-3.4385014 57.270924 28.242409
-3.4377296 57.260452 27.841888
-3.4308243 57.257347 27.456758
-3.4175258 57.26189 27.086695
-3.4219213 57.24593 26.698206
-3.4001768 57.260658 26.351023
-3.3911455 57.2607 25.99202
-3.3850737 57.257442 25.634508
-3.3869674 57.245052 25.272171
-3.381741 57.241112 24.924156
-3.3793476 57.234013 24.577646
-3.3592324 57.247673 24.257334
-3.3491352 57.212627 22.614176
-3.3281705 57.227951 22.318693
-3.3309484 57.215851 22.001396
-3.3199584 57.219814 21.702368
-3.3166776 57.214947 21.398897
-3.3157108 57.207504 21.096689
-3.3040278 57.204193 20.512129
-3.3042467 57.195667 20.218943
-3.6405752 57.291599 32.02314
-3.6112714 57.311783 31.600327
-3.6209059 57.286213 31.120407
-3.5948834 57.30302 30.708254
-3.5762174 57.297951 29.852655
-3.5679414 57.28159 29.01157
-3.5693161 57.267269 28.59391
-3.5461445 57.282017 28.21958
-3.5592873 57.254303 27.79879
-3.5243108 57.271397 27.064476
-3.5186908 57.266293 26.689455
-3.5211177 57.251942 26.309523
-3.5168781 57.245583 25.944426
-3.5071392 57.224026 24.878002
-3.4842842 57.240055 24.556894
-3.4741986 57.24131 24.224474
-3.7363865 57.301819 31.536562
-3.7239642 57.301434 31.093712
-3.7199194 57.291397 30.645464
-3.7019513 57.298122 30.228046
-3.6338484 57.25845 26.645048
-3.6106939 57.249435 25.563498
-3.8186498 57.306446 31.517574
-3.8062325 57.305786 31.074846
-3.7977519 57.300732 30.633978
-3.7789545 57.293617 29.779499
-3.786592 57.270271 29.337372
-3.7659349 57.280678 28.946569
-3.7625458 57.270885 28.536375
-3.7580307 57.262661 28.134953
-3.7475197 57.261742 27.748993
-3.6994309 57.254902 25.903139
-3.6930664 57.250267 25.546448
-3.6896389 57.242359 25.191307
-3.6790528 57.243031 24.850351
-3.8934298 57.308125 31.968605
-3.8945382 57.291328 31.49453
-3.8823817 57.290604 31.051975
-3.8608537 57.301281 30.633043
-3.8608902 57.286621 30.186909
-3.864903 57.267525 29.742897
-3.8500602 57.271034 29.33643
-3.8341269 57.276066 28.938614
-3.8218489 57.263634 28.134001
-3.804328 57.258274 27.363699
-3.8004618 57.25013 26.981043
-3.8046794 57.232662 26.593496
-3.773114 57.257542 26.260361
-3.7835953 57.233086 25.876188
-3.7774868 57.228348 25.519762
-3.7593102 57.237965 25.183969
-3.7589378 57.226822 24.830492
-3.9666471 57.287891 31.97616
-3.9547274 57.286884 31.524261
-3.9424577 57.286575 31.081589
-3.9385507 57.276608 30.633516
-3.9252164 57.278095 30.209085
-3.9110851 57.280777 29.793545
-3.9051275 57.27401 29.372623
-3.8890488 57.279465 28.974627
-3.8903055 57.264633 28.557348
-3.8717885 57.273411 28.176519
-3.8634241 57.257713 27.392185
-3.8498456 57.261257 27.022785
-3.8538744 57.244232 26.634966
-3.8563185 57.229282 26.25563
-3.832438 57.245514 25.917133
-3.8228014 57.233601 25.20529
-3.8122964 57.234581 24.864334
-3.8096128 57.226528 24.51852
-3.7869253 57.231213 23.862074
-3.7746129 57.224297 23.210833
-3.7673519 57.201828 22.25309
-3.7390575 57.205067 21.35251
-4.0342002 57.302757 32.03587
-4.0434203 57.276421 31.546774
-4.0395908 57.265938 31.089462
-4.0044746 57.292942 30.692354
-3.9995527 57.284294 30.253225
-4.0030293 57.265938 29.808943
-4.0013561 57.253963 29.381002
-3.9850752 57.25956 28.983145
-3.9768374 57.255844 28.579897
-3.9673984 57.253777 28.185297
-3.9538641 57.243961 27.407982
-3.9496508 57.236347 27.025253
-3.9341688 57.242233 26.664167
-3.9314172 57.233284 26.29133
-3.9219613 57.232426 25.933208
-3.9105031 57.2341 25.583021
-3.9068904 57.226704 25.227871
-3.8961391 57.227875 24.886925
-3.8830724 57.231926 24.553583
-3.8828681 57.221012 24.209183
-3.8700411 57.225079 23.884682
-3.8701191 57.214138 23.549347
-3.8494406 57.206703 22.593565
-3.83866 57.209038 22.287193
-3.8203447 57.200344 21.375141
-3.8007324 57.194187 20.495712
-3.8059652 57.178619 20.197891
-4.1300411 57.291473 32.035114
-4.1260509 57.280643 31.568285
-4.1218977 57.270306 31.110914
-4.1085968 57.27116 30.677435
-4.0991187 57.267731 30.245756
-4.0799375 57.2761 29.837381
-4.0824604 57.258915 29.402233
-4.070487 57.259205 28.997299
-4.0481248 57.272053 28.614939
-4.0476594 57.25914 28.20636
-4.046021 57.247852 27.806551
-4.0383196 57.243969 27.422152
-4.0290833 57.242104 27.046131
-4.0085192 57.25383 26.691631
-4.0151939 57.233547 26.30551
-4.0055218 57.232773 25.947395
-3.9850399 57.233086 25.248442
-3.9790659 57.228466 24.901125
-3.9470632 57.221107 23.569595
-3.9309695 57.207817 22.607786
-3.9200048 57.210224 22.301424
-3.9167275 57.203743 21.990528
-4.1838436 57.299717 32.05241
-4.1798544 57.289101 31.585457
-4.1844459 57.268547 31.11331
-4.1317215 57.2738 29.425875
-4.106123 57.26368 28.215633
-4.099812 57.258118 27.822594
-4.0690947 57.232361 25.949755
-4.2187161 57.30064 32.076008
-4.2192931 57.285328 31.601482
-4.2154121 57.27562 31.14386
-4.1931505 57.274265 30.278196
-4.187726 57.26717 29.848127
-4.160666 57.272945 29.035992
-4.1662588 57.253475 28.611538
-4.1522231 57.257504 28.223705
-4.1555996 57.241108 27.816919
-4.1387391 57.248882 27.44599
-4.1345458 57.241848 27.063057
-4.1239266 57.242607 26.695133
-4.1163626 57.239929 26.328728
-4.1004438 57.236023 25.613571
-4.1018662 57.223251 25.251898
-4.0861945 57.230797 24.917189
-4.0730329 57.224903 24.239161
-4.0707216 57.206829 23.566963
-4.0529447 57.207481 22.930435
-4.0314398 57.203327 21.999565
-4.28193 57.270237 32.069118
-4.2785296 57.260426 31.602085
-4.2793307 57.245888 31.137182
-4.2356963 57.284451 30.754456
-4.2488217 57.255753 30.286163
-4.2436442 57.249058 29.856083
-4.2376938 57.243511 29.43502
-4.2399993 57.228397 29.008804
-4.2228923 57.236511 28.619469
-4.2184234 57.229847 28.217827
-4.2079797 57.230453 27.831671
-4.1960497 57.233006 27.453897
-4.1920757 57.22633 27.070957
-4.19133 57.216022 26.689737
-4.1597157 57.242329 26.356352
-4.189631 57.196186 25.945719
-4.1588159 57.221851 25.621443
-4.1504765 57.221157 25.27252
-4.1449695 57.217274 24.925049
-4.1372209 57.216179 24.585321
-4.1220102 57.223999 24.259357
-4.1452785 57.186707 23.891825
-4.1406021 57.182419 23.562714
-4.117722 57.199638 23.258884
-4.1076255 57.201954 22.944149
-4.0999646 57.20153 22.630623
-4.1053391 57.185936 22.306835
-4.0918965 57.19252 22.007362
-4.0860868 57.190266 21.70332
-4.0825896 57.18541 21.400499
-4.0759521 57.18433 21.104408
-4.0660634 57.187153 20.814863
-4.0693264 57.174694 20.515717
-4.0637765 57.172638 20.228434
-4.0603456 57.168194 19.942261
-4.3282819 57.28429 32.104015
-4.33779 57.259403 31.614573
-4.3298817 57.255531 31.164267
-4.3303943 57.24189 30.708652
-4.3082128 57.255478 30.298462
-4.3120794 57.238331 29.854015
-4.306252 57.232929 29.433012
-4.2857471 57.245152 29.041988
-4.2824383 57.237179 28.631508
-4.2733378 57.236271 28.236702
-4.2675986 57.231571 27.843576
-4.2604537 57.228725 27.458963
-4.2565527 57.222221 27.076017
-4.2607036 57.206383 26.688148
-4.2438097 57.215576 26.335091
-4.2445064 57.204159 25.963797
-4.238409 57.200924 25.607151
-4.2302527 57.200268 25.258425
-4.224926 57.196419 24.911154
-4.2224116 57.189407 24.565382
-4.2074184 57.19722 24.239693
-4.1949863 57.202145 23.915184
-4.1851015 57.204197 23.591902
-4.1881495 57.19117 23.257946
-4.1781526 57.193596 22.943279
-4.186398 57.174725 22.612337
-4.1760545 57.177792 22.306101
-4.1573725 57.190739 22.012386
-4.1569939 57.182327 21.702726
-4.1535883 57.177574 21.399977
-4.1524796 57.170231 21.098486
-4.1372466 57.179523 20.814482
-4.1295924 57.180031 20.526049
-4.1317887 57.160854 19.942091
-4.3870564 57.286362 31.179266
-4.374012 57.275646 30.298683
-4.3598137 57.279778 29.882778
-4.3582988 57.269043 29.454382
-4.3572435 57.245907 28.617563
-4.3528323 57.239269 28.215919
-4.342452 57.239906 27.82976
-4.3305864 57.242489 27.451986
-4.3170986 57.247169 27.08246
-4.3163242 57.236969 26.701111
-4.3138924 57.228909 26.328119
-4.3194699 57.211552 25.950315
-4.3084564 57.21397 25.600183
-4.2953095 57.219055 25.257837
-4.2999592 57.203281 24.897877
-4.2873621 57.208008 24.564663
-4.2825007 57.203747 24.226551
-4.2653961 57.204323 23.572861
-4.2736917 57.184971 23.233082
-4.2533274 57.199471 22.93042
-4.2510533 57.192806 22.611206
-4.2406659 57.195793 22.304899
-4.2326145 57.196144 21.999741
-4.2322536 57.187576 21.690155
-4.2396684 57.169994 21.3764
-4.2169099 57.187916 21.096998
-4.2180357 57.177917 20.796738
-4.2104907 57.169704 20.215996
-4.2127247 57.158707 19.924799
-4.3454461 57.211418 23.545685
-4.3434267 57.203972 23.217987
-4.3313375 57.198956 22.584461
-4.3263268 57.195408 22.272543
-4.2987661 57.182285 20.770868
-6.8434162 57.114578 30.756268
-6.8249111 57.124226 30.339811
-6.9405332 57.093006 30.695765
-6.8982444 57.080639 28.611206
-6.8840265 57.085815 28.224817
-6.8699255 57.079334 27.449898
-7.0450945 57.112961 31.559713
-7.0234475 57.124924 31.132998
-7.0184565 57.116749 30.685961
-7.0304818 57.088032 30.219208
-7.0158277 57.092209 29.805195
-6.9913831 57.108574 29.414225
-6.9926624 57.093758 28.989311
-6.9749742 57.102314 28.60144
-7.0795174 57.112446 29.804564
-7.1075563 57.102783 28.989004
-7.166863 57.130226 31.641884
-7.1622438 57.122173 31.185114
-7.1135073 57.092621 28.243731
-7.1928701 57.109528 31.702402
-7.1790428 57.101303 30.804924
-7.1649203 57.106316 30.380915
-7.1565213 57.092834 29.523834
-7.166863 57.068745 29.084068
-7.1447697 57.084267 28.702652
-7.1349931 57.085011 28.308691
-7.10676 57.056267 26.03421
-7.2336946 57.114647 31.753254
-7.2331672 57.102951 31.288502
-7.2324309 57.091751 30.833229
-7.2165055 57.087624 29.972294
-7.2007737 57.095314 29.566046
-7.1974759 57.088093 29.14724
-7.1924944 57.072281 28.329302
-7.1813822 57.075111 27.943821
-7.1734843 57.074215 27.559921
-7.1428018 57.061478 25.718136
-7.1388512 57.05674 25.363674
-7.3029275 57.114658 31.742689
-7.3024092 57.102795 31.277998
-7.2831302 57.102013 30.405979
-7.2769637 57.097721 29.976368
-7.2745132 57.089123 29.548651
-7.2667761 57.087158 29.137045
-7.2481003 57.087696 28.340084
-7.2474837 57.067055 27.543159
-7.2271695 57.070988 26.800684
-7.3905001 57.09581 31.676805
-7.3689108 57.109413 31.249388
-7.4328833 57.105396 31.226032
-7.4324765 57.093376 30.77107
-7.3988066 57.086643 29.086288
-7.4863477 57.085682 30.783667
-7.4667625 57.085846 29.930397
-7.460259 57.082237 29.510056
-7.4528723 57.079906 29.098631
-7.4171576 57.049286 26.38472
-7.5428238 57.094807 31.723169
-7.5292902 57.087318 30.825441
-7.51968 57.087372 30.394053
-7.5093932 57.088459 29.971689
-7.5027347 57.085331 29.551104
-7.5002255 57.066525 28.715519
-7.4951897 57.062004 28.314543
-7.4843173 57.064751 27.929115
-7.5857339 57.082062 30.399275
-7.5841889 57.072475 29.962523
-7.5819898 57.0639 29.534925
-7.5654578 57.051441 28.312817
-7.5499511 57.059795 27.934341
-7.5515223 57.047585 27.536858
-7.5363245 57.045914 26.787806
-7.5268784 57.028389 25.689535
-7.5183144 57.029392 25.341768
-7.4891124 57.011295 23.329067
-7.6990547 57.08057 31.68132
-7.6856132 57.072113 30.784191
-7.6702247 57.066948 29.923855
-7.6636581 57.063313 29.503637
-7.6517248 57.066418 29.099407
-7.6426783 57.055161 28.289045
-7.6409998 57.046356 27.890045
-7.624289 57.045513 27.131409
-7.623004 57.036758 26.751173
-7.6041126 57.029697 25.666691
-7.600431 57.024471 25.312632
-7.5917144 57.016083 24.621855
-7.5789757 57.004082 23.621643
-7.5714703 57.004265 23.301178
-7.5587001 57.002266 22.670059
-7.7766438 57.083744 31.174324
-7.7626171 57.075241 30.296249
-7.7657328 57.05896 29.852934
-7.7431965 57.062229 29.036411
-7.7393932 57.055061 28.627214
-7.9483638 57.077885 31.568125
-7.9028072 57.041573 28.574369
-7.9623919 57.013386 25.9863
-7.9599118 56.962074 21.40542
-12.572232 57.014614 30.363445
-12.589765 57.005169 28.683393
-12.584224 56.997753 28.28203
-12.577474 56.992077 27.889315
-12.564757 56.994019 27.511892
-12.569113 56.97504 27.115871
-12.567388 56.963818 26.735128
-12.55933 56.960632 26.369331
-12.549468 56.959877 26.011623
-12.542481 56.955761 25.655403
-12.538355 56.948303 25.300724
-12.609489 57.010021 28.281288
-12.599635 56.994831 27.497339
-12.580947 57.004589 27.134867
-12.571287 56.990437 26.387672
-12.571034 56.978016 26.016602
-12.568993 56.967999 25.653734
-12.569885 56.954556 25.292542
-12.563916 56.949753 24.945698
-12.545922 56.959927 24.619087
-12.540373 56.954941 24.281271
-12.547466 56.93457 23.932703
-12.542237 56.92952 23.604027
-12.529421 56.933933 23.288696
-12.529202 56.923027 22.962746
-12.516091 56.928082 22.655771
-12.510449 56.924107 22.344154
-12.522772 56.898262 22.016783
-12.516685 56.895107 21.713621
-12.512857 56.889313 21.411688
-12.505973 56.887383 21.116488
-12.495924 56.889431 20.827837
-12.492885 56.873028 20.243217
-12.575429 56.975895 25.32659
-12.566446 56.96394 24.633579
-12.551167 56.971455 24.307896
-12.5484 56.963753 23.971188
-12.548267 56.952969 23.635984
-12.535535 56.95779 23.320225
-12.545626 56.934769 22.982058
-12.537805 56.933842 22.668966
-12.532351 56.930145 22.357128
-12.529251 56.923698 22.046585
-12.533731 56.908108 21.731764
-12.514231 56.921951 21.446148
-12.52862 56.894508 21.128572
-12.513407 56.903332 20.845085
-12.510962 56.896675 20.551861
-12.49986 56.900681 20.27035
-12.501627 56.889099 19.979464
-12.547693 56.964611 23.35841
-12.547651 56.954655 23.03167
-12.539837 56.954334 22.718077
-12.539569 56.944912 22.399979
-12.531298 56.945389 22.094681
-12.521565 56.938366 21.487679
-12.530698 56.917953 21.175116
-12.520825 56.920822 20.885719
-12.513047 56.921234 20.597364
-12.518161 56.906052 20.299591
-12.509164 56.908146 20.01874
-12.581489 56.968037 24.06395
-12.563378 56.961483 23.090372
-12.56025 56.946804 22.452049
-12.551899 56.947918 22.146393
-12.545825 56.946358 21.841917
-12.552571 56.929291 21.527561
-12.540451 56.935307 21.236654
-12.541125 56.925846 20.935944
-12.533274 56.926857 20.647219
-12.538316 56.912281 20.349054
-12.534683 56.908352 20.062653
-12.57908 56.946465 21.888651
-12.573441 56.936481 21.282795
-12.573984 56.927551 20.981779
-12.571378 56.922543 20.687426
-12.560111 56.92815 20.40481
-12.567162 56.911594 20.10758
-14.667501 56.839619 26.037836
-14.619602 56.811928 23.322956
-14.579004 56.851692 23.04417
-14.560884 56.863895 22.742447
-14.575962 56.835411 22.407162
-14.541704 56.867676 22.130568
-16.661839 56.845604 32.909031
-16.645958 56.850574 32.453442
-16.658161 56.910046 32.940105
-16.65485 56.899261 32.461807
-16.681301 56.851887 31.941593
-16.660864 56.862923 31.511856
-16.665798 56.842796 31.047586
-16.644121 56.855854 30.635813
-16.634758 56.85392 30.211336
-16.633467 56.842243 29.781635
-16.626841 56.837391 29.36792
-16.628248 56.822853 28.949108
-16.675772 56.926628 32.949539
-16.672592 56.915886 32.471066
-16.716248 56.847435 31.921309
-16.687475 56.868977 31.506193
-16.688274 56.854168 31.049101
-16.679895 56.850967 30.61569
-16.661945 56.859829 30.205481
-16.660847 56.848103 29.775721
-16.663422 56.832088 29.347975
-16.651449 56.834229 28.949991
-16.684666 56.937386 32.985676
-16.694178 56.911381 32.484688
-16.733761 56.848495 31.94216
-16.700754 56.875645 31.534147
-16.701612 56.861187 31.076809
-16.684498 56.869164 30.657486
-16.662067 56.883907 30.254011
-16.665369 56.867146 29.816771
-16.667912 56.851555 29.388647
-16.669554 56.837299 28.969522
-16.660967 56.835835 28.572985
-16.651041 56.836212 28.184937
-16.604393 56.708572 21.948332
-16.586567 56.703568 21.056305
-16.753193 56.861851 31.967579
-16.724472 56.883907 31.552032
-16.716665 56.880379 31.108969
-16.712675 56.872379 30.667837
-16.677 56.903645 30.285549
-16.671305 56.898182 29.862087
-16.669203 56.888512 29.44051
-16.670675 56.874664 29.020884
-16.675701 56.856663 28.60327
-16.656446 56.868683 28.228481
-16.668282 56.842724 27.814699
-16.66004 56.841587 27.436428
-16.659636 56.83102 27.053169
-16.657585 56.822643 26.678232
-16.644104 56.82843 26.324408
-16.769859 56.892056 31.980272
-16.754087 56.898113 31.54262
-16.737715 56.905144 31.113937
-16.729391 56.902477 30.679789
-16.694447 56.861126 27.811445
-16.686289 56.859882 27.433041
-16.68597 56.849201 27.049656
-16.669626 56.858322 26.69417
-16.660938 56.858223 26.333546
-16.650265 56.860703 25.980816
-16.652193 56.847923 25.616852
-16.637283 56.855877 25.279657
-16.644896 56.836456 24.918945
-16.64537 56.825901 24.572309
-16.633434 56.830631 24.24544
-16.786795 56.923656 31.99267
-16.759489 56.917595 30.669973
-16.715927 56.88633 27.814638
-16.717228 56.873417 27.422733
-16.707495 56.874207 27.052462
-16.695957 56.877369 26.690247
-16.660913 56.838074 23.90284
-16.659201 56.830532 23.572577
-16.649721 56.832573 23.255451
-16.637922 56.828285 22.62491
-16.840427 56.919643 31.968761
-16.829054 56.920002 31.523701
-16.908186 56.895821 31.940142
-16.975534 56.859924 31.907022
-16.921251 56.913181 31.535265
-17.049095 56.825363 31.86162
-16.96912 56.910271 31.533876
-16.957058 56.911556 31.097849
-16.93251 56.841427 27.76804
-17.126139 56.806313 31.808096
-17.042019 56.896042 31.487944
-17.030069 56.896801 31.052219
-16.992374 56.839878 27.745108
-16.950888 56.867039 27.030071
-17.173708 56.833759 31.800518
-17.119673 56.885818 31.429354
-17.052542 56.846436 27.716789
-17.202276 56.876385 31.837927
-17.09174 56.872295 27.730379
-17.262728 56.851894 31.833712
-17.142876 56.859936 27.740843
-17.309217 56.815872 31.857639
-17.224667 56.905849 31.537252
-17.189453 56.829014 27.764782
-17.327507 56.8004 31.903584
-17.23432 56.90163 31.597591
-17.212872 56.814831 27.801485
-17.14949 56.858387 26.73662
-17.136667 56.790321 23.916607
-17.334444 56.809952 31.939575
-17.254236 56.895626 31.611429
-17.242294 56.884796 30.725901
-17.239462 56.805923 27.807421
-17.174183 56.863956 27.124718
-17.138296 56.807816 23.620951
-17.382963 56.808079 31.900131
-17.307325 56.888069 31.564804
-17.287228 56.887131 30.694073
-17.286034 56.805744 27.776522
-17.221161 56.863159 27.094015
-17.228727 56.843178 26.705257
-17.166792 56.828884 23.61525
-17.446064 56.82127 31.85689
-17.379154 56.890038 31.507113
-17.335781 56.829739 27.755281
-17.241655 56.816574 23.564508
-17.515831 56.822655 31.799026
-17.450577 56.874763 30.992186
-17.402407 56.82962 27.707228
-17.560633 56.825123 31.766987
-17.511015 56.764923 27.98147
-17.430479 56.851463 27.703182
-17.576347 56.844635 31.78583
-17.531429 56.885799 31.399767
-17.604914 56.849083 31.796217
-17.577339 56.868954 31.381002
-17.562016 56.87394 30.952812
-17.583843 56.756584 27.966784
-17.687132 56.807545 31.735518
-17.625175 56.86972 31.378819
-17.614174 56.869217 30.943438
-17.555563 56.83728 27.679569
-17.538691 56.845917 27.314743
-17.736286 56.825413 31.748043
-17.696688 56.750706 27.949064
-17.594728 56.838623 26.929554
-17.796883 56.834164 31.747334
-17.764509 56.74612 27.934904
-17.644217 56.749485 23.741512
-17.859703 56.82579 31.747284
-17.807198 56.759998 27.962465
-17.892326 56.833363 31.798439
-17.822994 56.788738 28.031103
-17.921886 56.820389 31.849339
-17.806908 56.822392 27.747223
-17.954197 56.792816 31.885767
-17.848316 56.789295 27.76898
-17.93391 56.833725 31.539064
-17.904257 56.85635 31.131836
-17.886963 56.775051 27.786137
-17.768204 56.788643 23.61743
-17.968903 56.843773 31.549706
-17.935366 56.767986 27.77564
-18.088964 56.782776 31.879824
-17.983856 56.777531 27.764206
-17.865768 56.786163 23.597784
-18.125183 56.812214 31.914534
-18.024685 56.798931 27.791027
-18.157005 56.811771 31.91729
-18.052794 56.80479 27.799831
-18.014071 56.726669 23.872517
-18.194813 56.782562 31.917408
-18.078695 56.795338 27.820639
-18.126431 56.767982 27.825602
-18.178694 56.755714 27.821905
-18.058817 56.775646 23.658979
-18.334396 56.770645 31.917669
-18.232536 56.766338 27.800777
-18.396503 56.786118 31.885115
-18.285168 56.787807 27.782892
-18.252958 56.701653 23.850376
-18.443243 56.807407 31.880648
-18.349554 56.78344 27.751036
-18.292366 56.724003 23.850586
-18.502886 56.780525 31.85059
-18.383144 56.789505 27.76363
-18.407736 56.788265 27.789293
-18.5249 56.798317 31.952486
-18.455053 56.75523 27.784294
-18.497728 56.738804 27.792631
-18.533363 56.745407 27.819691
-18.505121 56.698223 23.282391
-20.620134 56.571602 20.331221
-20.719315 56.772991 28.540327
-20.694946 56.747887 26.266762
-20.790329 56.791901 30.600204
-20.846867 56.78825 30.593311
-20.908731 56.775368 30.581617
-20.978886 56.779362 30.58884
-21.271746 56.713112 26.476452
-21.304487 56.711628 26.497835
-22.496309 56.684406 31.895933
-24.758766 56.710442 34.403809
-24.745459 56.711746 33.920799
-24.759272 56.682774 33.403324
-24.73204 56.700249 32.960884
-24.737602 56.654705 30.270552
-24.718302 56.664654 29.868237
-24.712309 56.659901 29.453957
-24.714876 56.645763 29.03483
-24.716087 56.633324 28.624321
-24.731321 56.643482 28.665386
-24.706236 56.608936 26.367249
-24.688625 56.61861 26.018934
-24.695101 56.601665 25.647577
-24.690327 56.587856 24.940048
-24.727177 56.618576 26.398087
-24.708969 56.609547 25.326057
-24.736618 56.603695 24.635839
-24.696287 56.576096 22.024864
-24.681166 56.575741 21.412899
-24.679958 56.568695 21.106091
-24.686899 56.552773 20.795559
-24.757324 56.564152 22.315386
-24.883255 56.610538 26.415258
-24.951221 56.668598 30.534117
-24.961863 56.568184 22.238346
-25.04645 56.540615 22.211727
-25.304068 56.676991 34.76115
-25.098261 56.543755 22.209906
-25.136711 56.548977 22.227863
-25.155722 56.565197 22.266453
-25.192186 56.556015 22.280909
-25.22991 56.555546 22.286098
-25.270863 56.560703 22.286907
-25.340509 56.535004 22.26263
-25.389889 56.526691 22.270151
-25.477262 56.518795 22.298752
-25.544243 56.511463 22.286327
-25.60305 56.522938 22.279417
-25.659641 56.53159 22.275568
-25.73712 56.500034 22.264822
-25.807932 56.580635 26.391018
-25.770636 56.502186 22.2974
-25.868185 56.538467 26.390217
-25.908512 56.523502 26.410889
-25.94095 56.531372 26.435043
-26.001869 56.517147 26.409645
-25.992079 56.588314 26.453268
-28.670408 56.410423 22.244169
-28.683311 56.384132 21.916924
-53.282112 55.80687 35.384773
-53.231556 55.767975 34.816658
-53.344601 55.843498 35.419697
-53.291039 55.816608 34.867222
-53.24057 55.782356 34.317173
-53.189007 55.758862 33.793213
-53.364662 55.837135 34.877647
-53.308411 55.826744 34.359108
-53.25639 55.803497 33.834808
-53.208687 55.76725 33.305004
-53.43911 55.851055 34.892834
-53.378475 55.858692 34.397884
-53.324623 55.841774 33.881157
-53.277824 55.799774 33.343208
-53.225418 55.787609 32.854336
-53.383244 55.852657 33.90892
-53.332066 55.829285 33.394161
-53.279427 55.817642 32.904907
-53.232338 55.787205 32.402302
-53.189491 55.743931 31.89439
-53.426605 55.852795 33.929108
-53.371468 55.848083 33.43755
-53.320385 55.830818 32.940189
-53.274902 55.794632 32.429581
-53.221832 55.79575 31.974867
-53.184765 55.733982 31.453671
-53.353775 55.83485 32.968513
-53.302826 55.824024 32.488396
-53.257397 55.79443 31.995003
-53.214638 55.758434 31.503906
-53.171459 55.728874 31.030241
-53.392265 55.836636 33.012581
-53.340061 55.832703 32.539845
-53.293308 55.810123 32.053707
-53.244629 55.80027 31.592503
-53.2076 55.746124 31.088055
-53.444046 55.830185 33.064693
-53.393333 55.82085 32.583958
-53.342209 55.817848 32.120495
-53.293503 55.80891 31.658871
-53.251804 55.774883 31.176563
-53.211128 55.741089 30.704063
-53.494061 55.844593 33.13842
-53.446136 55.823803 32.641811
-53.39352 55.827896 32.18565
-53.343254 55.826168 31.731207
-53.298382 55.805862 31.263483
-53.260632 55.760208 30.775412
-53.219177 55.734287 30.319551
-53.49358 55.842018 32.686646
-53.445381 55.827866 32.207176
-53.398205 55.81385 31.737352
-53.350449 55.806583 31.284626
-53.303474 55.800007 30.841248
-53.260353 55.781311 30.392269
-53.221161 55.750351 29.937937
-53.456352 55.824692 31.737492
-53.413185 55.798252 31.262032
-53.36327 55.804428 30.833658
-53.32021 55.785683 30.384619
-53.279472 55.761242 29.937593
-53.236172 55.751045 29.51457
-53.199966 55.715496 29.071611
-53.391777 55.794369 30.362049
-53.346138 55.78936 29.937128
-53.302639 55.779045 29.513948
-53.262913 55.756748 29.085333
-53.218693 55.756119 28.687433
-53.188316 55.702923 28.241264
-53.421764 55.814041 29.928066
-53.382744 55.783539 29.48292
-53.336239 55.787655 29.083351
-53.293354 55.780102 28.678125
-53.25079 55.774384 28.281713
-53.211891 55.756943 27.879887
-53.18021 55.713776 27.458904
-53.36779 55.801159 28.670879
-53.323318 55.802113 28.281481
-53.28754 55.77079 27.865404
-53.245228 55.769024 27.486338
-53.208252 55.748699 27.094936
-53.176777 55.709522 26.691628
-53.353233 55.790188 27.871185
-53.314236 55.774578 27.47797
-53.271935 55.775185 27.107286
-53.231396 55.771362 26.738052
-53.198017 55.741802 26.349926
-53.166557 55.70755 25.963739
-53.135159 55.675854 25.586218
-53.369865 55.790077 27.499449
-53.331039 55.776966 27.11466
-53.211212 55.76717 26.024572
-53.181454 55.728836 25.63973
-53.151733 55.693134 25.263542
-53.123852 55.652935 24.889332
-53.233944 55.761551 25.686234
-53.198528 55.748196 25.329393
-53.166676 55.72332 24.967592
-53.13464 55.70155 24.614031
-53.110088 55.653362 24.242924
-53.186668 55.751881 24.686724
-53.152184 55.741592 24.346994
-53.129021 55.690002 23.97699
-53.10569 55.641548 23.615444
-53.25172 55.75766 24.736952
-53.18008 55.749386 24.070986
-53.152409 55.716972 23.721167
-53.126381 55.680489 23.373163
-53.102001 55.639965 23.027027
-53.353168 55.758785 25.123617
-53.315002 55.761086 24.788368
-53.243179 55.754158 24.121721
-53.209511 55.744972 23.790415
-53.177334 55.73201 23.460516
-53.144642 55.722908 23.138227
-53.121498 55.679508 22.792931
-53.299694 55.751038 24.164013
-53.264145 55.749985 23.838715
-53.228062 55.752811 23.520918
-53.19735 55.736843 23.191959
-53.16206 55.740128 22.88279
-53.140354 55.693722 22.538557
-53.124405 55.627827 22.184395
-53.215073 55.74255 22.919302
-53.181202 55.742931 22.610956
-53.152767 55.724392 22.291834
-53.127831 55.694473 21.96829
-53.108559 55.645214 21.634752
-53.154408 55.714005 21.716982
-53.125763 55.701248 21.413347
-53.106991 55.653416 21.088261
-53.081036 55.633854 20.787575
-53.284538 55.73473 22.36582
-53.222912 55.720192 21.754227
-53.189838 55.723667 21.461849
-53.15797 55.723991 21.170494
-53.129456 55.713203 20.874573
-53.106537 55.683167 20.568781
-53.084949 55.64978 20.264553
-53.226715 55.726265 21.197296
-53.197994 55.715805 20.901167
-53.142086 55.693363 20.31814
-53.11705 55.673405 20.025755
-53.09325 55.650307 19.734716
-53.077431 55.599506 19.429251
-53.265182 55.72271 20.920334
-53.235409 55.717319 20.630789
-53.146549 55.7071 19.785082
-53.119198 55.697762 19.505302
-53.095245 55.67725 19.221441
-53.07246 55.65374 18.938881
-53.060074 55.593983 18.637457
-53.301102 55.716267 20.643044
-53.242821 55.704723 20.072489
-53.153931 55.7019 19.24855
-53.128735 55.686981 18.970736
-53.095482 55.702438 18.714304
-53.084026 55.640099 18.413706
-53.059872 55.624901 18.144506
-53.039143 55.598503 17.871611
-53.103638 55.695839 18.208532
-53.080315 55.678509 17.939613
-53.060421 55.649956 17.667093
-53.044018 55.610088 17.39123
-53.309906 55.707195 19.57774
-53.285709 55.687656 19.293177
-53.25592 55.689949 19.025314
-53.229431 55.681171 18.753267
-53.197128 55.694664 18.49724
-53.168076 55.697197 18.236938
-53.115261 55.68594 17.714046
-53.089157 55.680618 17.456354
-53.068821 55.655632 17.190346
-53.054371 55.610783 16.916515
-53.036171 55.580345 16.65317
-53.293381 55.687351 18.773264
-53.23885 55.67873 18.241739
-53.208462 55.687233 17.987091
-53.181351 55.684731 17.728369
-53.152843 55.688141 17.475208
-53.080151 55.657555 16.706938
-53.057842 55.642281 16.452776
-53.041424 55.607124 16.191023
-53.028522 55.560627 15.926399
-53.270763 55.69165 17.990654
-53.24366 55.689259 17.731775
-53.088966 55.664402 16.219276
-53.066002 55.653069 15.97091
-53.04644 55.630562 15.719306
-53.030338 55.596806 15.464727
-53.015217 55.560539 15.211423
-53.099918 55.671692 15.735819
-53.058407 55.637325 15.242917
-53.036461 55.62542 15.001828
-53.028164 55.566818 14.742468
-55.331417 55.816399 36.361938
-53.216515 55.674156 16.224205
-53.117451 55.659248 15.254897
-53.092922 55.656372 15.01739
-53.074303 55.633484 14.77292
-53.071957 55.554783 14.507015
-53.050064 55.544926 14.272438
-55.395691 55.774761 36.337574
-53.281296 55.667393 16.227631
-53.255917 55.665123 15.983076
-53.179947 55.66185 15.261958
-53.155449 55.659138 15.024282
-53.131771 55.654175 14.787292
-53.11401 55.62915 14.543517
-55.445919 55.76115 36.35265
-53.193478 55.65686 14.792326
-53.173267 55.640915 14.552117
-53.159019 55.604797 14.305468
-55.494148 55.751095 36.364876
-55.436947 55.751308 35.822021
-55.371243 55.803715 35.360851
-53.215195 55.627258 14.315775
-53.196781 55.606903 14.077212
-53.189533 55.548279 13.825573
-55.552776 55.718166 36.350384
-55.495918 55.718376 35.807774
-55.432808 55.758877 35.330933
-55.370743 55.799141 34.863342
-55.266045 55.793831 33.846409
-53.237347 55.604675 13.86654
-55.610264 55.729984 36.456837
-55.552441 55.736328 35.922035
-55.496063 55.741425 35.397182
-55.428661 55.81168 34.969204
-55.37809 55.79744 34.439903
-55.326519 55.794537 33.936256
-55.678005 55.729481 36.501511
-55.622257 55.72472 35.95042
-55.568054 55.718437 35.409485
-55.511967 55.728916 34.90237
-55.449097 55.781284 34.459965
-55.404545 55.74197 33.909382
-55.349522 55.763485 33.446712
-55.745308 55.723328 36.537971
-55.688473 55.725048 35.994686
-55.637451 55.701576 35.429585
-55.583618 55.700481 34.906536
-55.527706 55.716686 34.416985
-55.472885 55.732574 33.936958
-55.421444 55.735966 33.450871
-55.371037 55.739231 32.974358
-55.314156 55.780575 32.553192
-55.757214 55.708443 36.001564
-55.701981 55.709049 35.468258
-55.650352 55.696465 34.929104
-55.599026 55.688759 34.40794
-55.494278 55.70211 33.434155
-55.435627 55.749317 33.011635
-55.383713 55.765846 32.559612
-55.878017 55.697643 36.545647
-55.822517 55.693913 35.994202
-55.765343 55.706497 35.476807
-55.709461 55.718174 34.969185
-55.659275 55.704849 34.439823
-55.606991 55.708992 33.943939
-55.560493 55.687954 33.426697
-55.511642 55.685089 32.942566
-55.457676 55.71386 32.506256
-55.40313 55.749836 32.086487
-55.351658 55.774048 31.660398
-55.943947 55.698559 36.552055
-55.778854 55.701454 34.951511
-55.728779 55.688068 34.422195
-55.676632 55.692154 33.92635
-55.577942 55.686947 32.948166
-55.527702 55.696857 32.4888
-55.480759 55.694412 32.023556
-55.424538 55.744049 31.627968
-55.381565 55.730091 31.166073
-55.854755 55.699543 34.948536
-55.805717 55.680084 34.411312
-55.753563 55.684132 33.91547
-55.704811 55.6754 33.413784
-55.608204 55.669704 32.455002
-55.561314 55.667034 31.989929
-55.514008 55.671242 31.541805
-55.466133 55.682724 31.110367
-55.417538 55.701881 30.695339
-55.3694 55.722462 30.289085
-55.322994 55.737965 29.884195
-55.276939 55.75518 29.487972
-55.936222 55.678242 34.9105
-55.880615 55.694988 34.420582
-55.831673 55.680641 33.901176
-55.782845 55.67178 33.399502
-55.733974 55.668823 32.915318
-55.682522 55.684868 32.463646
-55.63549 55.682266 31.998413
-55.593029 55.660679 31.520023
-55.547676 55.658939 31.073708
-55.501717 55.664642 30.64403
-55.45631 55.671528 30.22336
-55.411388 55.679813 29.81159
-55.358673 55.730301 29.452009
-55.314335 55.742344 29.057335
-55.275913 55.728859 28.642752
-56.114986 55.685917 35.956722
-56.007332 55.679562 34.89193
-55.952843 55.690014 34.394154
-55.903912 55.675377 33.874809
-55.806267 55.663013 32.889065
-55.753693 55.685165 32.445072
-55.709084 55.66954 31.964684
-55.662952 55.667038 31.508986
-55.616322 55.671707 31.070076
-55.575462 55.650974 30.610653
-55.526203 55.677532 30.212141
-55.483944 55.672276 29.785727
-55.44083 55.675159 29.375565
-55.393951 55.700241 28.995703
-55.350044 55.713787 28.609928
-55.30489 55.736496 28.239628
-56.072662 55.697891 34.897331
-56.020378 55.696156 34.383678
-55.973724 55.669048 33.848686
-55.920544 55.684578 33.378082
-55.872887 55.675068 32.886093
-55.826271 55.665409 32.403816
-55.777023 55.675087 31.953892
-55.735867 55.646561 31.468054
-55.685673 55.670506 31.051687
-55.642334 55.662796 30.607071
-55.598358 55.662693 30.179037
-55.554913 55.663879 29.760021
-55.513268 55.659775 29.34268
-55.465195 55.691448 28.970081
-55.42561 55.684109 28.563034
-55.383511 55.692554 28.178865
-56.305634 55.685917 36.487865
-56.141037 55.687202 34.887104
-56.037952 55.683014 33.869614
-55.988167 55.680096 33.375557
-55.940598 55.670639 32.883503
-55.892902 55.667393 32.408787
-55.843739 55.677197 31.958736
-55.798962 55.668221 31.495329
-55.75251 55.672848 31.05628
-55.704163 55.691666 30.641144
-55.662731 55.678593 30.198065
-55.619297 55.680012 29.778799
-55.581676 55.655788 29.339539
-55.541901 55.646481 28.923872
-55.495594 55.673344 28.552639
-55.455021 55.674828 28.161415
-55.411777 55.692535 27.7927
-55.368572 55.71286 27.43215
-56.369755 55.689079 36.529358
-56.205173 55.69212 34.92778
-56.005836 55.671497 32.915359
-55.959309 55.662376 32.432781
-55.907829 55.685425 31.997702
-55.863029 55.676979 31.533998
-55.819038 55.669041 31.079733
-55.77578 55.661835 30.634806
-55.731895 55.662235 30.206459
-55.692463 55.643745 29.765268
-55.645649 55.667088 29.376694
-55.605843 55.658268 28.960716
-55.567818 55.644215 28.546541
-55.523163 55.666706 28.176504
-55.484268 55.663673 27.786711
-55.442661 55.677055 27.4193
-55.404007 55.678875 27.046329
-55.363892 55.690548 26.688433
-55.325211 55.697945 26.331816
-56.225948 55.666603 34.427105
-56.077831 55.654625 32.936119
-55.984631 55.643745 31.987913
-55.891201 55.653881 31.100002
-55.846722 55.65369 30.662354
-55.804123 55.647896 30.226477
-55.759514 55.656696 29.814306
-55.720589 55.639973 29.382002
-55.674133 55.665627 29.00186
-55.640148 55.631435 28.56604
-55.596947 55.647343 28.188835
-55.555275 55.658649 27.812944
-55.51944 55.644173 27.417646
-55.482349 55.639061 27.037872
-55.442371 55.650864 26.680099
-55.402313 55.665627 26.330339
-55.362099 55.683548 25.988453
-55.321663 55.704803 25.654293
-55.291965 55.677788 25.281927
-56.195988 55.6688 33.469498
-56.148384 55.660843 32.976803
-56.102955 55.646362 32.486176
-55.966354 55.636124 31.109671
-55.921909 55.636219 30.671957
-55.879333 55.630707 30.236013
-55.836052 55.633064 29.816492
-55.791924 55.643681 29.413101
-55.754795 55.621895 28.982519
-55.715454 55.615334 28.575312
-55.672306 55.6315 28.198046
-55.634888 55.622025 27.801125
-55.593418 55.63591 27.433647
-55.553425 55.645359 27.067469
-55.519314 55.628845 26.682238
-55.479324 55.643799 26.332479
-55.439186 55.661903 25.990593
-55.409622 55.631924 25.610178
-55.369133 55.656509 25.284056
-55.326698 55.692245 24.971844
-55.291836 55.694443 24.63472
-56.27071 55.651901 33.464851
-56.03772 55.639343 31.127392
-55.951908 55.627815 30.246027
-55.908638 55.630383 29.826382
-55.864536 55.641212 29.422867
-55.785339 55.627068 28.599049
-55.743546 55.6366 28.214483
-55.707485 55.620361 27.810383
-55.664627 55.641518 27.449703
-55.627502 55.636963 27.069605
-55.593391 55.620579 26.684305
-55.553452 55.635674 26.334478
-55.517891 55.632034 25.972504
-55.48378 55.624058 25.612038
-55.449566 55.619175 25.259676
-55.413601 55.625019 24.921745
-55.377346 55.634434 24.591494
-55.334255 55.677822 24.29414
-55.297127 55.695107 23.978502
-56.253304 55.650883 32.510387
-56.117619 55.635296 31.125559
-56.030464 55.630535 30.251431
-55.946842 55.62381 29.406343
-55.905724 55.622688 28.997213
-55.864967 55.623341 28.59687
-55.827221 55.612041 28.191095
-55.787022 55.616734 27.808086
-55.745567 55.630878 27.440418
-55.705566 55.640579 27.074045
-55.675713 55.602734 26.668226
-55.637276 55.610531 26.311726
-55.603233 55.59948 25.943211
-55.563095 55.620739 25.609369
-55.533451 55.593689 25.237316
-55.494404 55.614342 24.912472
-55.456566 55.631268 24.588627
-55.423153 55.629356 24.253141
-55.391037 55.62355 23.919012
-55.353615 55.644527 23.611116
-55.317307 55.66206 23.304125
-55.280418 55.683926 23.004145
-56.204548 55.628365 31.11368
-56.117073 55.623444 30.239584
-56.033138 55.616562 29.394529
-55.991871 55.615368 28.985413
-55.91172 55.611538 28.186375
-55.868637 55.630268 27.817286
-55.792465 55.625782 27.055449
-55.756687 55.616558 26.676907
-55.718067 55.624462 26.320225
-55.686768 55.598896 25.938192
-55.648022 55.612804 25.597689
-55.612103 55.615311 25.251816
-55.579071 55.606277 24.900818
-55.544285 55.608124 24.564165
-55.50761 55.621181 24.241507
-55.473751 55.622929 23.913664
-55.444405 55.605568 23.574677
-55.40976 55.615135 23.261826
-55.374588 55.628944 22.956123
-55.342224 55.631527 22.645407
-55.309288 55.638496 22.341782
-55.275707 55.650009 22.04508
-56.247353 55.624657 30.661304
-56.120045 55.612122 29.380144
-56.034931 55.625095 28.584946
-55.956257 55.61834 27.795982
-55.920013 55.604092 27.400528
-55.879807 55.613514 27.034304
-55.842457 55.611317 26.66264
-55.803703 55.619118 26.305969
-55.770737 55.600739 25.93063
-55.734825 55.59988 25.576866
-55.695766 55.617062 25.244148
-55.662552 55.607975 24.893103
-55.632275 55.587212 24.537182
-55.593948 55.607651 24.221004
-55.561577 55.601627 23.886972
-55.503963 55.562542 23.210894
-55.460491 55.614834 22.935947
-55.42971 55.609459 22.619312
-55.398407 55.608376 22.30991
-55.369976 55.595909 21.995852
-55.330479 55.635662 21.723692
-55.304256 55.616478 21.411945
-55.263092 55.666317 21.152473
-56.33268 55.62719 30.653582
-56.246967 55.617413 29.790333
-56.160828 55.626808 28.977467
-56.082607 55.608906 28.164038
-56.043324 55.606392 27.77396
-56.002895 55.613243 27.399338
-55.965324 55.608383 27.019285
-55.889038 55.613781 26.290968
-55.853039 55.609909 25.928974
-55.819935 55.594326 25.561892
-55.786804 55.581738 25.203039
-55.745975 55.609703 24.884611
-55.712463 55.603931 24.541447
-55.680275 55.594131 24.199728
-55.64624 55.595589 23.872042
-55.613438 55.593273 23.545628
-55.583496 55.579479 23.214394
-55.548225 55.592976 22.908911
-55.517391 55.58741 22.592426
-55.484356 55.594013 22.289095
-55.454124 55.589329 21.980976
-55.421558 55.597141 21.685669
-55.388283 55.609741 21.397078
-55.361343 55.595028 21.092453
-55.321152 55.641804 20.833754
-55.294479 55.628876 20.536808
-55.261536 55.645485 20.262854
-57.004688 55.705303 36.626598
-56.952068 55.67952 36.041718
-56.899288 55.663647 35.483288
-56.413399 55.622433 30.637987
-56.327618 55.612415 29.774746
-56.285557 55.609352 29.356703
-56.204021 55.601242 28.5401
-56.164444 55.596489 28.141426
-56.11985 55.621971 27.779322
-56.043045 55.616947 27.017424
-56.006916 55.607445 26.638857
-55.970882 55.600582 26.268679
-55.934872 55.596558 25.906754
-55.894436 55.617676 25.572725
-55.86414 55.590351 25.200558
-55.827812 55.595913 24.862593
-55.789703 55.612587 24.538694
-55.762085 55.580048 24.177855
-55.723339 55.604267 23.86903
-55.693657 55.586594 23.530088
-55.658825 55.595909 23.217249
-55.628403 55.586124 22.893375
-55.594223 55.596138 22.588877
-55.55946 55.610641 22.291328
-55.535938 55.574299 21.959597
-55.506828 55.566036 21.652796
-55.473618 55.578426 21.364414
-55.439644 55.59576 21.082567
-55.413757 55.577629 20.779242
-55.381779 55.588772 20.499292
-55.35075 55.596943 20.220201
-55.324356 55.585655 19.931301
-55.285954 55.629276 19.680546
-55.255829 55.637066 19.409203
-57.07172 55.738487 36.669884
-57.023438 55.683414 36.044647
-56.972507 55.655598 35.470215
-56.917557 55.662334 34.953648
-56.866737 55.64986 34.423355
-56.443092 55.614826 30.195993
-56.399349 55.617157 29.776148
-56.358532 55.607349 29.35076
-56.194351 55.612968 27.76613
-56.11631 55.615009 27.01107
-56.082973 55.591084 26.618864
-56.042801 55.605927 26.268915
-56.002522 55.623932 25.92683
-55.973667 55.586277 25.539717
-55.939037 55.58102 25.187332
-55.904274 55.57906 24.842897
-55.86628 55.595654 24.519054
-55.837151 55.570587 24.164616
-55.80162 55.579506 23.843254
-55.765686 55.592442 23.529224
-55.734089 55.586342 23.203989
-55.697208 55.60767 22.904345
-55.669601 55.586494 22.575605
-55.638245 55.585197 22.266209
-55.611385 55.564568 21.946321
-55.580612 55.564247 21.645298
-55.547455 55.576653 21.356836
-55.515289 55.585938 21.069271
-55.489426 55.567757 20.765945
-55.453934 55.5952 20.496973
-55.43198 55.562393 20.190632
-55.398361 55.583939 19.923334
-55.371155 55.577835 19.64085
-55.346802 55.560379 19.354269
-55.312134 55.590111 19.099724
-55.280155 55.608864 18.840551
-55.24707 55.633438 18.586956
-55.220608 55.629982 18.319141
-57.084885 55.750679 36.149242
-57.040966 55.675831 35.510494
-56.984165 55.695175 35.009384
-56.938042 55.652626 34.439445
-56.556801 55.631832 30.654285
-56.473515 55.608917 29.775869
-56.391304 55.597862 28.941132
-56.266327 55.619396 27.779444
