# .PCD v0.7 - Point Cloud Data file format
VERSION 0.7
FIELDS x y z
SIZE 4 4 4
TYPE F F F
COUNT 1 1 1
WIDTH 1559
HEIGHT 1
VIEWPOINT 0 0 0 1 0 0 0
POINTS 1559
DATA ascii
-50.262493 54.804733 19.73847
-50.727592 54.799446 23.46015
-50.318771 54.791931 19.753134
-50.804462 54.743366 23.43428
-50.760578 54.774361 23.155107
-50.718025 54.80233 22.876539
-49.926025 54.780617 15.647353
-50.807449 54.722519 22.820332
-50.766464 54.747169 22.543015
-50.724419 54.776215 22.272682
-50.68364 54.802383 22.00293
-50.767071 54.735256 21.946701
-50.500484 54.80077 19.789679
-50.050434 54.778709 15.651824
-50.57766 54.765865 19.756008
-50.650955 54.747158 19.733196
-50.677372 54.766254 19.477468
-50.728817 54.700642 19.169601
-50.680878 54.758537 18.953789
-50.729153 54.699944 18.663254
-50.688614 54.737255 18.437433
-50.76228 54.67527 18.4053
-50.722919 54.7103 18.180082
-50.692623 54.718811 17.939556
-50.675865 54.693184 16.757418
-50.634922 54.737984 16.549549
-50.712879 54.676006 15.381404
-50.686043 54.683197 15.162546
-50.651169 54.714108 14.95672
-52.719505 54.7033 33.11562
-50.7393 54.648548 14.919515
-50.708248 54.668762 14.710188
-50.680973 54.678425 14.497062
-50.642452 54.720863 14.300097
-50.705326 54.668819 14.057848
-50.686523 54.655094 13.838593
-52.701202 54.76722 31.783195
-52.693913 54.683987 30.7722
-52.678627 54.671402 29.883934
-52.677925 54.734497 28.706484
-52.672047 54.69339 27.877172
-52.664261 54.647568 27.079252
-52.671162 54.673378 26.749691
-52.647316 54.669697 26.041962
-52.659904 54.697887 25.729418
-52.641289 54.623127 25.310947
-52.607647 54.67244 24.992901
-52.61364 54.715412 24.711834
-52.597008 54.641384 24.312725
-52.595997 54.711899 24.067852
-52.583099 54.629337 23.672523
-52.591331 54.67131 23.410425
-52.576084 54.602173 23.038755
-52.588013 54.655567 22.788673
-52.578255 54.691349 22.216909
-52.569294 54.606663 21.852261
-52.556595 54.6647 21.313095
-52.544121 54.608273 20.418718
-52.546787 54.602566 19.865108
-52.536301 54.6283 19.354078
-52.526211 54.562733 19.048008
-52.534222 54.631027 18.846815
-52.52668 54.559513 18.543596
-52.538296 54.618866 18.349932
-52.526108 54.566132 18.065361
-52.536404 54.625683 17.883938
-52.526493 54.567749 17.6017
-52.536751 54.632679 17.424135
-52.524189 54.586311 17.154158
-52.523842 54.598774 16.703886
-52.512119 54.553165 16.442369
-52.50386 54.597824 16.014837
-52.514164 54.61087 15.574655
-52.504791 54.561954 15.322868
-52.496105 54.577129 14.671276
-52.489216 54.584908 14.023844
-52.47522 54.555359 13.7951
-52.475662 54.548954 13.156073
-1.5896531 58.22525 38.143059
-1.4966656 58.130707 33.278671
-1.7688138 58.185749 38.712612
-1.6919495 58.128002 34.981155
-1.6654764 58.157604 34.420284
-1.6000501 58.092659 31.01281
-1.5817846 58.103401 30.484098
-1.5628067 58.116474 29.962749
-1.4934012 58.155132 27.922058
-1.5181417 58.052864 27.354303
-1.4816196 58.045357 25.872822
-1.4600579 58.068611 25.403408
-1.437217 58.095554 24.939987
-1.4348392 58.068188 24.450058
-1.4156437 58.085976 23.989536
-1.4139426 58.057446 23.508001
-1.8999906 58.228203 38.722382
-1.8393292 58.126652 34.953983
-1.8048689 58.178661 34.411518
-1.7396685 58.113708 31.004883
-1.7215041 58.124474 30.476316
-1.696843 58.153313 29.966005
-1.670045 58.041615 27.327103
-1.6430013 58.079151 26.853575
-1.6268505 58.087543 26.366419
-1.6095846 58.09927 25.885761
-1.5440027 58.041103 22.563198
-1.5193594 58.074924 22.12606
-1.4381027 58.043308 18.598692
-2.0686769 58.17075 38.640987
-1.9878224 58.125423 34.926567
-1.9563438 58.169823 34.378433
-1.8973398 58.088074 30.963167
-1.8593986 58.153427 30.473816
-1.8405908 58.16658 29.952688
-1.8106951 58.027016 26.80159
-1.7737885 58.092258 26.349739
-1.7596431 58.095711 25.864536
-1.6819606 58.070591 22.561905
-1.6857084 58.027973 22.086809
-1.6565896 58.07457 21.659613
-1.5892326 58.038143 18.583782
-1.5757371 58.044224 18.161213
-2.2046664 58.204666 38.645588
-2.1342113 58.130077 34.906815
-2.1083117 58.159397 34.346928
-2.0440102 58.092079 30.945396
-2.0317774 58.086826 30.406664
-1.9546393 58.038483 26.791183
-1.9268799 58.079224 26.324793
-1.9098394 58.090752 25.844898
-1.8418067 58.039482 22.532061
-1.8299518 58.039185 22.07873
-1.7401557 58.031727 18.570463
-1.7332046 58.020176 18.141294
-2.3633318 58.171547 38.594093
-2.2882662 58.109947 34.871151
-2.1958964 58.078323 30.918795
-2.1725147 58.104324 30.402582
-2.0747714 58.113213 26.823156
-2.0735362 58.080612 26.312054
-2.0565705 58.092106 25.832466
-2.0113094 58.011135 22.963093
-1.9947821 58.023548 22.51318
-1.9922547 57.997589 22.047636
-1.8904365 58.023766 18.559502
-1.8716117 58.014259 17.710222
-2.5239894 58.176994 39.220394
-2.5031693 58.188206 38.587627
-2.4254675 58.134277 34.871582
-2.4078002 58.140934 34.294197
-2.3385825 58.087582 30.908525
-2.3153269 58.113598 30.392534
-2.2913167 58.142147 29.883627
-2.2674329 58.019905 27.246637
-2.2498543 58.032715 26.759628
-2.2224617 58.07341 26.293932
-2.2026687 58.093067 25.81958
-2.1349528 58.041164 22.511074
-2.1293046 58.023743 22.049913
-2.0333722 58.003738 18.119719
-2.0247526 57.996964 17.696186
-2.6901786 58.105858 39.13549
-2.649884 58.173988 38.555637
-2.5728998 58.119152 34.842018
-2.5658822 58.095516 34.240959
-2.4895697 58.063644 30.876326
-2.4775643 58.058048 30.338751
-2.4192255 57.994751 27.218037
-2.3816705 58.064575 26.766592
-2.3746889 58.048008 26.266396
-2.2850838 58.023148 22.49217
-2.2794881 58.005623 22.031479
-2.1880991 58.005482 18.537079
-2.1843734 57.984962 18.105619
-2.8085341 58.116833 38.483227
-2.7399199 58.083893 35.383636
-2.7176306 58.104134 34.811028
-2.7081017 58.087864 34.216404
-2.6270688 58.071011 30.865084
-2.6069417 58.089024 30.344299
-2.5484247 57.99017 26.707054
-2.524416 58.022457 26.237423
-2.4934721 58.074852 25.783558
-2.438868 57.987873 22.463205
-2.3430886 57.968849 18.513872
-2.9345698 58.161907 38.500263
-2.86133 58.097931 34.784595
-2.8518574 58.081509 34.190315
-2.7659984 58.079502 30.85232
-2.7514036 58.081726 30.320702
-2.6819186 58.014652 26.706068
-2.6637223 58.030575 26.226652
-2.5755162 58.004257 22.458599
-2.5729828 57.977989 21.994459
-2.4762812 57.964684 18.080055
-2.4647286 57.966595 17.661257
-3.0927744 58.11998 38.440498
-2.9949901 58.128681 34.789837
-2.9956496 58.082104 34.171455
-2.9153762 58.0639 30.823969
-2.8981812 58.073849 30.298313
-2.8148632 58.046825 26.711311
-2.8136165 58.013485 26.202305
-2.719964 58.003109 22.446592
-2.7262597 57.951077 21.97006
-2.6368845 57.948517 18.487213
-2.620892 57.963051 18.07126
-3.2690382 58.07626 39.01643
-3.2490985 58.086315 38.385983
-3.1420641 58.122875 34.763367
-3.1400967 58.083664 34.151356
-3.0546472 58.080502 30.816776
-3.0534353 58.043064 30.258104
-2.9762502 57.997757 26.665239
-2.9526522 58.029945 26.196453
-2.8676512 57.993908 22.429041
-2.8650224 57.967426 21.965607
-2.7725184 57.973701 18.487644
-2.7687528 57.952877 18.057726
-3.4301677 58.076107 39.638851
-3.3841357 58.16515 39.071762
-3.373513 58.146854 38.41478
-3.2958145 58.094841 34.717396
-3.2888398 58.070427 34.117989
-3.2091365 58.050278 30.774769
-3.1973846 58.044132 30.238785
-3.1509886 57.94492 27.107464
-3.1231353 57.989845 26.642988
-3.1080084 57.997192 26.159781
-3.0510087 57.913273 22.826897
-3.0208132 57.967758 22.401634
-3.0152764 57.94965 21.942987
-2.9262857 57.946037 18.465286
-2.9164746 57.942768 18.042963
-2.9050295 57.944489 17.625313
-3.4835067 58.009098 35.211632
-3.4521539 58.058487 34.665558
-3.3482864 58.066536 30.766592
-3.3443789 58.036636 30.214169
-3.2677727 57.98954 26.625973
-3.2582171 57.980305 26.1332
-3.174468 57.941044 22.374449
-3.160327 57.948509 21.929062
-3.0806506 57.917877 18.443146
-3.0649133 57.932205 18.028419
-3.4265804 57.949097 26.582441
-3.4116757 57.956059 26.10022
-3.3199451 57.94072 22.358749
-3.311569 57.930904 21.905205
-3.2292991 57.907925 18.426737
-3.2195859 57.904411 18.005394
-3.2082672 57.905907 17.588726
-5.8037663 57.943611 39.035717
-5.7973399 57.906082 38.362877
-5.7086768 57.88324 34.703224
-5.6913295 57.891537 34.132252
-5.6174912 57.846172 30.785017
-5.6115041 57.81813 30.236712
-5.578342 57.888348 29.762894
-5.5285783 57.784977 26.679489
-5.5180159 57.777657 26.191212
-5.4755445 57.840279 25.273973
-5.4837871 57.767433 24.76218
-5.4673986 57.782528 24.305153
-5.4460735 57.773239 23.381683
-5.9628353 57.919125 38.978058
-5.9408741 57.939407 38.358276
-5.8590708 57.893875 34.680115
-5.8335986 57.932655 34.133724
-5.7754278 57.83205 30.746355
-5.760778 57.835682 30.220879
-5.6809673 57.793705 26.65959
-5.6589689 57.82798 26.196575
-5.4852619 57.746994 18.562176
-5.4682989 57.731148 17.726826
-5.4166999 57.72826 15.698365
-6.1237187 57.896011 38.919003
-6.0923338 57.952305 38.332569
-6.0129833 57.898026 34.649456
-5.991859 57.921303 34.091148
-5.9298596 57.834618 30.717667
-5.9174867 57.830044 30.18688
-5.8337674 57.802959 26.638332
-5.8119631 57.837128 26.175537
-5.6605482 57.715832 18.947601
-5.6391625 57.753941 18.545139
-5.6313796 57.743393 18.125259
-5.6197557 57.746891 17.713787
-5.5320849 57.727787 14.100724
-6.2690377 57.940422 38.931747
-6.2606783 57.909344 38.266399
-6.2045984 57.822884 35.146877
-6.1818085 57.852032 34.58733
-6.1466789 57.928509 34.072365
-6.0801077 57.85696 30.7115
-6.065547 57.860371 30.186382
-6.008965 57.777935 27.091469
-5.9881206 57.808495 26.622601
-5.9709368 57.825878 26.150021
-5.7932577 57.7579 18.533655
-5.7879038 57.73827 18.11043
-5.7738118 57.75071 17.702795
-5.6911311 57.712555 14.08645
-6.427825 57.921967 38.895672
-6.4193878 57.890629 38.230713
-6.3305688 57.87001 34.584888
-6.2390161 57.835346 30.681208
-6.2266059 57.830547 30.150927
-6.1743898 57.730061 27.048788
-6.1492949 57.776981 26.590763
-6.1388841 57.769066 26.103693
-5.9759645 57.685013 18.913351
-5.9572887 57.713997 18.50803
-5.939692 57.739208 18.103413
-5.9329824 57.724522 17.685495
-5.8571553 57.69735 14.468267
-5.8477201 57.694752 14.076392
-6.5787344 57.892967 38.853352
-6.5554323 57.919811 38.241383
-6.4822116 57.839176 34.545841
-6.3913884 57.802814 30.645601
-6.3644853 57.853916 30.155018
-6.3163509 57.737358 27.042551
-6.2979975 57.759335 26.569431
-6.2832432 57.76804 26.092751
-6.0998378 57.721523 18.504755
-6.0895925 57.71973 18.089525
-6.0780478 57.723053 17.679035
-5.995523 57.683971 14.069397
-5.9820976 57.696411 13.684157
-6.7149539 57.863628 38.806717
-6.6164703 57.823093 34.514786
-6.5251851 57.793549 30.622648
-6.5130758 57.788403 30.093155
-6.4225259 57.790901 26.574217
-6.4122739 57.782967 26.087442
-6.233562 57.727962 18.497049
-6.2353873 57.681065 18.064014
-6.2144599 57.720451 17.668137
-6.1356173 57.671902 14.057941
-6.1198907 57.693626 13.675717
-6.8406591 57.851143 38.783543
-6.8035069 57.936211 38.224827
-6.7618995 57.79649 35.064297
-6.7361674 57.840649 34.518108
-6.6520748 57.788055 30.608919
-6.6340413 57.80698 30.096437
-6.5816426 57.713379 27.004244
-6.5467267 57.801975 26.572388
-6.5344658 57.802494 26.090693
-6.3649936 57.722252 18.489212
-6.3597617 57.702412 18.067194
-6.9619184 57.857136 38.798794
-6.9322925 57.913258 38.213825
-6.8674517 57.810497 34.502506
-6.7802529 57.773998 30.607094
-6.7623868 57.793045 30.094835
-6.6842728 57.755421 26.551971
-6.6700439 57.764267 26.075813
-6.5002255 57.692955 18.485958
-6.4903736 57.691223 18.071531
-6.474575 57.712746 17.668882
-6.4113536 57.649502 14.447439
-7.0900617 57.840569 38.794971
-7.0570974 57.911491 38.22337
-6.9902658 57.817741 34.518578
-6.9089875 57.75909 30.606117
-6.8932233 57.770218 30.088476
-6.8392754 57.685856 27.00445
-6.819643 57.716297 26.537479
-6.7971187 57.75869 26.081835
-6.6322579 57.671677 18.487253
-6.620142 57.679058 18.076752
-6.6067619 57.691631 17.670835
-6.5365481 57.656864 14.460585
-7.2129397 57.838623 38.788448
-7.1872697 57.880322 38.190689
-7.1367869 57.779125 35.064896
-7.1097817 57.831379 34.525326
-7.0363426 57.741676 30.590134
-7.0088601 57.801003 30.106424
-6.9350963 57.748547 26.554382
-6.9293184 57.723991 26.058464
-6.8795428 57.647892 23.228039
-6.8509955 57.717888 22.814667
-6.8409047 57.714252 22.366386
-6.8342252 57.697357 21.915379
-6.7566223 57.67115 18.486591
-6.7491326 57.660488 18.06905
-6.731257 57.6912 17.670502
-6.646554 57.639244 13.679051
-7.3247442 57.872799 38.799671
-7.2630854 57.753235 35.025379
-7.2436914 57.774624 34.461529
-7.1519866 57.761528 30.588015
-7.1403046 57.756535 30.059443
-7.0592628 57.735107 26.53186
-7.0452828 57.743996 26.056305
-6.9822044 57.677246 22.781124
-6.9571462 57.734386 22.364189
-6.9547882 57.699986 21.904533
-6.9017901 57.617123 18.869383
-6.87532 57.682377 18.480673
-6.867846 57.671692 18.063208
-6.856905 57.675171 17.654177
-6.7920222 57.621414 14.442132
-6.7807431 57.628269 14.055025
-7.4594088 57.842697 38.748615
-7.3731775 57.764839 34.432251
-7.2892952 57.718357 30.537966
-7.2661138 57.761303 30.043606
-7.2143583 57.667187 26.957884
-7.180975 57.756004 26.527218
-7.1751308 57.73127 26.031595
-7.1035709 57.698143 22.776455
-7.0892944 57.711708 22.337515
-7.0825953 57.69463 21.886894
-7.0250163 57.629025 18.860926
-7.0031624 57.676243 18.464926
-6.993433 57.674522 18.051302
-6.9825006 57.677948 17.642429
-6.9174585 57.623764 14.431684
-6.9015474 57.649231 14.05029
-6.9005113 57.615219 13.653188
-7.6024756 57.804276 38.705849
-7.5262718 57.74184 34.987106
-7.5051413 57.770756 34.429852
-7.4185257 57.732857 30.541801
-7.3953538 57.775955 30.047462
-7.3274388 57.696175 26.48531
-7.3074613 57.730057 26.02549
-7.2632408 57.62722 23.184149
-7.2272906 57.684566 22.319511
-7.2162704 57.684933 21.877935
-7.1385007 57.657536 18.454275
-7.1309266 57.646729 18.037384
-7.1155219 57.668293 17.635973
-7.0429749 57.642132 14.435857
-7.0385404 57.621067 14.040594
-7.0327539 57.605717 13.6493
-7.6256065 57.776913 34.444721
-7.5496111 57.692486 30.52257
-7.4565639 57.663624 26.474697
-7.4346924 57.705921 26.02029
-7.3747697 57.621014 22.741535
-7.3522215 57.669369 22.321173
-7.3432727 57.661034 21.875507
-7.2869844 57.586639 18.849718
-7.2631474 57.642971 18.458094
-7.253334 57.6413 18.04505
-7.24015 57.653885 17.640285
-7.1695986 57.619053 14.439291
-7.1650887 57.598042 14.044357
-7.1501184 57.620171 13.664179
-7.4943027 57.626141 22.745014
-7.4794245 57.596134 21.844524
-7.3954229 57.594566 18.440245
-7.3878016 57.583714 18.024162
-7.3703523 57.614368 17.627108
-7.2840853 57.604645 14.049554
-9.793622 57.636925 38.935829
-9.7767982 57.639107 38.300705
-9.6752863 57.601448 34.065765
-9.5554323 57.644161 29.756025
-9.5598974 57.549389 29.178234
-9.5411911 57.579536 28.69161
-9.5274448 57.515839 27.653763
-9.9372215 57.655415 38.933834
-9.9241581 57.635506 38.27879
-9.8317299 57.623974 34.641964
-9.814703 57.635345 34.076149
-9.7458973 57.541882 30.713545
-9.6428337 57.53138 26.675945
-9.6312847 57.52631 26.193426
-9.6050386 57.601086 25.763
-9.5465469 57.468285 22.492256
-9.5184288 57.496445 21.630066
-9.4956045 57.498394 20.768791
-9.4787626 57.528767 20.356632
-9.4763947 57.483112 19.913267
-9.4664211 57.478107 19.491699
-9.4542885 57.428322 18.641531
-9.4417315 57.438198 18.235607
-9.4334841 57.425838 17.823524
-9.4190521 57.446243 17.426937
-10.103708 57.61335 39.505821
-10.081306 57.644703 38.888691
-10.065581 57.639084 38.247257
-9.982317 57.57185 34.567982
-9.9543905 57.644566 34.052204
-9.8806114 57.57383 30.707731
-9.8686476 57.563805 30.176306
-9.7783546 57.554344 26.6644
-9.7667179 57.54916 26.181883
-9.7007027 57.447834 22.90225
-9.6828709 57.481461 22.476269
-9.6708021 57.484337 22.038036
-9.6465216 57.553703 21.635834
-9.605073 57.417522 19.029293
-9.5814781 57.485813 18.645096
-9.5705681 57.486588 18.235165
-9.5553169 57.510895 17.837244
-9.4838543 57.448883 14.646044
-9.479085 57.420685 14.251633
-9.467907 57.426537 13.869738
-10.222595 57.620529 38.827484
-10.193023 57.695442 38.259502
-10.022248 57.542095 30.653244
-10.007434 57.547791 30.133675
-9.9142141 57.552578 26.63467
-9.9010401 57.555595 26.157467
-9.836195 57.443951 22.874393
-9.813673 57.503757 22.462057
-9.8031845 57.497677 22.019428
-9.7170277 57.479687 18.619614
-9.7027454 57.498539 18.217283
-9.6230984 57.474789 15.021604
-9.6192179 57.44075 14.623047
-9.6090765 57.440617 14.23746
-9.5996532 57.436916 13.852793
-10.364646 57.601803 38.78965
-10.333999 57.683819 38.228622
-10.255809 57.576698 34.518234
-10.154782 57.567501 30.654711
-10.145479 57.540764 30.112375
-10.076299 57.477615 27.056976
-10.057662 57.510624 26.594282
-10.044467 57.513309 26.117607
-9.9712706 57.443226 22.861065
-9.9457188 57.520573 22.457827
-9.9414282 57.479092 21.99762
-9.853116 57.468895 18.604132
-9.8437967 57.46019 18.191013
-9.8269653 57.493355 17.797249
-9.7545576 57.428841 14.610058
-9.7460842 57.419186 14.22187
-9.7313805 57.443718 13.845849
-10.477659 57.655991 38.200401
-10.390733 57.594021 34.529442
-10.29943 57.521236 30.619482
-10.280318 57.551052 30.117376
-10.189949 57.529896 26.604469
-10.181005 57.507252 26.112461
-10.105271 57.445843 22.861557
-10.087547 57.479214 22.436037
-10.076855 57.472946 21.993883
-9.9828157 57.490097 18.612972
-9.9749718 57.472328 18.196096
-9.9057579 57.381828 14.983253
-9.8880014 57.422718 14.609288
-9.8794012 57.413071 14.22127
-9.8698025 57.409264 13.83711
-10.633123 57.619087 38.79879
-10.615797 57.620136 38.164787
-10.523393 57.587585 34.521187
-10.428633 57.5308 30.623713
-10.416286 57.520107 30.093231
-10.327007 57.489426 26.577742
-10.315091 57.483559 26.096359
-10.235841 57.439022 22.85671
-10.221184 57.454777 22.422401
-10.208904 57.457272 21.984959
-10.119276 57.446747 18.594698
-10.104948 57.465481 18.193026
-10.094577 57.461987 17.785044
-10.030019 57.403137 14.990571
-10.017308 57.415897 14.607712
-10.006948 57.415691 14.222716
-9.9989557 57.402458 13.83587
-10.764212 57.566784 38.73455
-10.732959 57.655975 38.180763
-10.65151 57.554878 34.479847
-10.553186 57.520092 30.602547
-10.538191 57.525486 30.083632
-10.467473 57.461479 27.030893
-10.446166 57.511314 26.578981
-10.43282 57.513973 26.102612
-10.36079 57.426044 22.839132
-10.347705 57.432869 22.400581
-10.327979 57.479485 21.985434
-10.26581 57.373741 18.966417
-10.236761 57.478317 18.598295
-10.147779 57.372631 14.586163
-10.130874 57.410034 14.213087
-10.119556 57.415668 13.83195
-10.879282 57.583832 38.725815
-10.771889 57.540501 34.446167
-10.672894 57.51186 30.576565
-10.65931 57.508919 30.052187
-10.567909 57.493008 26.549583
-10.558836 57.469944 26.058254
-10.481544 57.414692 22.816734
-10.46415 57.447819 22.39183
-10.454927 57.432384 21.94591
-10.361451 57.447128 18.570738
-10.350404 57.447392 18.161947
-10.338546 57.452881 17.757967
-10.264892 57.386578 14.577406
-10.25462 57.386169 14.19291
-10.243384 57.391666 13.812107
-10.786699 57.524197 30.572052
-10.774423 57.5131 30.042002
-10.676426 57.539028 26.565706
-10.672753 57.482105 26.05374
-10.59691 57.417931 22.807673
-10.578191 57.459846 22.387316
-10.567497 57.453251 21.945789
-10.501043 57.372784 18.941647
-10.477199 57.449883 18.56246
-10.467707 57.440926 18.150074
-10.460501 57.418728 17.735472
-10.380749 57.388885 14.569951
-10.372098 57.378986 14.182688
-10.365722 57.356003 13.793747
-11.115184 57.537319 38.676903
-11.002478 57.530609 34.432144
-10.906236 57.485706 30.552507
-10.892712 57.482655 30.028486
-10.807076 57.432186 26.507797
-10.791252 57.451355 26.042572
-10.714064 57.395744 22.803183
-10.691217 57.464176 22.39649
-10.68479 57.43111 21.941774
-10.618277 57.350754 18.939283
-10.593161 57.437046 18.564116
-10.582154 57.437325 18.155569
-10.574895 57.415207 17.741043
-10.493532 57.395489 14.579113
-10.486426 57.376247 14.188993
-10.473677 57.391254 13.811212
-11.221826 57.528336 38.693905
-11.113176 57.500599 34.430412
-11.01387 57.480835 30.56946
-10.999164 57.486183 30.051115
-10.915131 57.429348 26.524714
-10.898096 57.457264 26.064585
-10.822537 57.394775 22.82007
-10.805516 57.428116 22.395494
-10.797693 57.403984 21.945477
-10.725703 57.360844 18.959982
-10.702325 57.438248 18.581007
-10.694335 57.420376 18.165094
-10.685604 57.407608 17.75432
-10.607766 57.370403 14.587149
-10.594489 57.389103 14.208701
-10.586489 57.375893 13.822518
-11.311473 57.530869 38.725143
-11.284033 57.605804 38.15852
-11.207987 57.483147 34.441933
-11.109253 57.473316 30.587168
-11.094797 57.478962 30.068819
-11.009642 57.441044 26.552689
-10.999402 57.426796 26.066948
-10.903131 57.434086 22.417564
-10.895445 57.410236 21.967453
-10.80309 57.437572 18.598555
-10.801076 57.383205 18.167887
-10.788136 57.398178 17.768242
-10.713229 57.353111 14.598731
-10.703238 57.353073 14.21473
-10.695406 57.339977 13.828873
-11.394759 57.521877 38.738068
-11.291605 57.491611 34.467262
-11.202357 57.435776 30.576921
-11.18222 57.482162 30.087273
-11.096569 57.463135 26.580906
-11.086575 57.449242 26.094929
-11.000575 57.406231 22.416746
-10.989038 57.409088 21.980072
-10.924308 57.341915 18.982359
-10.903173 57.410564 18.599821
-10.897008 57.383831 18.180437
-10.884357 57.399002 17.78079
-10.820339 57.298786 14.593527
-10.803102 57.346088 14.224344
-10.792467 57.352119 13.844121
-11.456807 57.604095 38.197651
-11.385067 57.477642 34.473846
-11.293839 57.447388 30.60121
-11.282368 57.437134 30.071619
-11.199741 57.409534 26.562599
-11.184891 57.429615 26.097458
-11.116572 57.353672 22.844694
-11.095118 57.422874 22.438396
-11.083755 57.425999 22.001564
-11.003425 57.40205 18.608686
-10.993128 57.403011 18.200445
-10.98494 57.390774 17.789806
-10.922074 57.291679 14.603138
-10.902149 57.358067 14.239784
-10.894661 57.345314 13.853908
-11.486415 57.485268 34.502853
-11.398731 57.433289 30.611937
-11.386105 57.431374 30.088104
-11.299925 57.43082 26.594599
-11.290128 57.417225 26.108829
-11.20329 57.394218 22.441391
-11.194642 57.379684 21.995968
-11.131215 57.314445 18.999838
-11.105076 57.420021 18.63269
-11.097585 57.40287 18.216898
-11.090796 57.381603 17.802639
-11.035173 57.298717 15.006889
-11.016324 57.359295 14.640223
-11.009685 57.340851 14.250468
-10.999271 57.34721 13.870329
-11.598394 57.464367 34.504871
-11.56962 57.569057 34.015453
-11.497654 57.411407 30.091234
-11.41124 57.411602 26.598763
-11.39892 57.415131 26.12335
-11.311646 57.393585 22.455914
-11.304221 57.370346 22.006071
-11.283159 57.440468 21.605869
-11.219925 57.375141 18.628336
-11.197263 57.392048 17.820786
-11.143952 57.291611 15.018355
-11.133803 57.29567 14.634046
-11.121374 57.315079 14.256369
-11.108069 57.340508 13.882066
-11.687222 57.499744 33.966282
-11.41998 57.387867 22.457895
-11.413768 57.355797 22.00371
-11.395455 57.408123 21.594999
-11.324084 57.397385 18.642374
-11.321865 57.343609 18.212019
-11.312247 57.340809 17.805555
-11.247629 57.315109 15.030909
-11.236053 57.328747 14.649393
-11.22929 57.310429 14.259964
-11.217456 57.326424 13.882957
-11.427835 57.282269 17.781271
-11.417574 57.28458 17.380163
-11.350696 57.278366 14.632677
-11.338376 57.297829 14.255254
-11.326607 57.313816 13.878414
-13.877974 57.379616 38.325481
-13.758177 57.332729 34.083328
-13.632183 57.314743 29.740955
-14.00596 57.336872 38.285187
-13.901423 57.32069 34.645874
-13.880753 57.366093 34.108051
-13.792868 57.27272 30.749989
-13.677716 57.248238 26.715883
-13.661692 57.270958 26.252213
-13.647044 57.280102 25.784918
-13.561239 57.204239 22.563206
-13.549662 57.191612 22.11956
-13.535247 57.210125 21.695215
-13.519627 57.242283 21.280663
-13.507072 57.243225 20.85433
-13.495904 57.230762 20.42527
-13.487011 57.195721 19.989695
-13.475147 57.192677 19.572067
-14.123923 57.348248 38.288422
-14.023788 57.293816 34.61721
-14.004129 57.331238 34.073425
-13.800875 57.244137 26.707092
-13.783578 57.283913 26.25379
-13.767591 57.310287 25.796566
-13.69941 57.190208 22.991104
-13.683372 57.226524 22.568682
-13.670268 57.231812 22.133804
-13.655212 57.259449 21.713524
-13.586116 57.217594 19.163921
-13.577076 57.187889 18.74122
-13.563315 57.209278 18.342804
-13.551744 57.208267 17.937923
-13.53975 57.212563 17.537863
-13.465452 57.163044 14.779607
-13.453277 57.174858 14.400914
-13.433857 57.149628 13.634736
-14.247225 57.357437 38.294029
-14.131039 57.302124 34.047428
-14.039289 57.271179 30.739544
-14.02489 57.263763 30.211182
-13.927496 57.229771 26.695517
-13.915523 57.209724 26.206305
-13.895304 57.287251 25.780209
-13.808279 57.238335 22.572081
-13.797617 57.216953 22.123735
-13.785107 57.217697 21.690456
-13.690386 57.203297 18.337898
-13.680573 57.183754 17.925766
-13.664388 57.23447 17.543871
-13.597388 57.109585 14.760385
-13.579947 57.178402 14.399742
-13.569147 57.177166 14.018942
-13.557836 57.181927 13.641836
-14.380142 57.332253 38.278358
-14.256263 57.37019 34.107872
-14.171403 57.2453 30.726538
-14.154988 57.262325 30.215601
-14.057105 57.228996 26.699942
-14.039367 57.277374 26.251944
-14.025697 57.278084 25.779568
-13.939733 57.21172 22.562899
-13.927447 57.208134 22.123713
-13.914128 57.217876 21.694899
-13.836663 57.136623 18.72154
-13.807435 57.203175 17.937551
-13.793829 57.226147 17.544743
-13.726187 57.101555 14.761827
-13.708917 57.170437 14.401278
-13.698076 57.16925 14.020561
-14.408346 57.285614 34.615501
-14.391854 57.284203 34.040661
-14.298543 57.261719 30.739443
-14.285853 57.229904 30.193943
-14.184853 57.229614 26.701248
-14.172636 57.209702 26.212036
-14.152079 57.29599 25.791033
-14.066096 57.221661 22.568762
-14.054468 57.20924 22.125036
-14.038885 57.245903 21.709383
-13.97541 57.131168 19.129456
-13.96063 57.165691 18.734364
-13.94782 57.177914 18.332445
-13.936214 57.176926 17.927891
-13.922634 57.199856 17.535328
-13.846812 57.160427 14.78124
-13.836384 57.15332 14.396779
-13.82465 57.161671 14.019075
-13.81413 57.156929 13.639381
-14.63032 57.305702 38.248047
-14.508183 57.319004 34.060753
-14.417238 57.26519 30.734631
-14.403888 57.24152 30.19487
-14.303057 57.241459 26.701656
-14.291466 57.213024 26.207222
-14.275157 57.24778 25.755751
-14.186598 57.207111 22.554857
-14.17355 57.21244 22.120214
-14.159532 57.231182 21.695786
-14.088441 57.207645 19.155907
-14.079041 57.177986 18.733368
-14.066284 57.190231 18.331367
-14.057001 57.161446 17.915731
-14.041973 57.202911 17.530499
-13.972682 57.087376 14.752338
-13.956599 57.146744 14.389024
-13.947371 57.126404 14.002875
-13.935234 57.140705 13.629033
-14.75739 57.310505 38.881981
-14.739285 57.30843 38.243305
-14.637137 57.2841 34.59964
-14.617057 57.337261 34.068436
-14.528942 57.251507 30.718235
-14.515079 57.235893 30.184351
-14.416339 57.218418 26.681177
-14.400991 57.241123 26.217867
-14.386144 57.258823 25.756014
-14.298837 57.209484 22.550028
-14.286591 57.205883 22.11092
-14.272726 57.224583 21.686565
-14.19793 57.106594 18.697901
-14.177955 57.210995 18.334005
-14.086357 57.089554 14.747474
-14.072096 57.129871 14.378301
-14.060531 57.138134 14.000843
-14.048512 57.152454 13.626912
-14.850695 57.295273 38.240944
-14.732592 57.269859 34.022953
-14.641543 57.230953 30.710922
-14.628263 57.207165 30.171442
-14.529936 57.189362 26.669788
-14.515323 57.203476 26.201553
-14.497497 57.264061 25.765381
-14.428222 57.143719 22.962643
-14.413614 57.171192 22.536142
-14.400757 57.176441 22.101807
-14.386328 57.204071 21.682072
-14.309444 57.113766 18.705986
-14.292633 57.181316 18.32703
-14.281894 57.171108 17.918806
-14.27083 57.166157 17.515562
-14.200421 57.069252 14.745701
-14.184021 57.138191 14.385474
-14.174044 57.127441 14.002249
-14.162103 57.141811 13.628403
-14.845796 57.307766 34.06958
-14.758371 57.206749 30.708572
-14.645208 57.182606 26.679058
-14.631178 57.188316 26.205673
-14.614072 57.24041 25.764513
-14.525908 57.201221 22.563591
-14.514284 57.188908 22.120016
-14.500525 57.207787 21.695745
-14.429882 57.185001 19.156799
-14.422403 57.127815 18.722921
-14.409171 57.149338 18.325073
-14.396993 57.157711 17.924427
-14.384484 57.171463 17.52844
-14.30022 57.106525 14.385985
-14.285739 57.153164 14.020074
-14.277521 57.119808 13.632178
-15.085724 57.272648 38.246895
-14.964433 57.279957 34.05431
-14.874676 57.202839 30.71199
-14.860611 57.187355 30.178389
-14.759548 57.196293 26.692955
-14.747128 57.17651 26.203964
-14.729506 57.237232 25.767965
-14.644904 57.136292 22.535252
-14.631967 57.141621 22.101156
-14.616332 57.187267 21.690443
-14.538821 57.088791 18.711081
-14.522929 57.147232 18.32856
-14.512034 57.137104 17.92058
-14.498145 57.169476 17.531935
-14.427111 57.064457 14.758478
-14.413106 57.104984 14.389492
-14.403693 57.084766 14.003672
-14.390295 57.118382 13.635691
-15.200294 57.296688 38.262436
-15.080345 57.265896 34.037342
-14.989338 57.196083 30.701696
-14.975138 57.180519 30.168171
-14.871859 57.21447 26.698948
-14.861458 57.160534 26.189201
-14.754398 57.181667 22.553534
-14.74374 57.151455 22.101189
-14.729336 57.179195 21.681623
-14.651041 57.080292 18.702845
-14.635228 57.138691 18.3204
-14.622944 57.147072 17.91984
-14.609708 57.170147 17.527527
-14.538559 57.05545 14.751086
-14.52459 57.09594 14.382181
-14.513673 57.094799 14.002136
-14.500981 57.118839 13.63131
-15.313153 57.28204 38.245808
-15.211114 57.220631 34.571117
-15.192801 57.250385 34.02166
-15.101364 57.179882 30.686865
-14.984665 57.18042 26.674835
-14.970971 57.177612 26.196306
-14.954056 57.229729 25.755222
-14.881474 57.118443 22.958509
-14.865783 57.163799 22.541258
-14.853871 57.15136 22.098003
-14.839496 57.179096 21.678436
-14.761271 57.070908 18.695845
-14.743722 57.157032 18.324724
-14.735141 57.109776 17.901997
-14.72069 57.151352 17.517179
-14.633822 57.095707 14.379022
-14.622196 57.104122 14.001822
-14.610869 57.109009 13.625391
-15.422229 57.242893 38.225826
-15.30113 57.226288 34.015995
-15.19345 57.172985 30.171736
-15.09345 57.14814 26.66593
-15.079264 57.153866 26.192778
-15.061478 57.223206 25.762009
-14.973027 57.158024 22.548035
-14.960535 57.154613 22.109243
-14.94733 57.164558 21.680828
-14.852122 57.133747 18.323999
-14.839839 57.142216 17.923441
-14.827886 57.146759 17.523954
-14.742147 57.072762 14.379931
-14.729905 57.090782 14.005744
-14.718594 57.095734 13.629399
-15.52422 57.266884 38.284256
-15.422528 57.201176 34.602425
-15.404409 57.231415 34.052917
-15.312893 57.163742 30.717655
-15.298144 57.156689 30.189934
-15.196996 57.15921 26.699804
-15.181416 57.190987 26.241901
-15.166235 57.217838 25.785301
-15.094355 57.09119 22.978806
-15.078413 57.145737 22.566208
-15.067008 57.124695 22.118473
-15.053879 57.134789 21.690218
-14.971527 57.092609 18.736067
-14.956139 57.151428 18.353413
-14.94793 57.095226 17.926901
-14.824676 57.088127 13.647521
-15.524265 57.205639 34.639488
-15.507792 57.205101 34.064854
-15.415444 57.163227 30.747414
-15.400751 57.156555 30.219545
-15.300544 57.153072 26.723145
-15.286028 57.168034 26.254856
-15.271921 57.177895 25.788168
-15.18354 57.124378 22.579737
-15.170644 57.130318 22.145491
-15.156069 57.167618 21.730267
-15.085069 57.138878 19.187876
-15.075544 57.100586 18.761786
-15.063645 57.104179 18.356445
-15.052065 57.10376 17.952295
-15.039688 57.117977 17.556568
-15.608795 57.216137 34.093941
-15.517621 57.160057 30.763586
-15.503396 57.145435 30.229893
-15.40165 57.185654 26.759663
-15.390295 57.141132 26.25486
-15.374537 57.185448 25.808676
-15.302061 57.078617 23.011787
-15.287966 57.106903 22.585485
-15.274684 57.12188 22.15579
-15.260279 57.159328 21.740574
-15.1907 57.113056 19.190321
-15.179081 57.111706 18.779745
-15.169357 57.078495 18.359198
-15.157858 57.078144 17.955208
-15.145063 57.101749 17.563244
-15.588255 57.24168 29.787079
-15.508705 57.137337 26.736757
-15.496521 57.109768 26.242649
-15.481817 57.136833 25.786512
-15.391709 57.137341 22.60696
-15.379449 57.134686 22.168001
-15.367537 57.127434 21.730637
-15.288357 57.051865 18.759932
-15.27413 57.101788 18.373716
-15.265226 57.055176 17.951078
-15.250528 57.116047 17.573673
-15.17809 57.024754 14.804246
-15.59008 57.112415 25.782242
-15.502211 57.077469 22.585524
-15.487839 57.119331 22.169416
-15.475085 57.130077 21.740929
-15.383472 57.07769 18.372065
-15.371131 57.096096 17.975353
-15.358572 57.119949 17.583147
-15.287278 57.010418 14.807071
-15.275842 57.023037 14.429477
-15.2636 57.05125 14.058331
-15.254759 57.018478 13.670973
-15.571959 57.152668 21.3416
-15.496528 57.021965 18.368063
-15.484304 57.04039 17.971762
-15.47234 57.054947 17.576365
-15.384476 57.063038 14.458995
-15.375331 57.034134 14.070273
-15.365446 57.020691 13.68854
-17.692692 57.048317 29.742386
-18.039078 57.081165 38.322277
-17.922665 57.041893 34.078739
-17.817219 56.993473 30.228506
-17.720713 56.954727 26.707319
-17.707611 56.970474 26.239622
-17.69467 56.998325 25.783712
-17.594944 56.921547 22.126644
-17.583008 56.950558 21.707813
-17.571146 57.011375 21.307295
-17.536287 56.905506 19.989971
-17.524813 56.922096 19.581694
-18.03166 57.035114 34.075897
-17.940561 57.000412 30.759169
-17.829409 56.964985 26.714972
-17.81633 56.980827 26.247126
-17.803488 57.017376 25.796156
-17.715506 56.952686 22.580084
-17.703489 56.968422 22.150696
-17.691582 56.988693 21.726995
-17.656298 56.996235 20.450603
-17.621763 56.900253 19.159885
-17.610485 56.927059 18.761719
-17.599272 56.922165 18.353088
-17.58814 56.903885 17.942125
-17.577074 56.93745 17.554331
-17.491209 56.88179 14.4183
-17.480858 56.843475 14.027555
-18.139105 57.019054 34.068378
-18.033524 56.994961 30.235895
-17.936991 56.999599 26.739902
-17.923443 56.955757 26.235519
-17.910757 57.000839 25.789789
-17.834566 56.906933 23.000172
-17.822762 56.971581 22.592484
-17.810534 56.942745 22.140467
-17.798716 56.971935 21.721323
-17.706238 56.923775 18.355585
-17.695095 56.924137 17.95191
-17.684038 56.929829 17.553064
-17.608486 56.842064 14.788167
-17.597967 56.902954 14.425866
-17.587492 56.903061 14.046309
-17.577074 56.899582 13.667684
-18.152615 57.004292 30.779648
-18.137867 56.982662 30.240185
-18.124723 57.069893 29.782814
-18.041052 56.953846 26.723223
-18.028051 56.969833 26.255304
-18.015125 56.980705 25.788984
-17.927073 56.942806 22.58765
-17.915134 56.958672 22.158188
-17.903391 56.988049 21.738811
-17.810669 56.913532 18.359861
-17.799444 56.895374 17.948816
-17.788588 56.938381 17.564547
-17.712818 56.841969 14.795458
-17.702433 56.893394 14.430137
-17.691925 56.874401 14.044858
-17.681528 56.880547 13.669177
-18.34495 57.028214 34.112858
-18.253544 56.980171 30.782795
-18.226145 57.062416 29.797478
-18.142864 56.98159 26.758392
-18.129595 56.97226 26.274595
-18.116835 56.991959 25.813223
-18.028795 56.946968 22.605711
-18.016743 56.945156 22.16713
-18.005014 56.965675 21.743357
-17.923822 56.924229 18.785196
-17.912527 56.910374 18.372553
-17.901423 56.910957 17.968796
-17.890432 56.916862 17.569872
-17.814707 56.830574 14.804361
-17.804426 56.872547 14.436104
-17.793993 56.872803 14.056629
-17.783554 56.859867 13.675307
-18.24106 56.940685 26.752344
-18.21558 56.976879 25.82291
-18.127634 56.915058 22.606253
-18.116196 56.957989 22.190247
-18.10413 56.942848 21.748615
-18.022783 56.855904 18.771742
-18.012344 56.925331 18.393503
-18.00111 56.907543 17.982124
-17.990185 56.913601 17.583118
-17.904612 56.889572 14.454567
-17.893955 56.851696 14.063381
-17.883732 56.867668 13.690482
-18.447769 56.965481 30.810492
-18.433411 56.96069 30.282452
-18.337738 56.935722 26.763906
-18.32473 56.935108 26.285423
-18.312065 56.946404 25.819031
-18.225126 56.92028 22.62167
-18.21294 56.900826 22.174114
-18.201967 56.95739 21.768129
-18.110254 56.904415 18.396004
-18.099386 56.914566 17.995771
-18.088654 56.930099 17.60021
-18.003088 56.859669 14.454915
-17.992685 56.850567 14.072487
-17.982565 56.866642 13.699505
-18.634272 56.992752 34.135994
-18.544193 56.955143 30.811281
-18.434275 56.90868 26.754187
-18.422012 56.942238 26.296543
-18.409765 56.97086 25.840195
-18.322048 56.883892 22.60874
-18.311251 56.944782 22.201788
-18.2994 56.938786 21.764481
-18.208286 56.904305 18.400522
-18.197098 56.886639 17.989136
-18.186846 56.930119 17.604563
-18.101622 56.869717 14.461547
-18.091242 56.860695 14.07895
-18.080988 56.857643 13.700234
-18.736364 56.975079 34.129108
-18.631834 56.940704 30.282606
-18.620338 57.04496 29.836437
-18.536261 56.91618 26.764055
-18.523849 56.941296 26.301088
-18.510696 56.926979 25.819178
-18.424007 56.910152 22.626375
-18.412624 56.935474 22.201168
-18.400902 56.938473 21.76827
-18.30899 56.876656 18.392368
-18.298351 56.896118 17.995905
-18.287411 56.893055 17.593126
-18.202015 56.841663 14.455044
-18.191725 56.84219 14.075481
-18.181833 56.867943 13.705197
-18.751972 56.933842 30.812296
-18.726168 57.033474 29.838097
-18.642029 56.939064 26.786715
-18.62789 56.895969 26.28207
-18.615452 56.915924 25.820852
-18.527498 56.872757 22.614376
-18.516094 56.898003 22.189405
-18.504684 56.91888 21.76556
-18.412329 56.875664 18.397852
-18.401833 56.904491 18.005001
-18.391151 56.920181 17.60928
-18.304152 56.822281 14.453825
-18.293947 56.832401 14.077215
-18.283733 56.838985 13.701368
-18.74371 56.926819 26.789709
-18.729874 56.900906 26.295412
-18.718344 56.95541 25.854443
-18.628962 56.878883 22.626509
-18.617561 56.90427 22.201385
-18.605717 56.907337 21.76857
-18.513058 56.873848 18.404642
-18.501783 56.865597 17.99695
-18.491096 56.881248 17.601475
-18.404806 56.849972 14.468654
-18.394033 56.831509 14.08311
-18.383434 56.818966 13.701614
-18.950264 56.924286 30.83024
-18.935772 56.919865 30.302059
-18.923609 56.98328 29.827337
-18.839796 56.914398 26.793001
-18.82671 56.914215 26.314222
-18.814354 56.934525 25.852634
-18.72613 56.893738 22.643478
-18.713646 56.874634 22.195686
-18.702333 56.89563 21.771843
-18.609537 56.844101 18.400358
-18.598515 56.845135 17.996517
-18.588564 56.888775 17.611954
-18.501719 56.820194 14.465998
-18.491957 56.849628 14.094958
-18.481365 56.837212 13.713209
-19.018032 57.019791 29.864668
-18.932575 56.884987 26.785683
-18.920145 56.901882 26.3174
-18.907681 56.913654 25.85071
-18.820917 56.899685 22.655762
-18.808752 56.889656 22.212297
-18.796818 56.883907 21.77499
-18.715607 56.827728 18.808506
-18.705198 56.851357 18.411024
-18.694511 56.861797 18.010712
-18.684513 56.896263 17.622295
-18.597784 56.809464 14.46909
-18.587734 56.819794 14.092312
-18.577652 56.826584 13.716297
-19.22727 56.948284 34.174881
-19.110914 56.965557 29.839596
-19.02807 56.897804 26.804777
-19.014029 56.86359 26.305214
-19.002546 56.901085 25.85405
-18.916067 56.878674 22.654518
-18.903961 56.868664 22.211128
-18.892374 56.871914 21.778307
-18.801304 56.839832 18.41432
-18.790194 56.831753 18.00662
-18.780352 56.866207 17.618368
-18.694529 56.798496 14.472363
-18.684818 56.818455 14.098454
-18.674091 56.796516 13.713997
-19.223314 56.897232 30.322361
-19.21336 57.002018 29.875946
-19.128632 56.893829 26.812244
-19.115107 56.876827 26.32296
-19.103071 56.897316 25.86137
-19.016088 56.866695 22.65674
-19.004538 56.874603 22.222328
-18.992342 56.860043 21.780529
-18.901903 56.856136 18.42787
-18.8899 56.820339 18.008844
-18.880684 56.873482 17.627819
-18.793999 56.787514 14.47459
-18.784586 56.817089 14.103553
-18.773788 56.795227 13.71901
-19.313452 56.915459 29.826279
-19.231079 56.881565 26.813784
-19.217447 56.864613 26.324501
-19.205727 56.893745 25.868015
-19.117905 56.854881 22.658293
-19.106951 56.880695 22.232862
-19.094021 56.84832 21.782085
-19.002808 56.835526 18.425661
-18.991583 56.827602 18.017801
-18.981524 56.852886 17.625776
-18.8948 56.786133 14.479122
-18.883953 56.767902 14.093652
-18.874212 56.784378 13.720592
-19.531561 56.940765 34.204144
-19.425545 56.88895 30.335945
-19.414959 56.969257 29.872328
-19.329369 56.86137 26.809067
-19.304062 56.873535 25.863447
-19.217922 56.879078 22.677094
-19.206011 56.878292 22.237883
-19.193352 56.854965 21.791439
-19.10149 56.824497 18.426189
-19.090582 56.825897 18.022022
-19.080261 56.841927 17.626305
-19.003 56.751831 14.854198
-18.994066 56.794521 14.485556
-18.982868 56.766796 14.097047
-18.97286 56.773731 13.721116
-19.507107 56.934669 29.853073
-19.423347 56.859947 26.812119
-19.410109 56.851585 26.328009
-19.398619 56.880798 25.871445
-19.311289 56.842499 22.661171
-19.299463 56.841599 22.222191
-19.287918 56.845058 21.789213
-19.196636 56.814606 18.423948
-19.185461 56.806717 18.016085
-19.176298 56.85067 17.631285
-19.099344 56.761002 14.858014
-19.089907 56.784645 14.483294
-19.079052 56.766495 14.097655
-19.0688 56.763855 13.718853
-19.611481 56.883736 30.345196
-19.601849 56.972378 29.887114
-19.516214 56.848534 26.812012
-19.490574 56.843662 25.856028
-19.404999 56.831314 22.661037
-19.393646 56.839363 22.226545
-19.381819 56.83392 21.789076
-19.291925 56.822159 18.431341
-19.281185 56.823643 18.027008
-19.270729 56.830441 17.62751
-19.194166 56.740723 14.8548
-19.185936 56.792999 14.489022
-19.176188 56.803642 14.111824
-19.164938 56.772354 13.724241
-19.691519 56.858189 29.824074
-19.597744 56.82526 26.333107
-19.587351 56.871761 25.886747
-19.502485 56.870388 22.693645
-19.489594 56.843056 22.240725
-19.477802 56.837772 21.803095
-19.387463 56.808716 18.436525
-19.377163 56.819565 18.035885
-19.365988 56.807835 17.629078
-19.280338 56.74213 14.482371
-19.270662 56.752739 14.105508
-19.260895 56.759815 13.729405
-19.573298 56.796131 21.795843
-19.483803 56.785439 18.43873
-19.473949 56.805618 18.04187
-19.463165 56.803291 17.638678
-19.377415 56.738491 14.4913
-19.367769 56.749207 14.114353
-19.357229 56.737198 13.73259
-19.526443 56.769943 16.441563
-19.49766 56.817944 15.289307
-19.483183 56.721951 14.873383
-19.452717 56.715919 13.731171
-21.689568 56.707561 25.50108
-21.887205 56.720261 29.950384
-21.780249 56.704842 25.974031
-21.692383 56.677578 22.753033
-21.678146 56.651474 22.299025
-21.552441 56.618599 17.671484
-21.547361 56.678329 17.293297
-21.529821 56.603683 16.866962
-21.510382 56.620026 16.084211
-21.967222 56.715424 29.954437
-21.870533 56.678196 26.440819
-21.857504 56.674789 25.962198
-21.770313 56.655853 22.74684
-21.747486 56.66127 21.871912
-21.6577 56.660099 18.502069
-21.643587 56.625816 18.081421
-21.634478 56.642963 17.684317
-21.595913 56.682514 16.108877
-21.547327 56.604591 14.532317
-21.534689 56.578007 14.142385
-22.051218 56.719425 29.962786
-21.954876 56.69136 26.453335
-21.94002 56.670979 25.964289
-21.853245 56.661175 22.752977
-21.840618 56.652908 22.307873
-21.830311 56.666744 21.877741
-21.73736 56.638485 18.495316
-21.726736 56.641167 18.089525
-21.7167 56.649124 17.688566
-21.636061 56.577068 14.90853
-21.62723 56.592182 14.529356
-21.617205 56.594208 14.148036
-21.606892 56.592644 13.767641
-22.037643 56.673672 26.439386
-22.023521 56.661736 25.955523
-21.935022 56.642643 22.73967
-21.924997 56.66095 22.308111
-21.913702 56.665874 21.873413
-21.819862 56.637444 18.490379
-21.810986 56.658596 18.091894
-21.799025 56.648033 17.683472
-21.709589 56.60041 14.526587
-21.700397 56.611973 14.14797
-21.689062 56.600872 13.764543
-22.22241 56.711517 29.948711
-22.121416 56.657127 26.423294
-22.111712 56.687836 25.964998
-22.021425 56.660477 22.742474
-22.008537 56.652145 22.297224
-21.998062 56.665916 21.866936
-21.911877 56.612137 18.882723
-21.904198 56.646358 18.487068
-21.892437 56.639759 18.077351
-21.882223 56.647648 17.676229
-21.789021 56.571148 14.509876
-21.780687 56.592117 14.134292
-21.767345 56.561806 13.74539
-22.309021 56.712143 29.943481
-22.194538 56.662426 25.943928
-22.105284 56.651577 22.731623
-22.09322 56.652054 22.290861
-22.078878 56.63007 21.842875
-21.987001 56.636662 18.47625
-21.973215 56.611496 18.059162
-21.962917 56.61924 17.658205
-21.881678 56.564762 14.88434
-21.874563 56.598743 14.51089
-21.865219 56.61021 14.132106
-21.851725 56.579903 13.742964
-22.392984 56.694237 29.929998
-22.291065 56.647312 26.409821
-22.277466 56.6437 25.931068
-22.189358 56.649891 22.728437
-22.175268 56.632584 22.278639
-22.16271 56.628365 21.839544
-22.072025 56.653286 18.479834
-22.05615 56.609684 18.055141
-22.046749 56.626694 17.657709
-21.955679 56.587288 14.503209
-21.944309 56.579647 14.118703
-21.93067 56.549252 13.729737
-22.377308 56.65979 26.422115
-22.366516 56.681965 25.95842
-22.269098 56.610291 22.711575
-22.25979 56.637295 22.284414
-22.245182 56.615303 21.836363
-22.150946 56.612572 18.465372
-22.141855 56.633583 18.066719
-22.13043 56.632164 17.661755
-22.03771 56.583706 14.503013
-22.028252 56.59515 14.124146
-22.012489 56.545723 13.729381
-22.457687 56.645004 26.42202
-22.442966 56.633003 25.937956
-22.355017 56.648811 22.738838
-22.337749 56.605 22.27537
-22.327053 56.618652 21.845083
-22.232519 56.616703 18.47283
-22.222422 56.628559 18.07033
-22.207926 56.599377 17.654478
-22.116846 56.569672 14.502951
-22.103313 56.543018 14.112644
-22.094528 56.560398 13.73765
-22.638697 56.68441 29.949181
-22.522053 56.635803 25.947931
-22.429245 56.608112 22.724951
-22.415968 56.599739 22.279638
-22.405315 56.613449 21.849272
-22.311966 56.621132 18.480143
-22.297804 56.596107 18.062744
-22.290464 56.631786 17.672276
-22.195366 56.565361 14.505673
-22.181799 56.538757 14.115283
-22.172031 56.546623 13.737429
-22.61344 56.643223 26.434948
-22.59976 56.639919 25.95575
-22.507217 56.612762 22.731695
-22.494999 56.613346 22.290705
-22.483385 56.61824 21.855701
-22.388287 56.608017 18.47776
-22.375158 56.592228 18.064047
-22.363741 56.590843 17.659082
-22.275084 56.580677 14.512115
-22.262554 56.563671 14.124334
-22.250734 56.552528 13.740591
-22.789162 56.657074 29.946369
-22.675938 56.634171 25.960386
-22.599417 56.637348 23.196938
-22.585577 56.625095 22.744907
-22.571289 56.608051 22.294724
-22.558657 56.60408 21.855242
-22.467909 56.630779 18.492355
-22.452654 56.596664 18.07095
-22.442314 56.604626 17.669426
-22.348444 56.547764 14.505761
-22.3391 56.559292 14.126726
-22.325142 56.529091 13.737348
-23.109003 56.818665 38.109917
-22.765009 56.628098 26.450045
-22.660109 56.607918 22.750118
-22.647938 56.608707 22.308893
-22.636385 56.613804 21.873655
-22.541594 56.605125 18.493793
-22.52845 56.589523 18.079834
-22.517069 56.588318 17.674627
-22.42651 56.560493 14.519783
-22.411785 56.524555 14.126195
-22.401045 56.523014 13.745311
-22.719604 56.599327 22.321529
-22.704901 56.577824 21.872999
-22.614983 56.606144 18.509464
-22.601881 56.590706 18.095339
-22.590565 56.589657 17.689964
-22.500484 56.563019 14.533784
-22.486862 56.536747 14.142882
-22.47508 56.525826 13.758966
-23.237297 56.782978 38.133514
-22.891876 56.64706 26.023069
-22.787188 56.608131 22.34347
-22.773708 56.595753 21.899101
-22.680693 56.589138 18.517916
-22.668821 56.583019 18.10747
-22.656544 56.572826 17.698404
-22.568676 56.556347 14.545135
-22.557384 56.549221 14.15987
-22.543491 56.519375 13.770135
-23.289562 56.755001 38.135479
-23.059435 56.64555 30.022314
-22.960291 56.605915 26.495872
-22.948193 56.61182 26.021309
-22.848358 56.599552 22.356339
-22.835062 56.587303 21.911884
-22.742449 56.572445 18.526249
-22.731873 56.57563 18.119488
-22.719765 56.565556 17.710333
-22.631035 56.530949 14.550463
-22.618773 56.514362 14.162409
-22.611788 56.541779 13.789528
-23.007862 56.609116 26.042854
-23.006397 56.69582 25.620173
-22.908398 56.589653 22.372129
-22.89526 56.577564 21.927591
-22.80512 56.573105 18.545052
-22.794716 56.576466 18.138124
-22.779352 56.538799 17.717966
-22.702427 56.508167 14.944877
-22.694105 56.5238 14.564617
-22.670603 56.496742 13.792367
-23.397606 56.715187 38.166069
-23.289019 56.729565 33.961914
-22.96624 56.561474 22.37989
-22.957739 56.585094 21.953074
-22.865288 56.554955 18.557264
-22.857311 56.576885 18.157728
-22.843174 56.548668 17.741007
-22.755468 56.50687 14.576782
-22.746908 56.519062 14.197245
-22.736805 56.518181 13.815672
-23.459587 56.74461 38.222912
-23.340628 56.677155 33.947441
-23.140425 56.605515 26.565939
-23.125486 56.586552 26.075527
-23.12565 56.682117 25.657766
-23.026941 56.560966 22.399021
-23.015162 56.558075 21.958805
-23.014336 56.639973 21.563581
-22.930428 56.583652 18.586277
-22.91563 56.550533 18.16415
-22.906197 56.559399 17.761969
-22.816889 56.50016 14.589821
-22.808439 56.512474 14.2102
-22.801947 56.54031 13.836914
-23.400303 56.690159 33.978683
-23.184711 56.586811 26.092184
-23.090427 56.5891 22.427914
-23.075289 56.559784 21.974054
-23.070049 56.606071 21.561331
-22.989016 56.568134 18.592678
-22.978952 56.571957 18.185341
-22.963755 56.534775 17.764742
-22.879772 56.513771 14.605062
-22.870241 56.51672 14.222315
-22.860315 56.516075 13.840487
-23.569073 56.702549 38.225712
-23.455654 56.666958 33.975449
-23.255657 56.582375 26.580597
