# .PCD v0.7 - Point Cloud Data file format
VERSION 0.7
FIELDS x y z
SIZE 4 4 4
TYPE F F F
COUNT 1 1 1
WIDTH 1560
HEIGHT 1
VIEWPOINT 0 0 0 1 0 0 0
POINTS 1560
DATA ascii
-23.008228 56.30196 23.567049
-22.996904 56.303982 23.25214
-22.998634 56.290981 22.926756
-22.976294 56.306061 22.631741
-22.983011 56.287552 22.309095
-22.981483 56.278744 21.99931
-22.960623 56.292461 21.713097
-22.958288 56.284832 21.411263
-22.947264 56.28738 21.121532
-22.943939 56.281132 20.827505
-22.931704 56.285294 20.54521
-23.062315 56.311592 23.233593
-23.053423 56.310566 22.91996
-23.041645 56.313026 22.613337
-23.053696 56.287952 22.285088
-23.025175 56.310116 22.003555
-23.01502 56.311073 21.70602
-23.018057 56.296867 21.398647
-23.006971 56.299149 21.108917
-23.003586 56.292629 20.814896
-22.980164 56.309406 20.543108
-23.12289 56.300545 22.906488
-23.096399 56.308781 22.300362
-23.094734 56.299644 21.990517
-23.090042 56.294155 21.68758
-23.065811 56.311451 21.407799
-23.060123 56.307358 21.112522
-23.051138 56.307201 20.823755
-23.060995 56.285343 20.5203
-23.204197 56.302906 24.55521
-23.1842 56.302998 23.900904
-23.175493 56.301762 23.578712
-23.164076 56.303822 23.263735
-23.160414 56.297005 22.94412
-23.153938 56.293594 22.631659
-23.144535 56.293716 22.326176
-23.142879 56.284977 22.016247
-23.127335 56.292473 21.724339
-23.130375 56.278542 21.416952
-23.1138 56.287457 21.132631
-23.093794 56.300438 20.854532
-23.10363 56.278999 20.550903
-23.082233 56.293793 20.279934
-23.209599 56.303432 24.298018
-23.203426 56.29995 23.968019
-23.174177 56.302769 23.015802
-23.162283 56.306446 22.708612
-23.174219 56.282635 22.379725
-23.17798 56.268433 22.063854
-23.151613 56.289215 21.782864
-23.143705 56.288742 21.486069
-23.138044 56.285778 21.190411
-23.140146 56.273949 20.890583
-23.133404 56.272446 20.602654
-23.128807 56.268566 20.315819
-23.216986 56.284527 23.376373
-23.202728 56.291607 23.067814
-23.186707 56.291641 22.44828
-23.195786 56.272072 22.126236
-23.174799 56.287354 21.839268
-23.17234 56.281334 21.536604
-23.172195 56.272747 21.235218
-23.179882 56.255234 20.929792
-23.167656 56.26078 20.64699
-23.151913 56.270466 20.370337
-23.257212 56.283604 23.396778
-23.253582 56.278725 23.076355
-23.25247 56.271049 22.757299
-23.243126 56.273003 22.451096
-23.241535 56.266102 22.140409
-23.236916 56.262806 21.836645
-23.229153 56.263241 21.539625
-23.218132 56.267521 21.249166
-23.220348 56.256638 20.949015
-23.208149 56.262459 20.666065
-23.214823 56.246628 20.368429
-23.34712 56.29213 24.34388
-23.326342 56.287388 23.369085
-23.322783 56.282154 23.048805
-23.327072 56.267952 22.724113
-23.305542 56.274734 22.118942
-23.306391 56.264858 21.809683
-23.309629 56.252331 21.501812
-23.293242 56.262569 21.217068
-23.301085 56.244934 20.911795
-23.283453 56.25679 20.634413
-23.284622 56.247051 20.342216
-23.432648 56.285091 23.948843
-23.4235 56.275414 23.299259
-23.409542 56.281666 22.991179
-23.41395 56.266727 22.666864
-23.394104 56.280037 22.372639
-23.403463 56.259609 22.051136
-23.388197 56.26783 21.759081
-23.375118 56.273613 21.467987
-23.375214 56.264256 21.167055
-23.377604 56.252357 20.867447
-23.371147 56.25079 20.579735
-23.361237 56.253307 20.298313
-23.490692 56.275841 22.935635
-23.47929 56.27882 22.629
-23.475611 56.272953 22.317812
-23.463551 56.276936 22.019194
-23.464619 56.265804 21.710545
-23.44075 56.283695 21.430691
-23.446413 56.267467 21.124514
-23.448902 56.255035 20.825144
-23.442547 56.252953 20.537655
-23.415958 56.274372 20.272005
-23.579739 56.273823 23.857538
-23.571663 56.27248 23.535612
-23.560869 56.274441 23.220898
-23.541298 56.276394 22.600893
-23.543158 56.264027 22.284159
-23.536699 56.261448 21.980133
-23.52714 56.262589 21.682873
-23.514364 56.267563 21.392199
-23.514759 56.257378 21.091726
-23.506384 56.257469 20.803238
-23.500158 56.255173 20.515823
-23.599636 56.257496 22.897602
-23.594009 56.25412 22.585407
-23.590807 56.248051 22.274502
-23.568405 56.264366 21.987392
-23.548132 56.278309 21.701069
-23.546387 56.270882 21.399153
-23.552446 56.254528 21.093132
-23.544258 56.25478 20.804564
-23.538218 56.252644 20.517069
-23.613499 56.259308 23.249613
-23.610924 56.253143 22.929972
-23.605516 56.250374 22.617481
-23.586411 56.263573 22.323355
-23.580328 56.261791 22.018879
-23.576578 56.257416 21.715622
-23.564196 56.263126 21.42457
-23.576015 56.240959 21.112911
-23.568094 56.241703 20.824188
-23.556749 56.24649 20.541788
-23.632471 56.268589 23.941431
-23.630182 56.262714 23.612734
-23.619949 56.266136 23.297297
-23.622793 56.254543 22.971382
-23.617527 56.252438 22.658529
-23.614685 56.247627 22.346956
-23.592598 56.265133 22.059202
-23.599878 56.248833 21.744471
-23.587688 56.255089 21.453196
-23.577671 56.258926 21.16292
-23.591991 56.234791 20.852346
-23.575258 56.246532 20.57498
-23.571749 56.243114 20.28805
-23.657673 56.259361 23.639528
-23.650478 56.252075 22.997742
-23.645304 56.250401 22.684671
-23.642555 56.246021 22.372877
-23.642218 56.238953 22.062403
-23.638826 56.235497 21.758841
-23.610338 56.261032 21.483938
-23.622435 56.239902 21.171732
-23.631403 56.222473 20.86648
-23.620392 56.228111 20.583778
-23.611452 56.231441 20.302031
-23.690331 56.260403 23.651773
-23.680294 56.264488 23.335978
-23.67803 56.259701 23.015539
-23.683626 56.245941 22.69071
-23.670244 56.254154 22.39024
-23.669975 56.247341 22.079546
-23.666653 56.244133 21.775763
-23.671131 56.232025 21.467749
-23.655907 56.242676 21.1828
-23.648327 56.244602 20.893402
-23.659639 56.224876 20.589285
-23.639601 56.241268 20.317831
-23.729145 56.2561 23.655848
-23.711807 56.261829 23.025305
-23.698843 56.262867 22.405413
-23.704069 56.250034 22.088873
-23.700848 56.247005 21.784943
-23.699944 56.241394 21.482262
-23.679258 56.258598 21.202497
-23.68837 56.241623 20.896799
-23.68865 56.234875 20.603127
-23.663054 56.257912 20.33663
-23.757891 56.251476 23.348663
-23.750599 56.25322 23.033916
-23.740389 56.258396 22.726179
-23.732456 56.254627 22.108511
-23.734772 56.245636 21.798805
-23.728489 56.246605 21.501455
-23.718918 56.251415 21.210655
-23.717066 56.247433 20.915546
-23.711836 56.247391 20.626907
-23.708744 56.244965 20.339367
-23.78989 56.243851 23.045414
-23.78517 56.243145 22.731831
-23.78299 56.233612 22.108528
-23.77458 56.237362 21.810001
-23.781076 56.2183 21.200058
-23.779474 56.214439 20.905167
-23.757727 56.233742 20.632538
-23.760406 56.225094 20.339806
-23.832424 56.21912 21.503971
-23.823093 56.224201 21.213242
-23.827663 56.207905 20.619108
-23.819244 56.21212 20.336975
-23.893616 56.237587 22.417009
-23.89917 56.225208 22.100389
-23.879885 56.241436 21.813046
-23.891861 56.216045 21.19755
-23.89027 56.212154 20.902658
-23.890888 56.205795 20.608978
-23.876844 56.216312 20.332109
-23.973398 56.227684 22.381393
-23.97072 56.21814 21.766905
-23.966379 56.2108 21.168522
-23.959265 56.212917 20.879189
-23.959881 56.206223 20.585663
-23.962692 56.197071 20.293385
-24.061718 56.226093 22.967779
-24.046461 56.236805 22.666292
-24.055048 56.220116 22.343042
-24.05533 56.213085 22.032639
-24.046591 56.209984 21.432373
-24.031822 56.220509 21.147551
-24.035805 56.20953 20.847637
-24.01972 56.221699 20.570097
-24.028105 56.205803 20.272652
-24.098473 56.223537 21.430664
-24.089172 56.227604 21.140368
-24.082027 56.229256 20.851105
-24.088194 56.215664 20.552416
-24.085388 56.212471 20.265474
-24.129112 56.229645 20.577717
-0.65717214 57.971912 40.088913
-0.81487411 57.973454 40.050793
-1.2903831 57.925877 39.898426
-1.4546527 57.903412 39.840691
-1.4226695 57.942192 39.224937
-1.4015523 57.95269 38.591763
-1.3968931 57.920124 37.929001
-1.4794711 57.983624 36.108788
-1.4548931 57.964066 34.902493
-1.4299277 57.947823 33.730774
-1.4142573 57.948982 33.163429
-1.4125655 57.913509 32.575161
-1.396186 57.917568 32.024239
-1.5019608 58.025658 26.348404
-1.3694098 58.01503 21.214542
-1.368995 57.984829 20.756887
-1.5671071 58.011627 23.005529
-1.4793342 57.963615 18.99338
-1.4344009 58.023151 18.165207
-1.4355893 57.9902 17.72986
-1.3510363 58.040005 15.264533
-1.3628218 57.980309 14.839335
-1.3625526 57.952732 14.427211
-1.3569119 57.939526 14.021847
-1.7267286 57.982014 22.973467
-1.6333888 57.949718 18.974392
-1.5801303 58.002445 17.722607
-1.5039041 57.973869 14.424702
-1.4881006 57.98774 14.027524
-1.4770162 57.98914 13.628368
-1.8707749 57.993214 22.964909
-1.7839901 57.943272 18.960657
-1.7310369 57.995865 17.710102
-1.6854267 57.913624 14.801479
-1.6483643 57.984898 14.421032
-1.6460342 57.962658 14.013411
-1.6316448 57.973042 13.617435
-2.5788388 57.85725 42.288666
-1.9243985 57.961483 18.960276
-1.8121105 57.940495 14.403163
-1.8031296 57.936218 14.001646
-2.7293646 57.839069 42.246941
-2.175678 57.961029 22.925724
-2.0740132 57.953098 18.948433
-1.9589307 57.940769 14.398621
-1.9532682 57.927444 13.994761
-2.8647029 57.852882 42.240112
-2.3254597 57.943024 22.906336
-2.1304667 57.895283 14.782032
-2.1170151 57.903481 14.383453
-2.0950544 57.935387 13.993658
-3.004281 57.846458 42.211216
-2.4699109 57.93327 22.889906
-2.4393899 57.953075 21.994678
-2.3731093 57.915348 18.916828
-2.3362989 57.957005 18.086573
-2.3278434 57.950069 17.664101
-2.2567306 57.910946 14.380662
-2.254385 57.888485 13.975041
-2.5190415 57.905449 18.902473
-2.4954355 57.941322 18.492746
-2.4001276 57.909504 14.37361
-2.3816776 57.932407 13.981729
-2.7593997 57.922962 22.859631
-2.6155508 57.947189 17.645931
-2.5479386 57.898537 14.365028
-2.5455289 57.875977 13.960158
-2.8140762 57.884964 18.874987
-2.7664514 57.928043 17.629375
-2.7020929 57.869549 14.349688
-2.6838441 57.892372 13.958819
-3.5762184 57.842697 42.103138
-2.9675045 57.857361 18.852055
-2.8436489 57.876881 14.344185
-2.8348823 57.872387 13.945519
-3.7408221 57.776211 42.00967
-3.2015507 57.895203 22.803551
-3.1155713 57.846878 18.836689
-3.0208297 57.812237 14.715415
-2.9923248 57.865669 14.333364
-2.9835877 57.861122 13.935118
-3.9213612 57.720253 42.618443
-3.8819764 57.787251 41.990532
-3.6811118 57.75531 33.821213
-3.3553276 57.86935 22.774351
-3.2639596 57.836956 18.819872
-3.1411662 57.854797 14.321092
-3.1324446 57.850178 13.923265
-4.0573344 57.709846 41.881775
-3.386277 57.850517 17.971859
-3.3661571 57.87851 17.566307
-3.3111634 57.789719 14.292252
-3.2994258 57.794018 13.898035
-4.1861277 57.733082 41.189377
-4.3586521 57.72419 41.825901
-4.3085575 57.715038 39.80368
-4.5303717 57.666801 41.723507
-4.6733932 57.65926 40.992443
-4.640388 57.651878 39.658863
-4.8592315 57.634975 41.617722
-4.8187695 57.650131 40.286148
-4.7682462 57.645607 38.339695
-5.0118833 57.641422 41.60313
-5.1627841 57.628956 41.563122
-5.3128023 57.62064 41.518379
-5.2889638 57.642307 40.862419
-5.2737455 57.634853 40.188702
-5.2652559 57.604954 39.504604
-5.2470374 57.609856 38.863682
-5.4893875 57.627895 42.173061
-5.4353762 57.693275 40.872353
-5.4281192 57.657574 40.171455
-5.4175344 57.634674 39.494186
-5.4013944 57.632328 38.846695
-5.3877149 57.622234 38.202023
-5.3613877 57.601074 36.940815
-5.4915662 57.678379 36.367451
-5.4808102 57.660854 35.753006
-5.4659438 57.658703 35.160114
-5.4510837 57.65728 34.575928
-5.4404874 57.641525 33.988117
-5.4341941 57.611328 33.39698
-5.4059377 57.608303 32.282375
-5.441771 57.628334 27.584698
-5.4258609 57.638885 27.098978
-5.4232845 57.602943 26.589525
-5.4034734 57.628139 26.122641
-5.5093536 57.699894 18.961123
-5.4825206 57.718594 18.134867
-5.4002099 57.678165 14.493762
-5.3907852 57.67569 14.101214
-5.3824182 57.669682 13.709603
-5.5700564 57.664688 14.866536
-5.54669 57.711773 14.487743
-5.5289264 57.703251 13.703585
-5.826776 57.675125 18.91711
-5.7237706 57.668018 14.857285
-5.7056746 57.696625 14.473049
-5.6878943 57.687908 13.689731
-5.8443971 57.670029 13.680092
-6.1279607 57.656681 18.894892
-6.0302801 57.63028 14.835784
-6.009923 57.668083 14.455239
-6.2684422 57.636185 18.875763
-6.1473475 57.665295 14.446301
-6.2825737 57.650417 14.43805
-6.2710176 57.657028 14.050023
-6.2604289 57.660145 13.662767
-6.5273685 57.627922 18.875263
-6.4334183 57.602234 14.824286
-6.404737 57.637665 14.054041
-6.3942423 57.640881 13.667121
-6.5608444 57.600147 14.834388
-6.5323148 57.635876 14.06449
-6.5242615 57.62991 13.67505
-6.6806221 57.618504 14.841077
-6.6706934 57.619637 14.450129
-6.664094 57.607903 14.057308
-6.81356 57.573971 14.818208
-6.7751036 57.612953 13.663307
-6.9434867 57.557785 14.801715
-7.1668491 57.583305 18.838634
-7.0734735 57.557453 14.799974
-7.1998854 57.534267 14.803042
-7.8296919 57.476894 34.77887
-7.8131514 57.424953 33.592007
-7.7894869 57.407661 32.464588
-7.7399063 57.448742 30.876024
-7.7140956 57.50404 30.388407
-7.717536 57.433151 29.817743
-7.6622672 57.455185 27.809088
-7.6381712 57.454414 26.829439
-7.3209872 57.531403 14.805109
-7.302115 57.56971 14.427214
-7.2804313 57.580055 13.655974
-8.3113346 57.375954 37.639141
-8.9025908 57.373135 40.136108
-9.4552345 57.35384 39.366127
-9.4370012 57.361931 38.73037
-9.4289083 57.31815 38.057411
-9.3842745 57.301689 36.201843
-9.3565331 57.28632 35.006157
-9.5016222 57.369698 36.231258
-9.4834146 57.384796 35.647633
-9.4725065 57.362469 35.041065
-9.455924 57.371227 34.468609
-9.4467039 57.342327 33.873775
-9.4331245 57.337448 33.306293
-9.4225054 57.318089 32.735241
-9.4118614 57.299908 32.172829
-9.3996258 57.291031 31.624823
-9.3811169 57.315762 31.10833
-9.4800816 57.363552 30.081335
-9.4638615 57.379215 29.575943
-9.4535189 57.364738 29.055758
-9.4397449 57.369099 28.55427
-9.4319057 57.343109 28.038551
-9.4237356 57.319672 27.530584
-9.4071865 57.340786 27.056419
-9.3949537 57.340015 26.573441
-9.3903456 57.300217 26.071972
-9.3804121 57.288879 25.593102
-9.4511251 57.343575 23.328604
-9.4296684 57.335945 22.435888
-9.4229422 57.312019 21.985384
-9.4121256 57.309998 21.549788
-9.3881607 57.319519 20.695675
-9.3784018 57.313396 20.268599
-9.3712864 57.294014 19.839005
-9.3964186 57.401527 16.212627
-9.3666754 57.396938 15.035155
-11.17039 57.133781 42.277096
-11.38983 57.107124 42.288872
-11.849394 57.180824 38.499607
-11.664957 57.169018 30.972095
-11.622002 57.2005 29.435638
-11.593476 57.138512 27.890259
-12.06847 57.068066 42.384567
-12.03321 57.078072 41.01952
-11.780185 57.101398 30.920622
-11.768 57.095726 30.391829
-11.752349 57.116547 29.888081
-11.676386 57.132221 26.909966
-11.658813 57.173477 26.456018
-11.643197 57.20142 25.998098
-11.633146 57.190258 25.521385
-11.631166 57.122307 25.016922
-11.588114 57.110012 23.196671
-11.514783 57.173866 20.625669
-12.163156 57.065865 41.682377
-11.566716 57.154266 18.131058
-11.557221 57.150826 17.726381
-12.406288 57.032509 40.957973
-12.54686 57.041611 40.928608
-12.712474 57.015858 41.52309
-12.693205 57.025387 40.853703
-12.675212 57.026382 40.187126
-12.875031 57.030819 42.170036
-12.822724 57.00069 40.1068
-13.003681 57.016293 41.438614
-12.986201 57.003441 40.748795
-13.13154 56.991913 40.724533
-13.114318 56.977161 40.045002
-13.289144 57.00576 41.390659
-13.271984 56.985317 40.69421
-13.501979 57.063972 33.882019
-13.469628 57.060699 32.761723
-13.455132 57.045097 32.202187
-13.439171 57.046837 31.66309
-13.425596 57.026169 31.114473
-13.409693 57.031437 30.591682
-13.395369 57.022526 30.065248
-13.381026 57.015728 29.546783
-13.369908 56.97823 29.013765
-13.477783 57.03474 28.044037
-13.463796 57.029896 27.550406
-13.446407 57.061733 27.085314
-13.432123 57.063076 26.6059
-13.418505 57.059143 26.128344
-13.40639 57.041393 25.647621
-13.393252 57.03558 25.17902
-13.372361 56.973904 24.22809
-13.359437 56.970242 23.775118
-13.434811 57.054482 22.052872
-13.412541 57.023064 21.177568
-13.400029 57.023075 20.753132
-13.390733 56.991592 20.317678
-13.378395 56.991947 19.900454
-13.36657 56.988094 19.484585
-13.355257 56.980057 19.070116
-13.342613 56.98624 18.664747
-13.331381 56.979191 18.25679
-16.043877 56.821995 41.23328
-15.953793 56.769863 37.920006
-15.902597 56.755753 36.071827
-15.770829 56.858498 31.626654
-15.698224 56.84346 29.016504
-16.096375 56.772686 39.227802
-16.060877 56.766479 37.9482
-16.043852 56.754955 37.316029
-16.026033 56.773098 36.719662
-16.009836 56.753536 36.099617
-15.835011 56.846455 30.064178
-15.807787 56.812683 29.020067
-15.780531 56.796589 28.012997
-15.766619 56.80098 27.526199
-15.753091 56.799919 27.04129
-15.735525 56.895531 26.621237
-15.72233 56.892761 26.144552
-15.699355 56.819607 25.166851
-15.685755 56.835613 24.716276
-15.671704 56.86425 24.276901
-15.659952 56.844418 23.814789
-15.648561 56.819565 23.3547
-15.633875 56.869392 22.938416
-15.573173 56.874546 20.783966
-15.551955 56.82724 19.924772
-15.527109 56.863228 19.116102
-16.184484 56.750374 38.598789
-16.132698 56.746849 36.728649
-16.115807 56.750271 36.128201
-16.099419 56.746262 35.530323
-16.082994 56.750259 34.947865
-15.82243 56.776657 25.629259
-15.746474 56.786362 22.916824
-15.708344 56.829479 21.634808
-15.697021 56.817017 21.201426
-15.651462 56.795444 19.517389
-15.639532 56.80687 19.11195
-15.626587 56.841908 18.719177
-15.614744 56.854622 18.319536
-15.602722 56.872684 17.924616
-15.58341 56.813141 17.105801
-15.5283 56.835247 15.168958
-15.516889 56.851372 14.791917
-16.17135 56.735321 34.376034
-16.424564 56.762653 39.934891
-16.339117 56.750259 36.757957
-16.555128 56.750328 40.591297
-16.519785 56.742455 39.265736
-16.485146 56.752499 37.99926
-16.452583 56.723095 36.737267
-16.435814 56.741966 36.149834
-16.558695 56.713306 36.130939
-16.526949 56.706139 34.944332
-16.715818 56.69915 37.342087
-16.682802 56.699112 36.125648
-16.634966 56.704571 34.372009
-16.909018 56.74921 39.939751
-16.74465 56.692261 33.791653
-16.96435 56.689896 37.326115
-16.947325 56.723736 36.742966
-16.915199 56.708878 35.531452
-17.163113 56.732403 40.579426
-16.997692 56.676559 34.33931
-16.967422 56.672997 33.20612
-17.320639 56.727596 41.943478
-17.266319 56.697716 39.886391
-17.231625 56.679958 38.574074
-17.214478 56.699265 37.959358
-17.197966 56.673508 37.313877
-17.181602 56.662121 36.691315
-17.449099 56.708561 41.926548
-17.430397 56.726425 41.256615
-17.412098 56.7141 40.568527
-17.394125 56.70005 39.890549
-17.376467 56.684513 39.222591
-17.359049 56.682426 38.578114
-17.341837 56.694382 37.956631
-17.32505 56.676105 37.317795
-17.292112 56.6684 36.094978
-17.276068 56.656929 35.490913
-17.2139 56.654457 33.196072
-17.556911 56.734272 41.254875
-17.450409 56.691235 37.322353
-17.384947 56.653194 34.893692
-17.467941 56.733521 29.500591
-17.454002 56.73032 28.991217
-17.4403 56.704609 28.472919
-17.426619 56.723148 27.989889
-17.413263 56.694172 27.481606
-17.399923 56.701714 27.002371
-17.386824 56.686886 26.51446
-17.373777 56.692265 26.044199
-17.360935 56.683861 25.570616
-17.348259 56.670219 25.099001
-17.335751 56.651379 24.629414
-17.286402 56.6665 22.846537
-17.460436 56.738197 25.1478
-17.447844 56.719826 24.67753
-17.435345 56.713757 24.219065
-17.422991 56.702721 23.762424
-17.410744 56.695564 23.312372
-17.39856 56.701305 22.873363
-17.386587 56.684612 22.426754
-17.374666 56.681038 21.990974
-17.36297 56.654926 21.548002
-17.461823 56.731068 21.168451
-17.450216 56.714268 20.736927
-17.438635 56.720242 20.319643
-17.427122 56.731091 19.907757
-17.415787 56.719452 19.489054
-17.404644 56.685146 19.064056
-17.393322 56.711067 18.6679
-17.382362 56.677517 18.249989
-17.371229 56.69548 17.856028
-17.360287 56.690933 17.455774
-17.349552 56.663712 17.049751
-17.338701 56.669987 16.65913
-19.884134 56.526161 37.467743
-20.067165 56.532169 40.730247
-19.946394 56.490532 36.235447
-19.931309 56.504444 35.649658
-19.869207 56.488663 33.3311
-20.143652 56.528465 40.073246
-20.056757 56.485569 36.851276
-20.042391 56.514561 36.269444
-20.008154 56.466732 35.042103
-19.993645 56.481625 34.47406
-19.978054 56.474052 33.895782
-19.963173 56.475124 33.332497
-19.815544 56.560886 27.642099
-19.80228 56.553871 27.150885
-19.790211 56.566814 26.677513
-19.777105 56.557446 26.195478
-19.752258 56.557159 25.257729
-19.73963 56.549305 24.791616
-19.725981 56.518913 24.317663
-19.713531 56.509575 23.860384
-19.703611 56.548103 23.433317
-19.693558 56.582211 23.007246
-19.633457 56.524437 20.81671
-19.602015 56.561157 19.579437
-19.592167 56.583439 19.177294
-20.163876 56.47691 37.465313
-20.148466 56.490791 36.861309
-20.132372 56.489609 36.253269
-20.052874 56.441708 33.310806
-20.040171 56.475311 32.780712
-20.024027 56.447025 32.210121
-20.010017 56.451851 31.672253
-19.995821 56.450321 31.136614
-19.967354 56.436527 30.07806
-19.782631 56.510204 22.971542
-19.769789 56.486313 22.519632
-19.76096 56.537876 22.110161
-19.74831 56.51363 21.666048
-19.73691 56.511665 21.236895
-19.726755 56.53236 20.822046
-19.71372 56.494396 20.383238
-19.703308 56.506474 19.971117
-19.694593 56.550972 19.576256
-19.682556 56.527344 19.154419
-19.673128 56.554676 18.757481
-19.663574 56.578114 18.36137
-19.652081 56.560543 17.95134
-19.640018 56.529541 17.539249
-19.62006 56.548843 16.754894
-19.61125 56.58099 16.374332
-19.590576 56.57769 15.595692
-19.570337 56.578423 14.827629
-19.550087 56.574078 14.066555
-20.207346 56.461903 35.639946
-20.159971 56.437317 33.87862
-20.088289 56.447144 31.140989
-20.05986 56.433475 30.082293
-19.850353 56.464359 22.077177
-19.772619 56.461258 19.129242
-19.753811 56.511631 18.337156
-19.720818 56.483418 17.127361
-19.710354 56.481636 16.73263
-19.6696 56.483559 15.181507
-19.660385 56.500881 14.804796
-19.640654 56.50576 14.047761
-19.630146 56.493244 13.667837
-20.223413 56.434048 32.768814
-20.152697 56.427719 30.089901
-20.314701 56.418377 32.772575
-20.272451 56.425755 31.152506
-20.666246 56.372551 42.733189
-20.422049 56.424801 33.348198
-20.349922 56.411758 30.627243
-20.52944 56.420158 33.915257
-20.853292 56.355125 42.723259
-20.548828 56.39238 31.145012
-20.536037 56.409103 30.629028
-20.685831 56.392879 32.770283
-20.642529 56.392345 31.143902
-20.600861 56.391823 29.578871
-20.781023 56.419228 32.800339
-20.748871 56.380566 31.679258
-20.721584 56.396065 30.627359
-20.88303 56.384396 33.347027
-20.823458 56.371174 31.1532
-20.769022 56.386517 29.089378
-20.951227 56.38073 32.799576
-20.89315 56.374081 30.638531
-21.078787 56.393818 34.51556
-21.131668 56.38377 33.378494
-21.070812 56.347805 31.16555
-21.016537 56.355602 29.095522
-21.157251 56.341022 31.173033
-21.143303 56.341984 30.645031
-21.103544 56.357471 29.108341
-21.453157 56.414928 38.840969
-21.336447 56.380333 34.544624
-21.20425 56.358875 29.632725
-21.553827 56.418686 39.510124
-21.535404 56.406464 38.849712
-21.518557 56.407917 38.212551
-21.486897 56.424171 36.979675
-21.467913 56.394337 36.344372
-21.434168 56.371967 35.134594
-21.402895 56.366348 33.973751
-21.386621 56.35294 33.397209
-21.357834 56.360691 32.294594
-21.327467 56.342255 31.201422
-21.271582 56.335258 29.118736
-21.547895 56.409801 36.37178
-21.532759 56.417858 35.778145
-21.516443 56.410957 35.180622
-21.500395 56.404411 34.59214
-21.485346 56.4062 34.018826
-21.466232 56.361912 33.417076
-21.454679 56.396866 32.885815
-21.437616 56.370068 32.314045
-21.423061 56.368294 31.769018
-21.405903 56.335953 31.208637
-21.392014 56.33733 30.680283
-21.379953 56.356956 30.171434
-21.350283 56.329315 29.12566
-21.338602 56.347832 28.634104
-21.502331 56.378262 31.787695
-21.955679 56.298542 42.864639
-21.501852 56.438316 25.33707
-21.463724 56.420658 23.95048
-21.451414 56.416473 23.498333
-21.43716 56.389824 23.038651
-21.427429 56.41135 22.608503
-21.414146 56.39283 22.161623
-21.402977 56.396374 21.729891
-21.390688 56.386459 21.295305
-21.377279 56.363003 20.858149
-21.366819 56.371159 20.439596
-21.342567 56.347363 19.594379
-21.331226 56.342712 19.180099
-21.322042 56.361446 18.778824
-21.310947 56.357773 18.370979
-21.299572 56.350025 17.964485
-21.291183 56.375381 17.573841
-21.279257 56.359684 17.16984
-21.559868 56.433727 24.416481
-21.547018 56.425808 23.9576
-21.533823 56.412933 23.500578
-21.46674 56.440811 20.898245
-21.45459 56.431244 20.470547
-21.441301 56.408184 20.040367
-21.433531 56.444504 19.640135
-21.422136 56.440273 19.224895
-21.410446 56.43185 18.811083
-21.3993 56.428478 18.402514
-21.388697 56.430283 17.998989
-21.376143 56.409523 17.589458
-21.364973 56.403305 17.188583
-21.351854 56.374443 16.78211
-21.340965 56.369671 16.387415
-21.328133 56.342243 15.98736
-21.320042 56.367493 15.608118
-21.29888 56.359818 14.836356
-21.287487 56.345688 14.450646
-22.114342 56.255371 42.83622
-21.395987 56.453331 15.250035
-21.380573 56.395714 14.84711
-21.374271 56.438789 14.478717
-21.361731 56.411697 14.09045
-21.352335 56.41914 13.714766
-22.617575 56.223534 42.818588
-23.338446 56.19363 42.266731
-23.387812 56.162537 42.271046
-23.443674 56.16518 42.311707
-23.497618 56.148827 42.328976
-23.968529 56.117409 43.095348
-23.953594 56.144043 42.411785
-23.847059 56.240993 35.403488
-23.929323 56.234009 35.999268
-23.820553 56.234314 31.996893
-24.149593 56.104889 42.391991
-23.959244 56.226238 34.82222
-23.987337 56.221012 33.680843
-23.969448 56.203964 33.103779
-23.959097 56.235119 32.571751
-23.937178 56.188721 31.987835
-23.911413 56.211349 30.928759
-23.853481 56.200031 28.847807
-24.034092 56.229759 33.133953
-24.014227 56.198158 32.553249
-23.987785 56.217735 31.477537
-23.966686 56.17395 30.910885
-23.935596 56.155575 29.849384
-23.687908 56.259899 20.160517
-24.316669 56.134277 41.77
-24.027777 56.159069 30.911997
-24.015743 56.173203 30.39447
-24.000484 56.16515 29.867556
-23.98572 56.159199 29.348593
-23.970219 56.147297 28.831892
-23.956503 56.146042 28.328455
-23.944603 56.155754 27.83791
-23.933289 56.168377 27.354551
-23.819592 56.244328 22.751007
-23.782745 56.233757 21.434429
-23.761951 56.248966 20.585886
-23.739 56.24699 19.742828
-23.728716 56.253262 19.329365
-23.685099 56.255825 17.695736
-24.378424 56.108826 41.76664
-24.362635 56.125427 41.0952
-24.286337 56.091911 38.424919
-24.062893 56.140064 29.865517
-24.048145 56.134125 29.346624
-24.012197 56.164009 27.85775
-23.99711 56.15173 27.358196
-23.985168 56.159081 26.876612
-23.956699 56.140903 25.908783
-23.774326 56.185024 18.897671
-23.76705 56.210415 18.498573
-23.757923 56.222736 18.096638
-23.742897 56.194229 17.681311
-23.73546 56.217113 17.288914
-23.726183 56.226948 16.893875
-23.716415 56.232979 16.499844
-23.704805 56.225876 16.103571
-23.698143 56.252449 15.721354
-23.684214 56.228424 15.324158
-23.672523 56.219421 14.934519
-23.663088 56.225616 14.551975
-23.65728 56.256672 14.178931
-23.646925 56.255779 13.797951
-24.441908 56.085453 41.760769
-24.42732 56.109116 41.096363
-24.101583 56.131428 28.847775
-24.023232 56.134109 25.91503
-23.997324 56.129158 24.975222
-23.795639 56.165359 17.27593
-23.773891 56.162399 16.48078
-23.752909 56.16283 15.696872
-23.743065 56.166817 15.309696
-23.723326 56.173252 14.541298
-23.713438 56.175785 14.159978
-23.704466 56.18425 13.782369
-24.515766 56.114479 41.800526
-24.497744 56.117256 41.114841
-24.459459 56.103607 39.759537
-24.117292 56.130394 26.875336
-24.090111 56.120777 25.912609
-23.808558 56.143913 15.304153
-24.580904 56.082432 41.774448
-24.5448 56.085846 40.413399
-24.25345 56.12611 29.362837
-24.224228 56.113361 28.342262
-24.145481 56.108662 25.436804
-24.693882 56.094276 43.206593
-24.671099 56.073334 42.472298
-24.654161 56.084827 41.783737
-24.579556 56.071686 39.087021
-24.527771 56.068573 37.183456
-24.308857 56.110271 28.846725
-24.242144 56.107841 26.385874
-24.230139 56.113083 25.913105
-24.730291 56.09993 41.80827
-24.65303 56.073181 39.097
-24.636372 56.07777 38.457333
-24.337885 56.093575 27.349001
-24.287064 56.099831 25.438597
-24.797462 56.066589 41.782898
-24.782862 56.090446 41.118111
-24.724724 56.06802 39.099495
-24.422401 56.092968 27.844368
-24.915592 56.106884 43.242661
-24.874208 56.09108 41.811935
-24.816919 56.080555 39.770035
-24.793766 56.04998 39.086643
-24.644436 56.13866 33.138252
-24.957703 56.050549 42.471073
-24.942997 56.076035 41.796383
-24.865881 56.056065 39.091671
-24.535921 56.091209 26.864313
-25.028236 56.056526 42.476864
-25.012241 56.075024 41.795021
-24.720148 56.120655 30.938042
-24.613983 56.073826 27.337866
-25.062035 56.07967 41.118885
-24.984512 56.054447 38.452858
-24.738922 56.092869 29.35705
-24.640707 56.07555 25.898848
-24.627689 56.075603 25.42758
-25.146069 56.083477 41.824886
-25.066946 56.057293 39.111919
-25.19895 56.055855 41.809994
-25.137001 56.023743 39.747055
-25.122524 56.043713 39.111069
-25.068203 56.033916 37.199215
-24.801371 56.066959 27.353069
-25.253283 56.057629 41.822311
-25.230993 56.03941 41.115139
-24.976336 56.10321 31.491692
-24.899342 56.073864 28.858065
-24.856318 56.062717 27.356611
-25.308485 56.064392 41.843727
-25.288862 56.060505 41.150284
-24.91037 56.057266 27.362246
-24.899801 56.073196 26.88516
-25.358391 56.039406 41.840652
-25.341413 56.049667 41.161186
-25.356073 56.047485 39.83662
-25.045271 56.059277 28.384771
-25.034986 56.077988 27.898369
-24.965534 56.057781 25.473116
-25.400595 56.04401 39.856083
-25.038397 56.052387 26.4347
-25.096439 56.05125 26.931147
-25.082487 56.045593 26.445026
-25.05518 56.035301 25.488983
-25.263855 56.06311 29.467756
-25.246069 56.036854 26.965862
-25.493004 56.09264 33.848812
-25.476397 56.085392 33.275856
-25.43207 56.086357 31.6201
-25.368458 56.049427 29.48263
-25.363436 56.096447 29.002836
-25.339277 56.039448 28.458715
-25.317232 56.064697 27.480984
-25.30262 56.056694 26.986975
-25.273932 56.041222 26.015568
-25.514717 56.097084 32.73571
-25.495987 56.076511 32.167686
-25.488163 56.112675 31.649607
-25.47188 56.103027 31.104086
-25.454594 56.087029 30.561037
-25.437826 56.072803 30.026218
-25.42313 56.06868 29.505096
-25.412079 56.083168 29.002848
-25.393995 56.05912 28.480602
-25.378056 56.045673 27.971668
-25.36894 56.068119 27.491638
-25.349678 56.035114 26.981737
-25.338861 56.046856 26.50544
-25.324093 56.036507 26.020676
-25.313189 56.046352 25.553066
-25.298338 56.034088 25.077248
-25.287409 56.042427 24.61809
-25.260044 56.027168 23.695313
-25.552256 56.108482 32.206333
-25.4736 56.069878 29.51915
-25.461065 56.076324 29.011215
-25.449162 56.085293 28.510769
-25.436361 56.088684 28.01226
-25.403421 56.053761 27.005548
-25.391098 56.057308 26.523781
-25.374786 56.038685 26.033691
-25.365507 56.057163 25.570953
-25.350683 56.045074 25.094908
-25.338213 56.044998 24.63065
-25.323357 56.03133 24.163389
-25.309301 56.02132 23.702845
-25.273766 56.023563 22.364206
-25.500021 56.076439 28.521677
-25.377432 56.040867 24.183208
-25.363382 56.031063 23.722433
-25.571007 56.08353 29.047783
-25.972725 55.947159 42.698631
-25.370062 56.101318 19.430832
-25.334538 56.090298 18.188179
-25.428427 56.116428 19.438366
-25.419495 56.129036 19.027687
-25.4065 56.119408 18.610592
-25.380171 56.096924 17.784534
-25.368555 56.093384 17.379023
-25.35458 56.076668 16.971352
-25.320749 56.067963 15.779854
-25.309355 56.063698 15.387161
-25.299063 56.065083 14.998652
-25.282991 56.034618 14.602304
-25.274921 56.047478 14.221849
-25.262806 56.037926 13.836579
-25.253548 56.043716 13.457832
-25.485897 56.122429 19.441643
-25.42046 56.129044 16.990896
-25.409237 56.127052 16.590878
-25.386593 56.120869 15.797676
-25.376915 56.126114 15.407522
-25.359686 56.090206 15.006212
-25.353964 56.116203 14.62724
-25.337223 56.082184 14.231614
-25.323339 56.063286 13.843143
-25.317551 56.088085 13.46946
-26.141785 55.939281 42.717682
-25.462505 56.113308 16.590475
-27.49571 55.93441 42.237507
-27.60182 55.889431 42.219574
-27.651756 55.873833 42.232738
-27.716553 55.903347 42.283337
-27.771915 55.892262 42.290638
-27.824724 55.885128 42.308754
-27.876875 55.865967 42.310284
-27.9296 55.82629 42.289047
-27.987701 55.796574 42.285027
-28.056793 55.805695 42.311157
-28.094961 55.835316 40.973202
-28.183937 55.774712 42.344044
-28.139114 55.823521 40.32766
-28.202799 55.830791 40.371326
-28.181995 55.821205 39.695545
-28.149563 55.834709 38.406712
-28.132603 55.836884 37.773094
-28.089891 55.8032 36.501499
-27.989376 55.911213 31.959471
-27.945459 55.913551 30.346052
-27.932802 55.920891 29.825937
-27.88525 55.899975 28.272964
-28.314758 55.772045 42.389503
-28.304853 55.808788 41.725845
-28.291323 55.830261 41.057796
-28.277769 55.850479 40.3993
-28.249645 55.812595 39.69614
-28.239769 55.844894 39.070385
-28.215281 55.818844 38.400543
-28.190826 55.79174 37.740646
-28.179541 55.815338 37.136124
-28.164774 55.824265 36.527531
-28.144617 55.810932 35.908787
-27.983826 55.90572 29.30175
-27.964552 55.885155 28.774954
-27.950064 55.883198 28.266815
-27.940453 55.900311 27.776735
-27.927628 55.903851 27.283165
-27.913626 55.902027 26.791546
-27.898458 55.894875 26.301935
-27.868805 55.881607 25.338842
-28.387074 55.838264 41.770874
-28.354586 55.859524 40.422958
-28.333708 55.850399 39.746609
-28.06813 55.892838 29.821758
-28.052084 55.886269 29.298126
-28.020199 55.871918 28.268579
-28.012611 55.897282 27.783737
-27.995636 55.884369 27.279549
-27.979507 55.874226 26.782768
-27.968407 55.883736 26.303408
-27.938631 55.870548 25.340168
-27.926233 55.873192 24.871283
-27.919054 55.896477 24.418524
-27.904501 55.889389 23.953012
-27.747677 55.936073 17.911629
-27.716282 55.946117 16.696346
-28.451118 55.821407 41.794827
-28.42502 55.794483 41.077957
-28.413406 55.822037 40.42617
-28.383369 55.777393 39.716045
-28.371777 55.802753 39.083462
-28.356585 55.813156 38.446735
-28.33213 55.786568 37.786442
-28.317217 55.795921 37.168514
-28.294924 55.775574 36.533901
-28.286228 55.807194 35.953388
-28.05827 55.857349 27.289543
-27.999428 55.835598 25.345215
-27.989204 55.846806 24.881264
-27.96126 55.837547 23.94887
-27.949919 55.842789 23.49473
-27.941809 55.860622 23.051321
-27.93054 55.865265 22.604795
-27.916101 55.856632 22.155436
-27.900639 55.843388 21.707844
-27.877525 55.847336 20.838961
-27.735924 55.919083 15.114906
-27.722672 55.909092 14.719902
-27.71534 55.923359 14.334678
-27.702707 55.915428 13.944654
-27.698284 55.941353 13.566498
-28.506987 55.786053 41.781834
-28.479073 55.752037 41.058193
-28.462008 55.758228 40.386101
-28.435314 55.795769 39.097778
-28.414597 55.784584 38.44101
-28.399626 55.794456 37.813637
-28.360725 55.77655 36.554123
-28.34833 55.793419 35.960663
-28.312946 55.783325 34.76231
-28.295794 55.779003 34.176498
-28.080473 55.840603 25.836674
-28.022896 55.816742 23.949734
-28.011616 55.821999 23.495592
-27.971481 55.809738 22.143099
-27.960375 55.813908 21.70438
-27.948269 55.813648 21.26716
-27.925478 55.817673 20.405575
-27.912632 55.813248 19.976976
-28.584595 55.810413 41.804173
-28.56399 55.804565 41.107796
-28.545109 55.804054 40.428307
-28.529913 55.81641 39.772182
-28.507236 55.79911 39.098747
-28.495914 55.824078 38.475029
-28.477161 55.819603 37.834057
-28.456636 55.807278 37.196022
-28.440132 55.809364 36.580326
-28.404053 55.798832 35.363483
-28.209667 55.860065 27.79813
-28.178764 55.845661 26.801872
-28.136065 55.83416 25.353426
-28.119505 55.820007 24.874592
-28.095854 55.827763 23.951458
-28.052261 55.80349 22.579836
-28.023243 55.833511 21.271729
-27.983114 55.815437 19.972595
-27.958902 55.811703 19.127371
-28.669659 55.757565 42.473309
-28.661974 55.80201 41.815792
-28.646849 55.817314 41.139969
-28.631666 55.831242 40.473816
-28.603304 55.794174 39.769897
-28.589964 55.812794 39.129967
-28.571024 55.809116 38.479385
-28.550262 55.797428 37.831779
-28.535406 55.807167 37.213261
-28.513027 55.787231 36.57806
-28.194941 55.815166 24.88209
-28.15333 55.802689 23.490242
-28.100475 55.838188 21.282238
-28.080654 55.807232 20.833542
-28.055725 55.8027 19.974396
-28.719543 55.736927 41.788471
-28.671995 55.771404 39.784122
-28.652971 55.768707 39.124027
-28.633989 55.765072 38.473576
-28.618959 55.775291 37.845814
-28.577803 55.75071 36.579079
-28.549355 55.770439 35.387589
-28.518417 55.777157 34.21862
-28.481186 55.756405 33.059933
-28.174744 55.795208 21.718847
-28.798376 55.775959 41.838531
-28.770182 55.742538 41.114277
-28.762562 55.784542 40.475693
-28.739796 55.76894 39.792068
-28.720806 55.766293 39.13184
-28.701857 55.762707 38.481258
-28.692698 55.79483 37.873074
-28.672089 55.782959 37.234646
-28.649683 55.76329 36.599243
-28.629444 55.750778 35.979698
-28.62138 55.783325 35.407211
-28.567732 55.764381 33.64151
-28.882893 55.761822 42.526585
-28.87179 55.792801 41.854591
-28.858732 55.815418 41.185211
-28.830406 55.780338 40.470764
-28.81147 55.778854 39.800606
-28.760654 55.790192 37.867882
-28.725533 55.788036 36.619667
-28.707329 55.783096 36.006161
-28.47855 55.831963 27.323467
-28.426178 55.836884 25.390652
-28.379362 55.805984 23.972288
-28.337818 55.791126 22.603521
-28.327747 55.799973 22.162561
-28.314392 55.795631 21.718744
-28.254812 55.79612 19.564623
-28.242195 55.792374 19.142153
-28.947649 55.715103 42.507336
-28.93652 55.745968 41.835529
-28.929129 55.789452 41.187016
-28.910278 55.789719 40.506702
-28.88558 55.767273 39.815933
-28.872435 55.78632 39.17548
-28.847687 55.761425 38.504482
-28.808174 55.745358 37.224697
-28.791639 55.747791 36.608608
-28.779364 55.765148 36.014339
-28.759401 55.75296 35.403564
-28.745813 55.763668 34.82061
-28.711781 55.756912 33.655952
-28.478992 55.798923 24.912895
-28.42281 55.779675 23.061369
-28.388119 55.789249 21.72921
-29.030731 55.722248 42.544277
-29.017685 55.746563 41.865208
-28.9988 55.748425 41.175102
-28.975941 55.734577 40.481266
-28.952965 55.719112 39.79752
-28.93969 55.738075 39.157265
-28.920631 55.734776 38.506363
-28.849827 55.731415 36.009865
-28.833763 55.734264 35.411766
-28.769413 55.736698 33.094532
-29.110975 55.740784 42.570873
-29.09222 55.744507 41.870636
-29.071363 55.739403 41.173519
-29.044542 55.711433 40.465973
-29.042933 55.773968 39.85667
-29.023849 55.771923 39.195679
-29.006783 55.776154 38.550957
-28.987839 55.772499 37.909077
-28.967031 55.761005 37.27013
-28.952431 55.771267 36.659946
-28.921919 55.722141 36.007774
-28.898249 55.758415 34.845215
-28.687307 55.812901 26.857313
-28.521107 55.772675 21.297384
-28.47784 55.791935 19.587444
-29.173012 55.792999 41.938698
-29.131649 55.782188 40.553238
-29.116684 55.795715 39.895771
-29.091871 55.772514 39.214294
-29.074966 55.77689 38.569374
-29.035503 55.762035 37.288151
-29.017021 55.757668 36.664898
-28.99674 55.745781 36.044491
-28.640295 55.766907 23.080641
-28.631351 55.780594 22.637573
-28.616745 55.77243 22.187128
-28.605637 55.777111 21.747076
-28.519642 55.768158 18.745007
-29.219593 55.704121 41.879639
-29.208673 55.734035 41.2169
-29.165102 55.712578 39.845181
-29.148165 55.717621 39.19101
-29.129288 55.714622 38.539715
-29.10848 55.703636 37.891396
-29.047464 55.73053 35.455704
-29.025764 55.711578 34.84721
-28.671679 55.75272 21.750532
-28.659552 55.753025 21.311977
-29.307817 55.728996 41.911373
-29.287067 55.724262 41.213814
-29.268135 55.724838 40.533123
-29.243168 55.70274 39.841984
-29.230099 55.722057 39.201141
-29.213112 55.726353 38.556286
-29.192186 55.715504 37.907711
-29.156868 55.714302 36.658447
-29.140589 55.71727 36.050777
-29.128767 55.735447 35.464664
-29.104845 55.709042 34.849743
-29.079065 55.733543 33.708504
-28.750591 55.759449 21.753614
-29.403429 55.703838 42.592079
-29.402288 55.769997 41.954006
-29.387381 55.78653 41.276604
-29.36643 55.780575 40.588398
-29.341377 55.758923 39.896629
-29.328304 55.778675 39.255142
-29.301157 55.74736 38.5765
-29.284185 55.751198 37.940731
-29.265326 55.747318 37.307762
-29.238403 55.713638 36.658398
-29.203817 55.712299 35.445457
-29.157869 55.725166 33.701694
-28.87879 55.755394 23.542824
-28.852608 55.753082 22.636217
-28.842489 55.762333 22.194244
-28.82659 55.749702 21.745104
-28.811928 55.741257 21.30201
-28.80089 55.745914 20.868921
-28.791162 55.755096 20.441336
-28.780397 55.760071 20.015066
-28.770985 55.769753 19.594069
-28.758177 55.766418 19.170481
-29.477264 55.758209 41.967964
-29.44648 55.719101 41.235355
-29.4314 55.733944 40.567997
-29.414282 55.740543 39.903454
-29.391088 55.724644 39.228432
-29.378065 55.743599 38.596451
-29.359051 55.740383 37.953922
-29.338108 55.729343 37.314327
-29.317329 55.717896 36.684189
-29.303028 55.728535 36.082481
-29.284864 55.724552 35.477009
-29.264931 55.713367 34.874283
-28.914692 55.746738 22.198727
-28.903469 55.751602 21.758127
-28.863276 55.739769 20.445505
-28.852503 55.744808 20.019157
-28.827854 55.742355 19.170582
-29.560799 55.779144 42.018673
-29.536043 55.761452 41.306278
-29.513081 55.748821 40.610996
-29.487959 55.727482 39.919037
-29.474958 55.747498 39.277355
-29.44771 55.716496 38.598518
-29.422506 55.691574 37.936298
-29.409815 55.709686 37.322891
-29.35239 55.690296 35.472775
-29.345173 55.724304 34.907486
-29.287889 55.69511 33.151718
-29.276258 55.710381 32.6017
-29.241758 55.698654 31.490803
-29.624327 55.660351 42.614002
-29.578793 55.773056 39.971596
-29.457611 55.727493 36.114475
-28.943897 55.733521 17.931194
-29.704081 55.661022 42.628265
-29.396858 55.803535 30.505331
-29.379847 55.796547 29.971226
-29.183207 55.740322 23.571611
-29.161741 55.755909 22.672541
-29.142094 55.730885 22.212166
-29.126068 55.71851 21.762484
-29.113718 55.719044 21.323069
-29.109934 55.750271 20.901793
-29.067953 55.730755 19.604763
-29.046053 55.73819 18.765568
-29.033564 55.735825 18.347935
-29.206089 55.716892 21.77916
-29.388321 55.75293 25.009964
-29.271721 55.707981 21.350361
-29.21307 55.718006 19.205999
-29.469481 55.762821 25.02574
-29.451101 55.745361 24.545887
-29.450703 55.790794 24.105732
-29.429815 55.763573 23.62957
-29.396397 55.737232 22.706318
-29.380171 55.770115 21.829618
-29.362993 55.753857 21.380566
-29.344654 55.733055 20.933369
-29.332573 55.734123 20.500284
-29.314434 55.713261 20.060692
-29.270819 55.729607 18.37981
-29.530779 55.79187 24.116312
-29.44318 55.804455 15.185732
-30.334949 55.677277 42.167225
-30.429867 55.711452 42.228443
-30.587126 55.680317 42.228157
-30.647594 55.63858 42.230324
-30.726679 55.667374 42.3008
-30.780712 55.623402 42.278126
-30.851912 55.568905 42.962406
-30.847572 55.617466 42.300095
-30.900747 55.568283 42.296761
-30.977488 55.604443 42.374424
-31.031872 55.576801 42.378098
-31.149719 55.548229 42.427704
-31.523197 55.505592 42.59684
-32.183075 55.531681 42.091507
-32.12923 55.48542 40.662872
-32.104794 55.571014 38.750896
-32.051613 55.567234 36.842884
-32.035976 55.570534 36.229488
-32.232197 55.463707 41.347504
-32.220787 55.484604 40.682461
-32.224075 55.546558 40.067009
-32.207752 55.551888 39.407051
-32.191429 55.556427 38.756569
-32.151478 55.542282 37.464302
-32.143127 55.56739 36.860897
-32.114685 55.534176 36.215744
-32.079067 55.526627 35.003403
-32.350975 55.48978 42.088985
-32.344723 55.526203 41.427376
-32.333492 55.547749 40.761501
-32.302406 55.512249 40.051483
-32.298443 55.552746 39.424736
-32.262066 55.500488 38.721485
-32.253242 55.525658 38.100128
-32.23196 55.51466 37.455482
-32.210812 55.503284 36.820255
-32.192429 55.499069 36.200634
-32.169178 55.480228 35.57761
-32.159218 55.498707 34.994595
-32.147156 55.510551 34.413891
-32.133003 55.515797 33.835571
-32.116772 55.514484 33.259712
-32.101143 55.514294 32.692272
-31.927366 55.58913 25.467182
-31.909788 55.576199 24.980499
-31.904913 55.599987 24.519403
-31.884222 55.577209 24.036577
-31.867058 55.601444 23.122246
-31.856312 55.606747 22.667343
-31.804995 55.600426 20.872087
-31.793106 55.60088 20.433352
-32.463726 55.522888 42.139763
-32.43539 55.497738 41.416191
-32.423985 55.519192 40.750317
-32.417488 55.553658 40.107235
-32.375988 55.488754 39.380428
-32.354332 55.478851 38.716892
-32.332684 55.468155 38.062992
-32.334091 55.52187 37.476479
-32.315361 55.517975 36.847286
-32.278774 55.462715 36.183208
-32.278671 55.510193 35.616299
-32.260838 55.506714 35.014263
-32.251312 55.526226 34.439304
-32.22649 55.501572 33.836494
-32.207439 55.49271 33.254551
-32.199661 55.515411 32.704685
-32.176498 55.493618 32.127823
-31.975143 55.563572 24.034773
-31.938156 55.567669 22.651918
-31.922897 55.559837 22.194365
-31.909128 55.55603 21.742821
-31.890993 55.539162 21.288795
-31.895077 55.586941 20.869205
-31.883066 55.587414 20.430313
-31.872675 55.592354 19.996819
-31.852011 55.566914 19.553207
-32.550579 55.471996 42.108414
-32.536697 55.487942 41.425961
-32.510208 55.467854 40.719364
-32.490967 55.467087 40.043026
-32.486752 55.507526 39.416142
-32.452259 55.462425 38.719357
-32.445698 55.494774 38.104294
-32.41885 55.469448 37.446545
-32.40242 55.472618 36.823925
-32.381054 55.461182 36.197754
-32.378273 55.501415 35.62434
-32.365517 55.512905 35.03442
-32.342655 55.49522 34.42868
-32.314899 55.463001 33.819866
-32.298279 55.461636 33.24395
-32.29034 55.48428 32.694084
-32.28315 55.508526 32.152073
-32.263172 55.495918 31.589098
-32.238453 55.469246 31.023077
-31.963331 55.537937 20.411848
-31.943798 55.516659 19.966793
-31.940876 55.543468 19.546556
-31.930662 55.548805 19.119761
-31.913116 55.532497 18.68693
-31.900295 55.529716 18.26293
-31.898317 55.558388 17.854317
-31.882967 55.547752 17.432789
-31.869394 55.542088 17.01606
-32.668831 55.477909 42.848866
-32.650303 55.482162 42.142422
-32.631462 55.484634 41.445953
-32.60738 55.47168 40.745865
-32.588097 55.471153 40.069206
-32.578861 55.497707 39.428741
-32.556969 55.488277 38.764565
-32.524807 55.449413 38.084049
-32.51585 55.474449 37.47142
-32.499393 55.477844 36.848465
-32.472744 55.452 36.209381
-32.459457 55.462845 35.61087
-32.441303 55.459389 35.008709
-32.43689 55.493847 34.445782
-32.409023 55.461815 33.836697
-32.405815 55.498497 33.290237
-32.357189 55.495361 31.604805
-31.993946 55.500217 18.679762
-31.984085 55.506237 18.259346
-31.979044 55.526039 17.847149
-31.957485 55.497612 17.418787
-31.938103 55.509079 16.596762
-31.928112 55.513638 16.189007
-31.923079 55.532463 15.788513
-31.907598 55.520622 15.379787
-31.894005 55.514088 14.975307
-32.739174 55.430218 42.834011
-32.725624 55.447994 42.141457
-32.711834 55.464222 41.458622
-32.70541 55.499928 40.805676
-32.676208 55.471951 40.101677
-32.667149 55.498772 39.460888
-32.635113 55.461227 38.770149
-32.623592 55.479683 38.141502
-32.604485 55.476357 37.502571
-32.580318 55.458229 36.860207
-32.564213 55.461773 36.246147
-32.551083 55.472927 35.647224
-32.535721 55.477207 35.050808
-32.518143 55.474655 34.45697
-32.503742 55.480354 33.877827
-32.481808 55.464363 33.289249
-32.479465 55.502636 32.7505
-32.453327 55.473671 32.167072
-32.436047 55.46896 31.60955
-32.425049 55.481358 31.071486
-32.403816 55.464443 30.518764
-32.111027 55.512077 19.553669
-32.094738 55.499992 19.119061
-32.08625 55.510117 18.697062
-32.05621 55.49197 17.84613
-32.033298 55.493462 17.014551
-32.006607 55.516388 15.793668
-31.991146 55.504604 15.384775
-31.969061 55.506115 14.582351
-31.956247 55.501457 14.182713
-32.835995 55.46093 42.905956
-32.822773 55.479313 42.212769
-32.799271 55.468655 41.502022
-32.793129 55.504715 40.848694
-32.76664 55.484116 40.150993
-32.739941 55.462063 39.463375
-32.736298 55.502632 38.844776
-32.696575 55.443058 38.143986
-32.682789 55.454178 37.517902
-32.677113 55.487015 36.919907
-32.650696 55.461823 36.280075
-32.624481 55.436455 35.649696
-32.619923 55.470421 35.077892
-32.602501 55.468109 34.483776
-32.593678 55.489075 33.916386
-32.577343 55.48856 33.339279
-32.561615 55.489155 32.770584
-32.541061 55.475719 32.198551
-32.529461 55.48671 31.652138
-32.14502 55.491879 17.862522
-32.129665 55.48138 17.440668
-32.092838 55.507969 15.805314
-32.077442 55.496296 15.396171
-32.063957 55.489918 14.991271
-32.052399 55.488937 14.590402
-32.916649 55.441132 42.917389
-32.908527 55.473228 42.237835
-32.875011 55.435322 41.499565
-32.868954 55.471348 40.846233
-32.862892 55.506596 40.202045
-32.826019 55.456841 39.487411
-32.794048 55.41959 38.79641
-32.790607 55.459702 38.18697
-32.769104 55.449585 37.541145
-32.742458 55.424576 36.892014
-32.73188 55.443016 36.290195
-32.721691 55.461903 35.697018
-32.711964 55.481434 35.112354
-32.686543 55.457035 34.499569
-32.66967 55.455593 33.913921
-32.650616 55.44751 33.330868
-32.645878 55.478489 32.785748
-32.611065 55.468609 31.661139
-32.542507 55.445393 29.491983
-32.52977 55.450623 28.973209
-32.227661 55.475796 17.867046
-32.218525 55.483093 17.451866
-32.205009 55.477665 17.034479
-32.199574 55.495144 16.628191
-32.153061 55.492229 15.000483
-32.128822 55.486847 14.199136
-32.990326 55.39045 42.889091
