# .PCD v0.7 - Point Cloud Data file format
VERSION 0.7
FIELDS x y z
SIZE 4 4 4
TYPE F F F
COUNT 1 1 1
WIDTH 1558
HEIGHT 1
VIEWPOINT 0 0 0 1 0 0 0
POINTS 1558
DATA ascii
-29.269943 56.360344 27.58423
-29.238371 56.386555 27.242357
-29.237799 56.374699 26.861694
-29.230848 56.370907 26.495945
-29.182638 56.326847 23.418476
-29.1679 56.334198 23.110382
-29.160625 56.332546 22.797567
-29.155714 56.328125 22.486015
-29.44228 56.395317 31.635027
-29.435345 56.388302 31.186167
-29.427999 56.382092 30.746552
-29.355873 56.358238 27.521412
-29.333942 56.372253 27.166527
-29.324278 56.371277 26.799635
-29.271633 56.317123 23.36054
-29.257141 56.32391 23.05286
-29.250101 56.321678 22.740471
-29.535519 56.371738 31.53949
-29.499271 56.401203 31.142323
-29.483595 56.405231 30.717367
-29.431593 56.355232 27.465761
-29.405329 56.374523 27.117855
-29.405392 56.361385 26.737999
-29.372723 56.292778 23.611332
-29.346092 56.314285 23.314873
-29.32675 56.326942 23.013325
-29.310295 56.325317 22.395966
-29.586689 56.376545 31.508595
-29.563637 56.389774 31.089628
-29.544146 56.398815 30.672195
-29.477062 56.369255 27.449511
-29.483782 56.347847 27.054884
-29.460789 56.363483 26.708519
-29.440943 56.280624 23.571081
-29.404512 56.314392 23.28673
-29.400787 56.308006 22.967737
-29.636456 56.368168 31.500757
-29.617973 56.376186 31.074547
-29.590183 56.396084 30.671696
-29.53886 56.350533 27.428759
-29.513178 56.36974 27.081015
-29.509102 56.362324 26.70796
-29.465811 56.311745 23.600464
-29.449703 56.320827 23.292048
-29.430794 56.333485 22.990547
-29.439835 56.311859 22.661079
-29.425539 56.319084 22.361885
-29.694151 56.361156 31.521914
-29.679926 56.364208 31.088352
-29.647863 56.389809 30.692753
-29.601004 56.34127 27.442543
-29.598713 56.331753 27.06144
-29.580715 56.341923 26.708534
-29.543255 56.286686 23.596216
-29.506989 56.320904 23.311737
-29.513603 56.302368 22.980877
-29.497082 56.312477 22.680622
-29.477602 56.326336 22.387077
-29.736307 56.381588 31.582909
-29.743069 56.358547 31.112486
-29.719517 56.373714 30.702364
-29.658403 56.344318 27.472862
-29.651287 56.340946 27.098303
-29.642517 56.339817 26.731983
-29.61412 56.27467 23.607018
-29.57279 56.315319 23.328575
-29.569122 56.309593 23.00943
-29.547346 56.326321 22.714838
-29.553553 56.30867 22.392479
-29.809055 56.366631 31.578884
-29.79026 56.375698 31.152397
-29.779398 56.37508 30.720312
-29.717489 56.347359 27.490309
-29.705618 56.349983 27.122366
-29.70142 56.343246 26.7493
-29.687292 56.261066 23.605677
-29.640963 56.308033 23.333336
-29.62709 56.31498 23.025995
-29.630896 56.30022 22.702356
-29.606207 56.320759 22.414631
-29.862774 56.375759 31.599318
-29.852421 56.374371 31.158102
-29.845861 56.368488 30.718769
-29.765835 56.364319 27.516247
-29.772484 56.343983 27.121376
-29.773018 56.331463 26.741755
-29.738798 56.36237 26.416365
-29.739449 56.274246 23.623365
-29.708256 56.302628 23.333075
-29.699518 56.303329 23.019938
-29.677765 56.320248 22.72543
-29.673624 56.315502 22.414583
-29.916048 56.382973 31.62113
-29.905607 56.381832 31.179796
-29.911839 56.360031 30.718596
-29.841337 56.345097 27.503067
-29.838778 56.336353 27.121756
-29.82996 56.335606 26.755436
-29.800449 56.360802 26.423435
-29.769842 56.302097 23.340124
-29.776361 56.284019 23.009369
-29.775196 56.275589 22.691875
-29.74552 56.302555 22.410175
-29.990788 56.364952 31.619503
-29.993063 56.347912 31.156355
-29.956495 56.379951 30.767962
-29.906651 56.339619 27.516184
-29.899349 56.336857 27.141558
-29.876348 56.353863 26.795048
-29.860794 56.36174 26.443127
-29.875381 56.2575 23.631464
-29.83918 56.292336 23.34729
-29.835482 56.286964 23.028349
-29.808632 56.310402 22.739805
-29.804443 56.305874 22.429029
-30.075579 56.340168 31.613081
-30.052357 56.355247 31.193995
-30.058359 56.333794 30.732889
-29.981916 56.327126 27.525145
-29.965231 56.336121 27.163973
-29.956112 56.335831 26.797527
-29.935791 56.349701 26.452312
-29.949551 56.246571 23.641132
-29.903225 56.29406 23.368961
-29.89937 56.288891 23.04995
-29.897932 56.280853 22.732306
-29.888617 56.282711 22.427551
-30.127056 56.353897 31.65564
-30.133226 56.332031 31.185093
-30.100754 56.359135 30.789494
-30.058441 56.310284 27.524679
-30.046392 56.31358 27.156946
-30.037306 56.313347 26.790699
-30.002905 56.34494 26.465393
-29.989742 56.265812 23.358202
-29.970747 56.279549 23.057125
-29.969267 56.271633 22.73955
-29.959917 56.273613 22.43487
-30.194498 56.345226 31.656519
-30.204903 56.318142 31.178701
-30.185331 56.329159 30.761448
-30.121489 56.308479 27.532928
-30.123316 56.294514 27.145096
-30.100327 56.311832 26.79895
-30.080051 56.325901 26.453949
-30.04756 56.271866 23.372396
-30.043715 56.266865 23.053591
-30.032091 56.271667 22.747789
-30.027863 56.267387 22.437365
-30.242754 56.367825 31.704042
-30.244392 56.351841 31.240566
-30.245792 56.336437 30.786579
-30.185301 56.312061 27.550301
-30.177763 56.309895 27.175806
-30.173258 56.304108 26.802921
-30.152969 56.318287 26.457994
-30.120203 56.26511 23.377039
-30.106218 56.272808 23.070086
-30.104689 56.265095 22.752575
-30.09531 56.267281 22.447969
-30.307533 56.372658 31.733583
-30.296267 56.373016 31.291967
-30.297293 56.358074 30.837673
-30.266123 56.296867 27.551516
-30.258532 56.2948 27.177149
-30.267931 56.271564 26.784466
-30.219576 56.321068 26.479343
-30.185387 56.269794 23.397762
-30.196512 56.246162 23.061266
-30.174675 56.263828 22.767338
-30.165194 56.266171 22.462736
-30.34429 56.247189 26.414227
-30.28318 56.230671 23.37578
-30.277798 56.218231 22.74037
-30.27359 56.214092 22.430511
-32.569538 56.150978 31.534763
-32.562775 56.146832 31.089106
-32.563782 56.132496 30.638079
-32.523415 56.173946 30.26915
-32.514927 56.172813 29.850662
-32.514034 56.16172 29.426828
-32.503952 56.163166 29.026237
-32.50135 56.1548 28.620306
-32.504402 56.116425 27.427633
-32.501499 56.109261 27.049725
-32.486675 56.107498 26.325703
-32.474434 56.1133 25.979176
-32.478504 56.097523 25.614475
-32.476227 56.090363 25.264469
-32.462749 56.098259 24.935184
-32.451729 56.103024 24.607134
-32.457245 56.085941 24.261639
-32.426064 56.053989 21.757215
-32.41864 56.055172 21.46583
-32.613827 56.160755 31.549864
-32.60725 56.15691 31.104084
-32.592186 56.164711 30.682243
-32.522682 56.233822 29.930132
-32.521603 56.223454 29.505625
-32.511341 56.225616 29.104355
-32.504295 56.223667 28.704762
-32.521931 56.188862 28.272099
-32.556126 56.132118 27.821165
-32.537262 56.146584 27.461964
-32.552029 56.116253 27.056646
-32.54784 56.111443 26.687099
-32.497238 56.168766 26.392262
-32.484852 56.175182 26.045074
-32.484211 56.16608 25.68622
-32.477161 56.165676 25.341923
-32.472721 56.161934 24.999075
-32.475536 56.148674 24.651417
-32.476303 56.138279 24.311682
-32.503273 56.09317 23.942677
-32.495037 56.095039 23.624832
-32.489132 56.093925 23.30826
-32.475887 56.102676 23.00493
-32.484257 56.08284 22.679098
-32.480366 56.079395 22.372416
-32.439293 56.125381 22.113052
-32.434601 56.123188 21.814108
-32.432034 56.118279 21.516388
-32.43158 56.110676 21.219933
-32.423126 56.113758 20.935703
-32.426796 56.100887 20.641737
-32.656322 56.164871 31.56851
-32.641888 56.17223 31.137383
-32.639114 56.164131 30.693316
-32.55294 56.213158 28.310629
-32.613144 56.122093 27.817968
-32.594551 56.136753 27.458828
-32.583134 56.141972 27.094198
-32.58342 56.131687 26.717615
-32.532921 56.18943 26.422523
-32.511581 56.208321 26.088226
-32.499435 56.196526 25.041016
-32.539379 56.11657 23.97102
-32.545479 56.099815 23.634581
-32.53973 56.098946 23.317936
-32.531471 56.101528 23.00857
-32.530304 56.094791 22.694521
-32.531418 56.085129 22.381866
-32.461006 56.170559 22.156961
-32.456276 56.168827 21.857512
-32.468616 56.144547 21.542452
-32.453171 56.157223 21.262316
-32.454773 56.147381 20.966642
-32.438164 56.161762 20.693871
-32.704636 56.181313 31.593618
-32.714325 56.156528 31.117983
-32.687466 56.181217 30.718065
-32.67453 56.123863 27.820707
-32.656071 56.138676 27.461565
-32.653572 56.132248 27.083387
-32.640732 56.139832 26.727057
-32.585884 56.203773 26.438547
-32.61142 56.107235 23.961384
-32.612919 56.096844 23.631184
-32.60252 56.102432 23.320641
-32.589546 56.111553 23.017241
-32.583584 56.111431 22.709015
-32.579842 56.108456 22.402044
-32.780861 56.172821 31.558283
-32.786808 56.153191 31.090273
-32.764263 56.172253 30.683195
-32.766148 56.095837 27.766861
-32.739357 56.122021 27.421825
-32.723961 56.13303 27.064281
-32.715736 56.134552 26.701366
-32.702171 56.08176 23.91877
-32.703957 56.071087 23.588985
-32.679516 56.095558 23.296961
-32.657116 56.11739 23.005693
-32.675499 56.084881 22.668064
-32.652527 56.107658 22.384811
-32.857948 56.163189 31.498009
-32.848312 56.164722 31.059891
-32.826073 56.18351 30.65291
-32.821232 56.116615 27.751261
-32.807709 56.125072 27.38571
-32.792618 56.135784 27.028343
-32.784687 56.137001 26.665619
-32.761108 56.089897 23.573368
-32.751167 56.095078 23.263231
-32.738651 56.103806 22.960232
-32.728291 56.109749 22.658314
-32.715202 56.119427 22.363331
-32.909283 56.18948 31.490932
-32.919846 56.163712 31.015863
-32.885845 56.198593 30.631056
-32.912769 56.089302 27.681641
-32.86491 56.144207 27.371191
-32.863163 56.137024 26.993528
-32.85994 56.131985 26.624296
-32.839016 56.081955 23.534468
-32.824589 56.093246 23.230625
-32.826729 56.082409 22.909966
-32.792538 56.120388 22.63788
-32.794228 56.110352 22.32552
-33.00658 56.148258 31.409811
-32.99366 56.154545 30.979588
-32.955948 56.194702 30.602316
-32.95871 56.118965 27.695532
-32.941345 56.132881 27.337107
-32.944248 56.119541 26.952944
-32.92807 56.132141 26.604116
-32.908779 56.080956 23.515493
-32.904064 56.079327 23.199739
-32.887245 56.09407 22.903168
-32.886997 56.086643 22.589897
-32.850117 56.128502 22.324518
-33.059242 56.157166 31.416843
-33.062443 56.141842 30.957058
-33.012913 56.198452 30.601908
-33.012329 56.129169 27.701996
-33.016785 56.113823 27.309391
-33.002445 56.124088 26.952517
-32.990818 56.13081 26.596992
-32.972897 56.07991 23.508957
-32.96357 56.084728 23.199293
-32.96125 56.0802 22.884865
-32.951553 56.085705 22.583565
-32.914852 56.127621 22.318253
-33.122082 56.151718 31.398466
-33.129547 56.130898 30.931423
-33.076328 56.192947 30.583752
-33.086132 56.111656 27.670923
-33.082218 56.107937 27.292215
-33.076878 56.1063 26.921947
-33.056744 56.124851 26.580065
-33.059685 56.048065 23.468866
-33.031677 56.078335 23.183697
-33.024773 56.080223 22.875355
-33.015251 56.085732 22.574123
-32.983601 56.121147 22.303061
-33.186111 56.154678 31.37557
-33.189823 56.139114 30.916025
-33.148949 56.184605 30.546442
-33.165169 56.095566 27.628473
-33.148575 56.109219 27.270538
-33.143448 56.10743 26.900398
-33.127949 56.119862 26.551943
-33.114082 56.066845 23.466919
-33.100441 56.077877 23.163612
-33.098507 56.073174 22.849463
-33.084393 56.085022 22.554312
-33.043255 56.133427 22.294985
-33.260147 56.162704 31.341616
-33.283951 56.119404 30.845415
-33.244873 56.094173 27.589319
-33.2458 56.083843 27.20437
-33.236637 56.08741 26.841496
-33.199432 56.129292 26.526913
-33.195889 56.060867 23.430965
-33.182423 56.071564 23.127928
-33.171093 56.079453 22.825947
-33.166702 56.078033 22.519184
-33.120937 56.132721 22.265909
-33.363834 56.14122 31.263054
-33.371998 56.118961 30.796869
-33.325687 56.101192 27.556992
-33.309406 56.114079 27.199484
-33.317631 56.093616 26.809555
-33.289352 56.123169 26.481775
-33.277718 56.063339 23.401056
-33.273819 56.060833 23.086205
-33.267414 56.061829 22.778629
-33.2584 56.066471 22.478159
-33.42804 56.16684 31.264317
-33.451988 56.12249 30.768635
-33.393391 56.119682 27.550858
-33.39003 56.114666 27.17292
-33.389599 56.105801 26.796682
-33.361355 56.135181 26.468956
-33.39312 56.022312 23.655796
-33.34024 56.086334 23.40102
-33.34573 56.070827 23.074091
-33.339329 56.071644 22.766584
-33.33511 56.069584 22.46032
-33.542793 56.106705 31.180046
-33.531395 56.111092 30.751329
-33.481873 56.095707 27.521282
-33.474339 56.096416 27.150473
-33.465305 56.099335 26.787981
-33.437126 56.128681 26.46039
-33.468994 56.015327 23.648287
-33.434975 56.053703 23.369358
-33.43116 56.050873 23.054855
-33.415344 56.064548 22.759504
-33.406364 56.068974 22.459246
-33.602413 56.105923 31.197075
-33.594997 56.105122 30.760935
-33.550125 56.085625 27.523998
-33.542675 56.086491 27.153252
-33.529385 56.095535 26.797571
-33.501278 56.125088 26.469994
-33.528721 56.019554 23.663982
-33.504112 56.045334 23.372843
-33.481506 56.068451 23.082445
-33.479885 56.062935 22.769072
-33.480507 56.054459 22.457077
-33.640385 56.129093 31.253023
-33.640717 56.117928 30.801792
-33.603649 56.090412 27.549122
-33.604778 56.079773 27.164618
-33.58289 56.101002 26.822445
-33.567905 56.112843 26.474693
-33.557415 56.05394 23.396343
-33.553654 56.051533 23.081768
-33.54266 56.059132 22.780416
-33.548096 56.044323 22.462543
-33.720207 56.118626 31.248512
-33.732349 56.091038 30.775284
-33.687458 56.07428 27.538826
-33.680012 56.075462 27.168146
-33.671074 56.078846 26.805788
-33.638714 56.114693 26.485058
-33.627411 56.05669 23.406696
-33.628269 56.04792 23.086103
-33.621975 56.049076 22.778881
-33.622616 56.04081 22.46702
-33.814804 56.103054 31.227554
-33.815033 56.091736 30.776672
-33.777443 56.063057 27.526955
-33.77422 56.058197 27.149649
-33.769581 56.055447 26.780794
-33.719887 56.115211 26.487169
-33.726055 56.031319 23.385061
-33.717537 56.035282 23.076853
-33.706478 56.042847 22.775791
-33.697521 56.047607 22.475826
-33.889511 56.10186 31.226589
-33.881809 56.101528 30.790512
-33.843227 56.073681 27.540308
-33.839886 56.068916 27.162937
-33.817902 56.090191 26.821051
-33.794098 56.114113 26.486961
-33.833664 55.991379 23.663942
-33.795197 56.036613 23.391533
-33.78194 56.047092 23.089346
-33.775509 56.048237 22.782267
-33.78548 56.026844 22.458784
-33.941631 56.100239 31.24132
-33.930099 56.105694 30.812557
-33.913094 56.051014 27.526909
-33.888638 56.075993 27.183844
-33.883934 56.073643 26.814795
-33.851654 56.109737 26.49423
-33.892006 55.988499 23.671154
-33.844387 56.04678 23.41094
-33.835854 56.051052 23.102594
-33.848328 56.026371 22.771633
-33.830029 56.044331 22.483644
-33.968864 56.117767 31.294926
-33.984875 56.085503 30.814161
-33.957516 56.050999 27.549612
-33.954559 56.04673 27.172295
-33.93729 56.062511 26.823719
-33.909595 56.092899 26.496468
-33.904522 56.032265 23.413719
-33.914913 56.010899 23.081341
-33.894791 56.031864 22.792402
-33.886108 56.037079 22.492508
-34.035789 56.074802 31.266195
-34.040501 56.059147 30.807848
-33.994743 56.056183 27.578686
-33.996189 56.046467 27.194344
-33.983398 56.056686 26.838877
-33.964588 56.075386 26.498171
-33.995071 55.977474 23.694502
-33.952526 56.029938 23.428162
-33.958416 56.015366 23.101728
-33.947849 56.023666 22.800739
-33.963039 55.996395 22.471407
-34.080803 56.07618 31.274847
-34.077869 56.071743 30.831198
-34.0415 56.059654 27.586758
-34.051643 56.03828 27.188692
-34.034801 56.054604 26.84005
-33.998878 56.097584 26.526142
-34.048187 55.976746 23.695646
-34.010487 56.022942 23.423206
-34.011913 56.014935 23.102869
-34.015625 56.003838 22.784002
-33.993229 56.029007 22.501978
-34.143063 56.078632 31.250481
-34.140396 56.074001 30.806948
-34.114498 56.048706 27.549692
-34.124935 56.027046 27.151888
-34.104118 56.049118 26.810255
-34.081474 56.07383 26.476423
-34.124329 55.962986 23.661505
-34.09156 56.002563 23.383221
-34.074627 56.020187 23.08733
-34.078499 56.008984 22.768538
-34.075188 56.007832 22.463032
-34.220287 56.075943 31.184721
-34.221958 56.065136 30.734171
-34.199512 56.034363 27.48035
-34.193336 56.035831 27.110289
-34.194241 56.027508 26.735046
-34.141777 56.093906 26.448532
-34.172199 55.999527 23.652725
-34.162663 56.00676 23.343824
-34.150627 56.017548 23.042103
-34.14537 56.018963 22.735495
-34.12809 56.037193 22.44776
-34.298851 56.071239 31.09466
-34.281506 56.087059 30.681406
-34.308182 55.99369 27.738062
-34.270355 56.039368 27.415335
-34.268837 56.034191 27.038776
-34.265888 56.031143 26.670675
-34.247242 55.997444 23.591373
-34.238064 56.004105 23.282803
-34.231041 56.007828 22.975403
-34.221478 56.015175 22.675146
-34.22813 55.99995 22.3584
-34.376019 56.066341 31.016323
-34.343525 56.103516 30.632875
-34.339268 56.045441 27.361452
-34.316853 56.069572 27.019156
-34.351868 55.952717 23.497482
-34.34322 55.958607 23.189661
-34.33672 55.961567 22.883017
-36.554066 55.873329 30.373806
-36.536572 55.888725 29.972952
-36.529018 55.86813 28.729462
-36.531467 55.854156 28.321157
-36.499424 55.844475 26.096453
-36.583454 55.965969 30.518711
-36.576008 55.965324 30.094854
-36.575558 55.954285 29.665546
-36.57077 55.950043 29.252697
-36.565262 55.947113 28.84885
-36.566654 55.933922 28.439686
-36.614178 55.851059 27.955065
-36.60236 55.858311 27.585466
-36.597218 55.855633 27.210428
-36.586781 55.86113 26.850742
-36.566784 55.881245 26.512871
-36.528721 55.928776 26.209728
-36.538017 55.904919 25.833876
-36.533447 55.902157 25.486389
-36.535538 55.889496 25.1339
-36.527489 55.892273 24.802496
-36.526005 55.885292 24.466057
-36.53117 55.868439 24.124828
-36.560326 55.815617 23.754032
-36.544369 55.830837 23.453766
-36.539177 55.829979 23.142254
-36.540508 55.819424 22.825996
-36.53513 55.819077 22.52319
-36.500484 55.862778 22.263014
-36.485447 55.877121 21.979774
-36.494892 55.854816 21.668585
-36.492775 55.849972 21.376139
-36.478825 55.862965 21.101831
-36.480469 55.852673 20.81172
-36.479374 55.846584 20.528421
-36.480114 55.837833 20.246342
-36.718796 55.858852 27.960163
-36.69846 55.877823 27.604607
-36.684639 55.887051 27.243351
-36.685432 55.874245 26.86293
-36.656738 55.906441 26.538666
-36.635914 55.852982 23.791349
-36.627937 55.855122 23.478447
-36.613369 55.867359 23.179056
-36.61837 55.850159 22.85647
-36.607903 55.856449 22.559452
-36.835136 55.843609 27.946793
-36.779072 55.916172 27.654383
-36.78022 55.90136 27.265146
-36.772301 55.900635 26.898384
-36.75499 55.914463 26.553583
-36.72052 55.872982 23.818865
-36.71191 55.875099 23.50584
-36.705433 55.874123 23.194073
-36.709827 55.856796 22.871485
-36.698822 55.86298 22.574486
-36.899635 55.873737 27.638512
-36.876717 55.894989 27.291231
-36.87611 55.882198 26.910748
-36.858288 55.896042 26.566109
-36.858059 55.796062 23.776007
-36.810558 55.856785 23.519623
-36.812275 55.842621 23.195726
-36.803143 55.845139 22.891615
-36.804844 55.831322 22.5767
-37.016399 55.945847 30.588388
-36.998699 55.861584 27.684357
-36.986843 55.865082 27.316246
-36.977665 55.864693 26.949642
-36.963184 55.872707 26.598232
-36.905624 55.842201 23.55863
-36.915337 55.815121 23.22241
-36.888306 55.844376 22.942797
-36.884956 55.837593 22.633745
-36.861664 55.861401 22.355793
-37.132317 55.923004 30.617512
-37.108887 55.840305 27.713892
-37.072937 55.880222 27.387604
-37.054974 55.892498 27.034489
-37.055401 55.876556 26.655354
-37.003517 55.829697 23.595369
-36.991035 55.835808 23.289948
-36.984943 55.832287 22.979574
-36.972237 55.839073 22.682583
-36.952724 55.856441 22.398598
-37.238232 55.928596 30.674648
-37.199783 55.860252 27.78385
-37.182339 55.870407 27.422516
-37.175327 55.864594 27.048737
-37.15921 55.873211 26.697147
-37.095886 55.834709 23.642923
-37.082664 55.841053 23.337397
-37.084427 55.824482 23.014679
-37.062382 55.844772 22.729803
-37.068413 55.822014 22.409899
-37.38435 55.892391 30.675213
-37.328049 55.841232 27.807732
-37.309731 55.851429 27.446571
-37.290134 55.863914 27.093685
-37.304451 55.823635 26.687254
-37.222473 55.802975 23.656128
-37.204323 55.815853 23.357105
-37.192451 55.819187 23.052958
-37.182629 55.819546 22.749983
-37.174843 55.816944 22.448221
-37.527637 55.863289 30.681126
-37.426643 55.851852 27.489557
-37.421566 55.840149 27.108952
-37.411499 55.836647 26.743853
-37.32494 55.811615 23.704897
-37.301727 55.831284 23.411997
-37.297508 55.82156 23.0954
-37.286869 55.822052 22.792383
-37.278267 55.819588 22.490574
-37.635418 55.877449 30.745308
-37.533283 55.856777 27.538059
-37.527225 55.84531 27.157337
-37.516216 55.842041 26.792137
-37.480461 55.878212 26.4762
-37.459465 55.759968 23.695633
-37.406292 55.825653 23.446798
-37.401314 55.816044 23.130209
-37.398514 55.803276 22.815058
-37.384945 55.807564 22.519419
-37.774792 55.846302 30.75132
-37.65453 55.843399 27.567289
-37.647556 55.832031 27.186642
-37.627964 55.841137 26.835308
-37.595318 55.871319 26.512587
-37.517807 55.81337 23.477127
-37.507847 55.810482 23.16678
-37.5 55.804527 22.857725
-37.481384 55.815716 22.568079
-37.898197 55.84465 30.806208
-37.780453 55.826305 27.600458
-37.753532 55.845547 27.254707
-37.740574 55.842781 26.889378
-37.718658 55.85471 26.546116
-37.633602 55.798073 23.511429
-37.627079 55.788673 23.194998
-37.618492 55.782806 22.886099
-37.59494 55.800816 22.602684
-37.560329 55.836456 22.337988
-38.019768 55.824467 30.848047
-37.887108 55.820904 27.656649
-37.87822 55.81012 27.275961
-37.849266 55.832058 26.938509
-37.834229 55.831963 26.581543
-37.72995 55.797256 23.566391
-37.714252 55.801502 23.262215
-37.704819 55.796066 22.953058
-37.697487 55.787575 22.64522
-37.666576 55.816685 22.374649
-38.139137 55.808857 30.885614
-37.991955 55.81955 27.708624
-37.978382 55.815201 27.334818
-37.948597 55.837532 26.997257
-37.947968 55.813095 26.612677
-37.833141 55.786613 23.604609
-37.825104 55.777779 23.288063
-37.819241 55.765778 22.972923
-37.79863 55.777554 22.683508
-37.779922 55.786549 22.395031
-38.260532 55.810173 30.923584
-38.116619 55.803902 27.725288
-38.102234 55.799538 27.351639
-38.094353 55.785042 26.972652
-38.074051 55.791214 26.622948
-37.9571 55.757553 23.610643
-37.919426 55.795135 23.337904
-37.921059 55.769951 23.010277
-37.912365 55.761646 22.702606
-37.897282 55.763847 22.408304
-38.372009 55.828304 30.971634
-38.336864 55.852367 30.578453
-38.245453 55.780964 27.722765
-38.22662 55.782486 27.356407
-38.195457 55.804668 27.019306
-38.181805 55.798611 26.655693
-38.065655 55.75211 23.630495
-38.035656 55.776367 23.345459
-38.032444 55.757729 23.024191
-38.002148 55.783012 22.747126
-38.003162 55.758224 22.428574
-38.454735 55.849369 30.605831
-38.353134 55.784355 27.757429
-38.318668 55.810349 27.419125
-38.297768 55.814407 27.060921
-38.302029 55.777542 26.66275
-38.171772 55.743385 23.652193
-38.137074 55.774303 23.373533
-38.112438 55.789181 23.083111
-38.110554 55.767555 22.763079
-38.098289 55.763058 22.462751
-38.465321 55.737286 27.382633
-38.406937 55.802467 27.094765
-38.402828 55.778183 26.710375
-38.265461 55.746513 23.698912
-38.238297 55.764385 23.407709
-38.229519 55.752647 23.092628
-38.222912 55.737751 22.778976
-38.193363 55.760422 22.50305
-38.332146 55.74865 23.444057
-38.314571 55.750565 23.141371
-38.299042 55.749496 22.839832
-38.2897 55.738682 22.533426
-38.390522 55.726982 22.867109
-38.384872 55.709602 22.554712
-38.314445 55.798248 22.339783
-40.728794 55.637486 31.486294
-40.837906 55.644501 31.561014
-40.79892 55.649303 31.138861
-40.754017 55.66655 30.741043
-40.69976 55.702549 30.374662
-40.679317 55.676037 29.934292
-40.665436 55.638592 29.488573
-40.651825 55.602005 29.052492
-40.950401 55.630928 31.600746
-40.907543 55.641781 31.186285
-40.864792 55.653694 30.780849
-40.673882 55.687489 28.8267
-40.655422 55.660706 28.415483
-41.053688 55.626877 31.642899
-41.010006 55.638077 31.228413
-40.97245 55.638847 30.807714
-40.755756 55.591587 28.004675
-40.719742 55.598743 27.647789
-40.686298 55.602062 27.292156
-40.655411 55.601559 26.937832
-40.640755 55.572037 26.557003
-41.158745 55.642399 31.696241
-41.125828 55.631168 31.250904
-41.081448 55.64352 30.845533
-40.824898 55.598816 27.678034
-40.784035 55.614689 27.336605
-40.748947 55.620678 26.989197
-40.726532 55.604042 26.622093
-40.65868 55.672432 26.353407
-40.634171 55.661366 26.002485
-40.63324 55.607845 25.612356
-40.617523 55.582554 25.258154
-41.299931 55.612988 31.667274
-41.266178 55.601337 31.222351
-41.221073 55.613293 30.817419
-40.942417 55.596264 27.689175
-40.914009 55.58717 27.319487
-40.874935 55.59911 26.979511
-40.831501 55.620075 26.654598
-40.63575 55.642395 24.692678
-40.622562 55.613239 24.349234
-41.435452 55.608936 31.656389
-41.391991 55.613979 31.234797
-41.345867 55.625725 30.829973
-41.065723 55.594681 27.688124
-41.026592 55.603947 27.339962
-40.983307 55.622032 27.007067
-40.965843 55.592377 26.626247
-40.715637 55.595959 24.028164
-40.702766 55.566196 23.694649
-40.666267 55.580448 23.407213
-40.642899 55.571384 23.101778
-40.617825 55.566116 22.803804
-40.594753 55.557877 22.506992
-40.577526 55.53973 22.205315
-41.567753 55.593895 31.638323
-41.526394 55.592884 31.209352
-41.467926 55.62727 30.835461
-41.18108 55.59481 27.694717
-41.14122 55.60392 27.346701
-41.107143 55.603035 26.9928
-41.068939 55.610996 26.654221
-40.798668 55.584724 23.722065
-40.765163 55.59219 23.428228
-40.744801 55.576237 23.116505
-40.715298 55.577747 22.824799
-40.683929 55.583294 22.540255
-40.635269 55.620853 22.286997
-40.599724 55.635056 22.015997
-40.589275 55.604412 21.71011
-40.573071 55.584873 21.41754
-40.574677 55.533966 21.103146
-41.673416 55.605099 31.681984
-41.631081 55.604343 31.25293
-41.580456 55.621712 30.856058
-41.287338 55.589905 27.715887
-41.246792 55.599098 27.36795
-41.221848 55.579453 26.992939
-41.176456 55.599998 26.668617
-40.87764 55.561031 23.42482
-40.841934 55.572304 23.138546
-40.804359 55.587631 22.859335
-40.776142 55.586403 22.568569
-40.719349 55.638008 22.327507
-40.572037 55.606522 20.649757
-40.574699 55.554459 20.345053
-40.567265 55.52121 20.058817
-41.779621 55.604694 31.73386
-41.744823 55.58728 31.281597
-41.690563 55.610683 30.892488
-41.403694 55.556694 27.723656
-41.356144 55.57843 27.390247
-41.317444 55.584084 27.043613
-41.27792 55.592354 26.705193
-40.976017 55.549232 23.454958
-40.939762 55.560703 23.168762
-40.905384 55.569351 22.883404
-40.872868 55.575195 22.598923
-40.823242 55.613068 22.345818
-40.603897 55.563625 19.870293
-41.904789 55.569283 31.739471
-41.855145 55.580528 31.326025
-41.814323 55.57555 30.898611
-41.742065 55.635403 30.56414
-41.512623 55.541061 27.753304
-41.461235 55.569275 27.427143
-41.421822 55.57523 27.080528
-41.388157 55.571148 26.728094
-41.317245 55.639755 26.460508
-41.069267 55.550228 23.498199
-41.036068 55.555164 23.205639
-41.00481 55.55719 22.914047
-40.971741 55.56324 22.629635
-40.93298 55.580425 22.358337
-42.010471 55.582172 31.806377
-41.965347 55.582546 31.377314
-41.917839 55.589504 30.965164
-41.850471 55.638245 30.615364
-41.568398 55.562786 27.463234
-41.525002 55.575283 27.123734
-41.490513 55.57151 26.771246
-41.432205 55.614933 26.475857
-41.16769 55.546692 23.534351
-41.141151 55.538185 23.229158
-41.101933 55.5541 22.950207
-41.064514 55.567291 22.671984
-41.0364 55.56385 22.382294
-42.153221 55.534595 31.775879
-42.085266 55.580341 31.409184
-42.045212 55.570225 30.974049
-41.980026 55.613194 30.616899
-41.685352 55.54995 27.481117
-41.638042 55.56879 27.148878
-41.605988 55.558811 26.789433
-41.540546 55.615055 26.508198
-41.268978 55.548176 23.56671
-41.234436 55.553482 23.274166
-41.201839 55.55587 22.982582
-41.178577 55.541515 22.679602
-41.142433 55.551971 22.402433
-42.215389 55.561569 31.404215
-42.168938 55.562843 30.984705
-42.105885 55.600006 30.620123
-41.79557 55.554882 27.507412
-41.744343 55.580097 27.182322
-41.711426 55.570244 26.822823
-41.668114 55.582008 26.492729
-41.37743 55.540462 23.580341
-41.345909 55.538918 23.281605
-41.316395 55.534367 22.983955
-41.281521 55.54068 22.699837
-41.24107 55.55814 22.428881
-42.401096 55.514366 31.787069
-42.339993 55.542953 31.397583
-42.27623 55.578674 31.024481
-42.223579 55.592796 30.629314
-41.904148 55.553764 27.52487
-41.86491 55.553898 27.171436
-41.818638 55.569202 26.840452
-41.774673 55.581005 26.510447
-41.478081 55.539722 23.598648
-41.445957 55.5382 23.299976
-41.412212 55.540565 23.008663
-41.376736 55.546955 22.724548
-41.339417 55.557518 22.447464
-42.505447 55.519367 31.832649
-42.435455 55.565468 31.466381
-42.392788 55.555656 31.031488
-42.33675 55.575706 30.644175
-42.072849 55.4967 27.851847
-41.999725 55.562843 27.569468
-41.959755 55.563316 27.215923
-41.922325 55.559963 26.863667
-41.874577 55.578331 26.540741
-41.583103 55.518612 23.609617
-41.539799 55.537701 23.330194
-41.512726 55.526489 23.026302
-41.473148 55.539925 22.748539
-41.439034 55.543674 22.465376
-42.538521 55.556324 31.508421
-42.489647 55.558525 31.08889
-42.443954 55.555912 30.670847
-42.108402 55.533379 27.582264
-42.074207 55.521515 27.214643
-42.023766 55.543602 26.890959
-41.972355 55.568661 26.575129
-41.679546 55.505192 23.637396
-41.635838 55.524548 23.358053
-41.604698 55.520493 23.060492
-41.568306 55.527306 22.776503
-41.541088 55.517368 22.48107
-42.597385 55.528976 31.084312
-42.548534 55.532276 30.67415
-42.206673 55.517075 27.594097
-42.175144 55.499104 27.219437
-42.124401 55.521313 26.895948
-42.085411 55.520973 26.552259
-41.769798 55.497597 23.656948
-41.732849 55.503456 23.364927
-41.690674 55.520164 23.086451
-41.664734 55.506409 22.78373
-41.629913 55.510513 22.500801
-42.31274 55.496838 27.571283
-42.259247 55.522614 27.246883
-42.220474 55.519611 26.894962
-42.174744 55.531956 26.565422
-41.861885 55.495064 23.657082
-41.82811 55.493999 23.358799
-41.785656 55.510601 23.080511
-41.755768 55.503658 22.784204
-41.724239 55.500713 22.495216
-41.65432 55.572136 22.274429
-42.405281 55.51543 27.577734
-42.357433 55.528519 27.239058
-42.321289 55.518944 26.880178
-42.268875 55.543812 26.564854
-41.955204 55.498604 23.650551
-41.917515 55.5042 23.358761
-41.878212 55.513767 23.074215
-41.847919 55.506622 22.778023
-41.815998 55.503487 22.489151
-42.506889 55.513344 27.550941
-42.46788 55.50716 27.191082
-42.412922 55.535149 26.875092
-42.366367 55.54702 26.545784
-42.0494 55.499004 23.633089
-42.007904 55.511189 23.347853
-41.98238 55.492893 23.038185
-41.941166 55.506187 22.761099
-41.908924 55.502773 22.472408
-42.578564 55.479031 27.13493
-42.511208 55.531925 26.847719
-42.464375 55.543442 26.518644
-42.141346 55.499081 23.614544
-42.110023 55.490376 23.31036
-42.073734 55.492401 23.019995
-42.032265 55.505444 22.743084
-41.999733 55.501755 22.454573
-42.243343 55.47813 23.575911
-42.201435 55.489651 23.291222
-42.157879 55.505257 23.013643
-42.130238 55.49025 22.711817
-42.090366 55.500221 22.435959
-42.331276 55.477753 23.570623
-42.292526 55.482273 23.279673
-42.262669 55.470001 22.977043
-42.220776 55.482548 22.700621
-42.184212 55.485355 22.418768
-42.39843 55.492493 23.600067
-42.362774 55.490372 23.302572
-42.332577 55.478294 22.99983
-42.283379 55.504997 22.735804
-42.249981 55.501068 22.447535
-42.464748 55.503857 23.631535
-42.445961 55.467613 23.301933
-42.408737 55.469521 23.011971
-42.373421 55.46851 22.72298
-42.325878 55.492687 22.459732
-42.473633 55.475006 23.035154
-42.448597 55.453339 22.727272
-42.408066 55.463627 22.451744
-42.508865 55.467533 22.754328
-42.471611 55.471062 22.472429
-42.588932 55.441074 22.740589
-42.541161 55.465656 22.477495
-44.794231 55.364941 31.846066
-44.845787 55.364906 31.887331
-44.789948 55.367897 31.460188
-44.910404 55.353184 31.902769
-44.833038 55.408367 31.545948
-44.784737 55.395523 31.104216
-44.749569 55.353939 30.633394
-44.702995 55.34227 30.210772
-44.980125 55.342049 31.919954
-44.897907 55.409069 31.578781
-44.849312 55.396664 31.136898
-44.801548 55.384876 30.704477
-44.72958 55.433186 30.358017
-44.963921 55.40049 31.618538
-44.910217 55.400299 31.192053
-44.859638 55.395073 30.767088
-44.742607 55.429432 29.998102
-44.729107 55.343464 29.494476
-45.022038 55.386505 31.671926
-44.972942 55.375542 31.229664
-44.907646 55.4062 30.850952
-44.750542 55.417957 29.652563
-44.72979 55.35183 29.180861
-45.072006 55.374126 31.7348
-45.025166 55.358353 31.284456
-44.967102 55.372314 30.882355
-44.884769 55.446587 30.56599
-44.747974 55.417995 29.332142
-44.732792 55.341713 28.854559
-45.132648 55.356522 31.766258
-45.080952 55.352947 31.331381
-45.025173 55.361752 30.921335
-44.945282 55.430706 30.597193
-44.792786 55.440239 29.408091
-44.753685 55.419983 28.997135
-44.741428 55.339359 28.521326
-45.202042 55.353451 31.789034
-45.145355 55.361801 31.369665
-45.086872 55.3769 30.967171
-45.016544 55.422729 30.612049
-44.765202 55.333828 28.165829
-45.272423 55.376469 31.831705
-45.217594 55.379391 31.404312
-45.170658 55.365543 30.962914
-45.097713 55.417313 30.615595
-44.817741 55.391113 28.243078
-44.794876 55.338371 27.815401
-44.74501 55.350327 27.469625
-45.364029 55.357948 31.821455
-45.306557 55.366661 31.402021
-45.249714 55.37627 30.991714
-45.188526 55.398788 30.605829
-44.886353 55.313461 27.799397
-44.825394 55.350708 27.482792
-44.78307 55.346191 27.123726
-44.751633 55.318325 26.744682
-44.705845 55.325115 26.409767
-45.444214 55.342403 31.817804
-45.377228 55.374401 31.42968
-45.336693 55.343353 30.964979
-45.260998 55.401257 30.62553
-44.959423 55.311325 27.811138
-44.90102 55.342419 27.487272
-44.864017 55.325237 27.113869
-44.812878 55.342487 26.784794
-44.752602 55.382122 26.484892
-44.714252 55.372776 26.136505
-44.698597 55.313419 25.740973
-45.504143 55.345322 31.833315
-45.441723 55.365963 31.429482
-45.391624 55.358444 30.995792
-45.323013 55.398968 30.633049
-44.956867 55.35408 27.508848
-44.916939 55.34354 27.142448
-44.873985 55.341763 26.791779
-44.810856 55.38805 26.49889
-44.721821 55.398865 25.837961
-44.699631 55.355686 25.4645
-44.683056 55.301617 25.086231
-45.566738 55.339897 31.842531
-45.51123 55.343369 31.41523
-45.454082 55.353466 31.004915
-45.385448 55.394211 30.642132
-45.021378 55.344589 27.510254
-44.978664 55.340584 27.151037
-44.930092 55.351883 26.814554
-44.875317 55.378975 26.500315
-44.699986 55.400162 25.196663
-44.685455 55.342709 24.819557
-45.63298 55.329601 31.855728
-45.572735 55.344971 31.444006
-45.524815 55.332062 31.002514
-45.453808 55.378891 30.647518
-45.091812 55.324688 27.508434
-45.049065 55.320831 27.149284
-45.006016 55.319386 26.798624
-44.942905 55.366013 26.505783
-44.698456 55.364258 24.543804
-44.685619 55.30603 24.176929
-45.695171 55.32531 31.876528
-45.641693 55.323631 31.441275
-45.581978 55.340168 31.038645
-45.522705 55.357891 30.644936
-45.152206 55.323944 27.528112
-45.112026 55.313988 27.161661
-45.060581 55.332123 26.832336
-45.000111 55.372639 26.532217
-44.718693 55.280445 23.863457
-45.709045 55.316231 31.440245
-45.644566 55.344574 31.053154
-45.585136 55.362503 30.659353
-45.210518 55.336411 27.548962
-45.167412 55.33308 27.189531
-45.121254 55.338604 26.84572
-45.063461 55.372814 26.538429
-44.77177 55.302193 23.888924
-44.723053 55.326694 23.610287
-44.694859 55.306469 23.29365
-45.842499 55.287552 31.818102
-45.775291 55.320343 31.430079
-45.722401 55.319298 31.004192
-45.651249 55.366447 30.649199
-45.286579 55.314171 27.509905
-45.238117 55.323345 27.165102
-45.200191 55.309322 26.800032
-45.134205 55.362732 26.51425
-44.79681 55.308052 23.580841
-44.756096 55.315548 23.290146
-44.729858 55.291904 22.974895
-44.696095 55.286148 22.680025
-44.664196 55.277332 22.386278
-45.89954 55.303757 31.809826
-45.841434 55.313179 31.390493
-45.786308 55.317616 30.97253
-45.715244 55.364494 30.61762
-45.345566 55.322449 27.493792
-45.305191 55.312225 27.12743
-45.256386 55.3237 26.791054
-45.190388 55.377041 26.505182
-44.855499 55.314335 23.56477
-44.821022 55.307697 23.261217
-44.779011 55.318993 22.977924
-44.74831 55.306133 22.676565
-44.709862 55.311508 22.395145
-44.663361 55.335541 22.133095
-44.654598 55.277615 21.804562
-45.951313 55.320438 31.812164
-45.890877 55.335659 31.400526
-45.831013 55.351883 30.997904
-45.769249 55.375233 30.611902
-45.465897 55.281921 27.789757
-45.394054 55.345318 27.502104
-45.358967 55.3223 27.121202
-45.31015 55.333721 26.784758
-45.25248 55.3675 26.477615
-44.912132 55.316849 23.551342
-44.871426 55.324112 23.260639
-44.826214 55.342453 22.983566
-44.798603 55.322536 22.675718
-44.753666 55.342182 22.406609
-44.671841 55.366192 21.864195
-44.651608 55.334183 21.561001
-44.643394 55.277107 21.241512
-46.010525 55.309231 31.79851
-45.952477 55.318634 31.379108
-45.899712 55.317177 30.953327
-45.831154 55.358101 30.590685
-45.456966 55.327686 27.481749
-45.421986 55.3046 27.10096
-45.376026 55.309498 26.757509
-45.307487 55.369255 26.478785
-44.964104 55.326328 23.55838
-44.932716 55.312714 23.248266
-44.897038 55.309914 22.952179
-44.856861 55.318214 22.66976
-44.811977 55.337902 22.400642
-44.658318 55.367947 21.31287
-44.651821 55.308041 20.994486
-46.072048 55.276062 31.776613
-46.014221 55.28553 31.357365
-45.954735 55.301758 30.954998
-45.876907 55.366627 30.623161
-45.568657 55.288486 27.814676
-45.515442 55.307804 27.476082
-45.469818 55.310524 27.124071
-45.431999 55.29636 26.75906
-45.366344 55.349789 26.473282
-45.039268 55.273209 23.520891
-44.986385 55.308502 23.256147
-44.947598 55.31295 22.966345
-44.916954 55.30022 22.664907
-44.86898 55.327164 22.402081
-44.675407 55.371563 21.054693
-44.653725 55.345806 20.766689
-44.644157 55.294823 20.462849
-44.62965 55.255634 20.172194
-46.107906 55.303356 31.842997
-46.052189 55.307755 31.415495
-46.001812 55.30117 30.981709
-45.931087 55.348686 30.62661
-45.626293 55.266083 27.810678
-45.567959 55.298317 27.486628
-45.527779 55.288502 27.120173
-45.479237 55.300396 26.783707
-45.416382 55.347683 26.490688
-45.077301 55.301758 23.562992
-45.046059 55.288506 23.25285
-45.007408 55.29311 22.963104
-44.964203 55.308907 22.686899
-44.925858 55.314762 22.405186
-44.663948 55.365482 20.529047
-44.652607 55.319435 20.231913
-44.639694 55.277855 19.942122
-46.166695 55.294033 31.853458
-46.110981 55.298721 31.425898
-46.055996 55.304161 31.00757
-45.985241 55.352066 30.652319
-45.624084 55.298275 27.503666
-45.578506 55.301582 27.151461
-45.537994 55.294468 26.793367
-45.475182 55.341991 26.500301
-45.132938 55.304989 23.578484
-45.098545 55.298988 23.274633
-45.069206 55.282738 22.96559
-45.032372 55.2845 22.67679
-44.984535 55.31184 22.413902
-44.677376 55.321682 19.983795
-44.680119 55.247337 19.672993
-46.238567 55.273899 31.838066
-46.182869 55.27861 31.410624
-46.125603 55.289948 31.000175
-46.059547 55.326077 30.629583
-45.690823 55.291042 27.504101
-45.65052 55.281628 27.137524
-45.610012 55.274517 26.779556
-45.54454 55.328587 26.4937
-45.205147 55.285088 23.566002
-45.167679 55.286095 23.268723
-45.132069 55.283993 22.972481
-45.088848 55.300087 22.696222
-45.053646 55.299091 22.408215
-44.742023 55.250118 19.679108
-46.311653 55.266731 31.82605
-46.251377 55.283039 31.414309
-46.198528 55.2827 30.9883
-46.123146 55.342537 30.648607
-45.821396 55.250763 27.816944
-45.760391 55.289761 27.500122
-45.717312 55.286774 27.140749
-45.676651 55.279716 26.782736
-45.616573 55.320827 26.482693
-45.27351 55.283905 23.562176
-45.235954 55.28492 23.264906
-45.19714 55.289879 22.975044
-45.160107 55.291832 22.686129
-45.121674 55.297943 22.404432
-44.805676 55.256573 19.680964
-46.389324 55.270828 31.819283
-46.326614 55.292896 31.41538
-46.271233 55.298416 30.997107
-46.200287 55.346466 30.641912
-45.843662 55.273952 27.471882
-45.795212 55.283592 27.127089
-45.757072 55.269936 26.76203
-45.688801 55.330502 26.483332
-45.346889 55.286491 23.555933
-45.312244 55.280434 23.252251
-45.276417 55.278236 22.956106
-45.233036 55.294262 22.679941
-45.188133 55.314629 22.410727
-46.480698 55.258446 31.790407
-46.426678 55.256943 31.355453
-46.362175 55.285526 30.968643
-46.293396 55.327412 30.605949
-45.919636 55.290695 27.481567
-45.878731 55.281071 27.115124
-45.829632 55.293213 26.778681
-45.766495 55.340836 26.485699
-45.424774 55.289616 23.551537
-45.399025 55.262428 23.228584
-45.359959 55.26709 22.939037
-45.31955 55.27586 22.656738
-45.271389 55.303207 22.39399
-46.567963 55.262016 31.786369
-46.506901 55.277935 31.37491
-46.450939 55.283058 30.956947
-46.370476 55.354588 30.632891
-46.010628 55.2743 27.456301
-45.96162 55.283756 27.11165
-45.922836 55.269882 26.746729
-45.854237 55.330353 26.468174
-45.516346 55.263699 23.522491
-45.478245 55.264355 23.225571
-45.438911 55.268967 22.93606
-45.401352 55.270569 22.647495
-45.353008 55.297836 22.38485
-45.067146 55.246029 19.911993
-45.03783 55.239193 19.651785
-46.653793 55.249813 31.767441
-46.590363 55.271454 31.363941
-46.531937 55.282413 30.953829
-46.464981 55.31826 30.583572
-46.153496 55.228542 27.762609
-46.091911 55.267174 27.446218
-46.04533 55.270134 27.094465
-46.003723 55.26263 26.736822
-45.929688 55.33617 26.472502
-45.589485 55.269844 23.52648
-45.560238 55.249447 23.210215
-45.52079 55.253963 22.92086
-45.473831 55.276836 22.651358
-45.434689 55.282654 22.36997
-45.130665 55.267719 19.926596
-45.111408 55.238243 19.649584
-46.733955 55.231369 31.751856
-46.672626 55.247158 31.340677
-46.603008 55.287533 30.969568
-46.533585 55.329552 30.606945
-46.224934 55.22887 27.770311
-46.163208 55.267651 27.453892
-46.124218 55.251408 27.080526
-46.077244 55.25687 26.737286
-46.000496 55.337063 26.480078
-45.658524 55.271782 23.533644
-45.617008 55.279621 23.243071
-45.586411 55.263191 22.934294
-45.548531 55.264854 22.645773
-45.503067 55.285034 22.376942
-45.181576 55.23402 19.650473
-46.698372 55.231285 30.922638
-46.622307 55.291 30.583588
-46.241081 55.254642 27.461571
-46.196693 55.251492 27.102612
-46.146843 55.263748 26.766418
-46.083225 55.31155 26.473724
-45.743122 55.240005 23.522091
-45.701553 55.247875 23.231743
-45.667824 55.238552 22.92955
-45.623711 55.254539 22.653801
-45.57502 55.282055 22.391245
-46.713085 55.241745 30.555731
-46.303825 55.275818 27.516031
-46.266758 55.253914 27.135132
-46.221859 55.253601 26.784508
-46.158119 55.301704 26.491814
-45.807251 55.253738 23.559277
-45.768402 55.254982 23.262245
-45.734409 55.246017 22.959866
-45.705368 55.226727 22.652378
-45.647369 55.275883 22.408737
-46.379147 55.244442 27.511703
-46.336906 55.235615 27.14533
-46.278934 55.268055 26.830448
-46.22818 55.283962 26.502069
-45.870678 55.252338 23.582621
-45.837658 55.239849 23.272562
-45.800571 55.238205 22.976572
-45.765305 55.233452 22.68165
-45.710293 55.275803 22.431601
-46.439041 55.24263 27.531143
-46.391617 55.247025 27.179064
-46.362053 55.208466 26.785311
-46.287941 55.283146 26.521162
-45.932816 55.247284 23.594032
-45.896782 55.242069 23.290358
-45.865646 55.226543 22.981453
-45.82127 55.243355 22.705496
-45.778507 55.257347 22.430244
-46.502407 55.23798 27.540047
-46.460068 55.229717 27.173485
-46.415009 55.230244 26.822687
-46.361774 55.252991 26.501528
-46.010612 55.210232 23.569544
-45.962868 55.233124 23.291958
-45.931725 55.217743 22.983047
-45.884354 55.241833 22.713417
-45.844654 55.248837 22.431843
-46.568268 55.230152 27.539585
-46.525883 55.222 27.173025
-46.483364 55.216145 26.815079
-46.417114 55.271702 26.529451
-46.070202 55.21764 23.582176
-46.022392 55.24073 23.304466
-45.991135 55.225529 22.995424
-45.961823 55.207024 22.687714
-45.910019 55.242649 22.43145
-46.631981 55.243935 27.546688
-46.589409 55.23584 27.180023
-46.544151 55.236546 26.829123
-46.488174 55.266045 26.514952
-46.134869 55.225155 23.581406
-46.101696 55.213051 23.271349
-46.070469 55.19762 22.962584
-46.02914 55.207432 22.680452
-45.977306 55.24305 22.424192
-46.667305 55.217346 27.13747
-46.616993 55.230713 26.801117
-46.553276 55.279675 26.508329
-46.210533 55.209961 23.548237
-46.16563 55.225784 23.26421
-46.134281 55.210262 22.955393
-46.095863 55.21286 22.666878
-46.050079 55.234016 22.398102
-46.628315 55.256409 26.455551
-46.275208 55.210838 23.524445
-46.236187 55.212349 23.227577
-46.201931 55.203613 22.925358
-46.160564 55.213116 22.643295
-46.111782 55.241283 22.380825
-46.338169 55.210258 23.501141
-46.299191 55.211575 23.204338
-46.267918 55.195526 22.895811
-46.220657 55.219116 22.626499
-46.174927 55.239967 22.357767
-45.851067 55.186504 19.626343
-46.395821 55.218891 23.495754
-46.362656 55.206047 23.185995
-46.331421 55.189869 22.877539
-46.284233 55.213367 22.608282
-46.229542 55.255749 22.358334
-45.918468 55.171963 19.603331
-46.45908 55.198315 23.478771
-46.417316 55.206665 23.188465
-46.386097 55.190601 22.879934
-46.338966 55.214226 22.610603
-46.28735 55.249527 22.354336
-45.973484 55.173992 19.604801
-46.515484 55.181522 23.484642
-46.468048 55.204266 23.207216
-46.433937 55.19566 22.904909
-46.39278 55.20533 22.622747
-46.33828 55.248119 22.372663
-46.024822 55.175659 19.621557
-46.567814 55.173203 23.509356
-46.514668 55.210514 23.244705
-46.486401 55.188202 22.929337
-46.454193 55.176804 22.628077
-46.393902 55.234283 22.390581
-46.081223 55.165356 19.638573
-46.615356 55.181095 23.545889
-46.579536 55.176483 23.242249
-46.545563 55.168617 22.939768
-46.507526 55.171844 22.651136
-46.456272 55.20808 22.394766
-46.138081 55.156788 19.654419
-46.645588 55.158825 23.237452
-46.602921 55.172405 22.954212
-46.564842 55.175865 22.665447
-46.51656 55.205128 22.402693
-46.637199 55.164612 22.655939
-46.582973 55.208294 22.405783
-46.221584 55.18222 19.426544
-46.342911 55.214054 19.963383
-46.338581 55.147976 19.657921
-46.286804 55.193886 19.436941
-46.417755 55.207733 19.966885
-46.416401 55.13406 19.655849
-46.371132 55.164658 19.423986
-46.445789 55.148636 19.422293
-46.506588 55.154991 19.436808
-46.574306 55.153381 19.447811
-48.840622 55.163364 32.568485
-48.891869 55.171616 32.613049
-48.950375 55.097908 32.082222
-48.887428 55.121742 31.669281
-48.842701 55.093082 31.195034
-48.951786 55.125427 31.682583
-48.891312 55.144402 31.270739
-48.843334 55.128387 30.821356
-48.778229 55.167294 30.450878
-49.034328 55.118088 31.66992
-48.967728 55.154797 31.281528
-48.913342 55.156845 30.855274
-48.783249 55.082333 29.525269
-49.12175 55.074837 31.974501
-49.039497 55.157196 31.64056
-48.985966 55.152508 31.197369
-48.931427 55.154316 30.771378
-48.732365 55.134377 29.113632
-49.093048 55.159416 31.632107
-49.033577 55.172665 31.212349
-48.982605 55.16275 30.770668
-48.685589 55.141689 28.338108
-49.152218 55.163319 31.668652
-49.102043 55.147335 31.209614
-49.047169 55.149609 30.783516
-48.706791 55.116314 27.958151
-48.664307 55.104122 27.574614
-49.213455 55.147083 31.694799
-49.157513 55.149433 31.259108
-49.104378 55.146381 30.824976
-48.767273 55.10437 27.983273
-48.713692 55.124889 27.636185
-48.682304 55.082817 27.224796
-49.266537 55.133842 31.729992
-49.208679 55.142742 31.301956
-49.157394 55.134369 30.859829
-48.832943 55.058014 27.972588
-48.764179 55.123871 27.676926
-48.723759 55.108421 27.294306
-48.690262 55.07531 26.898932
-49.314419 55.127781 31.770939
-49.250938 55.155125 31.366167
-49.199543 55.147579 30.923639
-48.809841 55.130405 27.722794
-48.762691 55.13509 27.361652
-48.722248 55.122437 26.987385
-48.681839 55.111973 26.621843
-48.643677 55.097225 26.257818
-49.361721 55.119537 31.813051
-49.302063 55.135712 31.392397
-49.246967 55.140717 30.96529
-48.861912 55.115849 27.747797
-48.812641 55.127525 27.393793
-48.767742 55.128525 27.033739
-48.72731 55.118713 26.667871
-48.677536 55.137905 26.338968
-48.653172 55.086239 25.940725
-49.411613 55.099438 31.839682
-49.350216 55.122112 31.426748
-49.302818 55.103828 30.968325
-49.231258 55.164356 30.62006
-48.912838 55.101231 27.7731
-48.861458 55.119896 27.426243
-48.814369 55.127995 27.07321
-48.773945 55.118778 26.707075
-48.71727 55.15852 26.399214
-48.681057 55.141163 26.035662
-48.661327 55.078991 25.631884
-49.476307 55.05352 31.812588
-49.405895 55.105869 31.439062
-49.349098 55.117863 31.019495
-49.291061 55.136768 30.616785
-48.96722 55.094578 27.792093
-48.913704 55.120113 27.452391
-48.87336 55.10899 27.077511
-48.823959 55.126442 26.739996
-48.660412 55.116875 25.359156
-48.645348 55.046227 24.959099
-49.530403 55.065407 31.841341
-49.461838 55.112221 31.459761
-49.41069 55.106583 31.016663
-49.348885 55.137699 30.629414
-49.035763 55.064934 27.767181
-48.978039 55.103409 27.442209
-48.926613 55.125088 27.103479
-48.883945 55.123058 26.744238
-48.643616 55.106655 24.701174
-48.625526 55.048527 24.325071
-49.599094 55.055279 31.826895
-49.526871 55.113918 31.461052
-49.47562 55.108345 31.017908
-49.10424 55.054314 27.753361
-49.037796 55.118759 27.457563
-48.99514 55.114407 27.089783
-48.950199 55.118938 26.737768
-48.659107 55.135067 24.406071
-48.645363 55.066124 24.024744
-49.67178 55.052464 31.807785
