# .PCD v0.7 - Point Cloud Data file format
VERSION 0.7
FIELDS x y z
SIZE 4 4 4
TYPE F F F
COUNT 1 1 1
WIDTH 1560
HEIGHT 1
VIEWPOINT 0 0 0 1 0 0 0
POINTS 1560
DATA ascii
-59.921875 53.330986 15.257796
-59.897854 53.333118 15.011513
-59.876316 53.335056 14.762173
-59.829636 53.339211 14.276828
-59.806293 53.341286 14.036892
-61.958282 53.149784 36.480999
-61.89835 53.15498 36.009853
-61.846691 53.159576 35.469723
-61.56435 53.184818 32.397968
-61.201084 53.217342 28.389168
-60.195736 53.307041 17.641354
-60.170551 53.309288 17.374012
-60.144424 53.311604 17.112024
-60.124107 53.313469 16.837717
-60.099445 53.315666 16.57756
-60.082413 53.317268 16.301395
-60.057472 53.319485 16.047392
-60.042023 53.320961 15.773855
-60.020279 53.322922 15.517772
-60.001034 53.324688 15.25874
-59.977085 53.326817 15.012287
-59.909058 53.33289 14.277089
-59.883919 53.335106 14.040472
-61.969925 53.14925 36.046352
-61.918476 53.153835 35.505974
-61.63892 53.178867 32.417767
-61.272118 53.211643 28.442242
-60.151489 53.311737 16.343224
-60.105774 53.315842 15.826388
-60.083961 53.31781 15.569333
-60.069962 53.319168 15.297626
-60.046017 53.321297 15.050439
-60.028126 53.322952 14.792712
-60.003666 53.325119 14.550797
-59.985317 53.326805 14.298713
-59.965809 53.328583 14.051196
-61.711292 53.173069 32.463173
-61.345413 53.205772 28.484728
-60.15955 53.311771 15.596392
-60.138454 53.313683 15.339859
-60.091167 53.31789 14.844691
-60.070267 53.319778 14.594475
-60.055492 53.32119 14.334396
-60.035954 53.322971 14.086208
-60.009663 53.325272 13.852624
-61.793633 53.166508 32.472813
-61.700245 53.174736 31.588888
-61.424007 53.19949 28.521473
-61.041451 53.233643 24.408113
-60.152084 53.313263 14.603651
-60.126411 53.315521 14.364897
-60.08226 53.319473 13.878396
-61.873905 53.160042 32.561665
-61.78685 53.167824 31.61743
-61.511391 53.192524 28.534081
-61.131203 53.226509 24.399994
-61.604317 53.185158 28.507833
-61.215736 53.219776 24.411861
-61.649601 53.181877 28.150826
-61.577271 53.191227 24.177074
-7.6704993 57.480488 23.129778
-7.757575 57.47681 19.53788
-7.74858 57.477921 19.100084
-7.7382522 57.479134 18.667328
-7.7265496 57.480453 18.239416
-8.0455294 57.456226 16.971226
-8.2989111 57.432957 20.411179
-8.2767849 57.435513 19.531963
-8.3668718 57.431046 16.550117
-8.4847231 57.423149 14.915393
-8.8239899 57.395035 16.159014
-8.8060226 57.397209 15.332281
-9.4124413 57.33033 35.934479
-9.0798407 57.370808 20.4382
-9.0583811 57.37331 19.559113
-9.0494967 57.374413 19.121698
-9.0393867 57.37561 18.689335
-9.0087776 57.3792 17.410528
-8.9785795 57.38274 16.155865
-8.9665642 57.384068 15.745009
-8.9606876 57.384911 15.329297
-8.9318705 57.388306 14.108994
-9.6326742 57.309921 39.125839
-9.5405188 57.320656 35.365757
-9.5192518 57.322868 34.789047
-9.3317108 57.345642 26.107529
-9.3224773 57.346825 25.611399
-10.192032 57.272488 31.319365
-10.419112 57.250748 35.381298
-10.551396 57.240211 35.397007
-10.44754 57.252098 31.388962
-10.575836 57.241879 31.403646
-10.813809 57.219322 35.410919
-10.711081 57.231121 31.402834
-10.851717 57.21994 31.39632
-10.99163 57.20882 31.384623
-11.211738 57.187622 35.461811
-11.321968 57.179356 34.905376
-11.351315 57.180614 30.934769
-11.45865 57.172546 30.414198
-11.528166 57.174629 22.001587
-13.464598 57.013245 30.111633
-13.455944 57.014427 29.565567
-13.434422 57.017097 28.506809
-13.423086 57.018471 27.988417
-13.406316 57.020252 27.492155
-13.384619 57.022896 26.480057
-13.295933 57.034306 21.665375
-13.286386 57.035477 21.209614
-13.274224 57.03685 20.763285
-13.417542 57.02113 25.534708
-13.281425 57.038235 18.597681
-13.260336 57.040691 17.73933
-13.252051 57.041737 17.310307
-13.244655 57.042713 16.882612
-13.226843 57.044891 16.040428
-13.222064 57.045654 15.616707
-13.212449 57.046795 15.203032
-13.188555 57.049812 13.968283
-13.550406 57.009117 27.132917
-13.636642 57.002205 27.189444
-13.740495 56.993889 27.25029
-13.964254 56.969856 34.135345
-13.966475 56.969624 34.201008
-13.854582 56.984924 27.127148
-13.864621 56.984047 27.21137
-14.05311 56.959053 38.264404
-13.996819 56.966911 34.530216
-14.047882 56.959423 38.314316
-14.059426 56.958439 38.386475
-14.13563 56.952385 38.378345
-14.154404 56.950882 38.388103
-14.097765 56.958775 34.64436
-14.032711 56.967575 30.641079
-14.181248 56.948723 38.416294
-14.059885 56.965393 30.663742
-14.130335 56.956123 34.713867
-14.059347 56.9659 30.149179
-14.147927 56.9552 34.186226
-14.093457 56.962631 30.762171
-14.194385 56.950951 34.797771
-14.128675 56.95982 30.775497
-14.146212 56.958416 30.783941
-14.139775 56.959431 30.227365
-14.22802 56.94878 34.241997
-14.171905 56.956352 30.805698
-14.26548 56.945255 34.84124
-14.281718 56.94397 34.836327
-14.267933 56.945595 34.251064
-14.20305 56.954372 30.253262
-14.223165 56.952763 30.267529
-14.23222 56.952023 30.287588
-14.384103 56.932365 38.6572
-14.239272 56.951458 30.290174
-14.332659 56.939865 34.895512
-14.26228 56.949127 30.844049
-14.257672 56.949982 30.303497
-14.40166 56.930279 39.42086
-14.245413 56.950905 30.364752
-14.307077 56.942318 34.432541
-14.236849 56.951534 30.421251
-14.307212 56.941643 35.167183
-14.29777 56.94294 34.560799
-14.297875 56.942886 34.610516
-14.296846 56.942814 34.783707
-14.288499 56.944027 34.178181
-14.355043 56.934715 38.616028
-14.213616 56.953548 30.235083
-14.211081 56.953712 30.277079
-14.350292 56.935001 38.71851
-14.289111 56.94326 34.969517
-14.210331 56.953709 30.349466
-14.204756 56.954082 30.427465
-14.253909 56.945858 35.192398
-14.313532 56.938236 38.373886
-14.251357 56.946583 34.616238
-14.189092 56.955208 30.558163
-14.265906 56.945427 34.614635
-14.191078 56.954994 30.619869
-14.18684 56.955307 30.648851
-14.314708 56.938015 38.51683
-14.253275 56.94632 34.738461
-14.289581 56.942841 35.391293
-14.353084 56.934895 38.591045
-14.213807 56.953079 30.738684
-14.351374 56.934994 38.630981
-14.284161 56.943768 34.845135
-14.217095 56.952259 31.355677
-14.189849 56.954826 30.915726
-14.314995 56.937695 38.84581
-14.182961 56.95536 30.927498
-14.290236 56.93959 38.926117
-14.292345 56.939423 38.925701
-14.243238 56.946823 35.06525
-14.171215 56.953026 34.543922
-14.159696 56.953339 35.208469
-14.165366 56.952728 35.383976
-14.223907 56.944515 39.315029
-14.141719 56.955055 34.892315
-14.19101 56.947617 38.778778
-14.187062 56.947884 38.833618
-14.067468 56.964542 30.933352
-14.199477 56.946796 38.943413
-14.064526 56.964756 30.95841
-14.189061 56.947598 38.972637
-14.125859 56.956108 35.12294
-14.11451 56.956989 35.147583
-14.115283 56.956898 35.181889
-14.119239 56.953495 38.593582
-14.219479 56.944992 39.179447
-14.13594 56.955688 34.701305
-14.109957 56.96093 31.193705
-14.294539 56.938896 39.315018
-14.270692 56.944847 34.836708
-14.211159 56.953175 30.86697
-14.45542 56.926426 38.95406
-14.377333 56.936131 35.093849
-14.294201 56.946453 30.994953
-14.416973 56.936695 30.983198
-14.402795 56.937653 31.173231
-14.571528 56.917431 38.686577
-14.401434 56.938011 30.897635
-14.498589 56.926487 35.089207
-14.525909 56.92432 35.081696
-14.509257 56.929329 31.00979
-14.707864 56.91349 31.056536
-14.724313 56.912132 31.111658
-14.740533 56.910812 31.14189
-14.840999 56.902882 31.075228
-14.965937 56.889137 35.28117
-15.014091 56.889118 31.069408
-15.018254 56.888741 31.118307
-15.016088 56.888863 31.17473
-15.148805 56.871754 38.414253
-15.112214 56.881447 30.917599
-15.228706 56.864681 39.20866
-15.274466 56.868462 31.005346
-15.455303 56.847115 38.698521
-15.416556 56.857033 31.142416
-15.426713 56.856724 30.593552
-15.430717 56.859943 26.684269
-15.538573 56.847225 31.254133
-15.641495 56.836193 34.39846
-15.542114 56.854317 23.108107
-15.470487 56.867119 15.254038
-15.649889 56.845211 23.696341
-15.616512 56.857571 12.968143
-15.660161 56.853256 13.899507
-15.646827 56.855167 12.961028
-15.685543 56.851238 13.899301
-15.678122 56.852253 13.429296
-15.672149 56.853153 12.960315
-16.362295 56.790371 21.670609
-16.152458 56.814697 13.23416
-16.122297 56.817093 13.238267
-16.02664 56.824211 13.782199
-16.055536 56.813591 22.977757
-15.898252 56.834415 13.789971
-15.888209 56.835655 13.303662
-15.938678 56.822807 23.064249
-15.78811 56.843121 13.853082
-15.777316 56.844864 12.875189
-15.888844 56.826252 23.640995
-15.879262 56.827503 23.09989
-15.824882 56.831318 23.664698
-15.822243 56.832024 23.115774
-15.758199 56.836601 23.687384
-15.714547 56.839054 24.813934
-15.690135 56.842484 23.169359
-13.459755 57.005157 39.478859
-13.418041 57.012192 35.370262
-13.389574 57.016804 32.777069
-13.246741 57.032593 27.885303
-13.10439 57.042747 29.175745
-13.105724 57.043736 27.966291
-13.092899 57.045284 27.383595
-13.071065 57.048065 26.227444
-13.069929 57.048683 25.646219
-13.051407 57.051182 24.512278
-12.786111 57.071651 25.214415
-12.758915 57.07933 19.117706
-12.727001 57.072079 29.940271
-12.720987 57.073105 29.331959
-12.681014 57.078426 26.965445
-12.605915 57.08226 29.330559
-12.590547 57.084023 28.736586
-12.581898 57.085251 28.140203
-12.580009 57.085941 27.54171
-12.560253 57.08857 26.375072
-12.503457 57.087582 32.460747
-12.505003 57.088612 31.184578
-12.480831 57.09108 30.584167
-12.468709 57.093151 29.357822
-12.476984 57.093056 28.737368
-12.453986 57.095955 27.553854
-12.437795 57.098305 26.381849
-12.42759 57.099636 25.804501
-12.360188 57.100071 31.251587
-12.371304 57.09977 30.609667
-12.353678 57.101715 30.006035
-12.326903 57.104935 28.804239
-12.329846 57.105251 28.19367
-12.296423 57.110035 25.846096
-12.242908 57.108791 31.924318
-12.238897 57.109684 31.292805
-12.218008 57.111893 30.686193
-12.224035 57.111984 30.054834
-12.204838 57.114609 28.842957
-12.167679 57.119705 26.476171
-12.114535 57.118397 32.597935
-12.088577 57.123291 29.470345
-12.047592 57.128166 27.684546
-11.999205 57.126987 33.24115
-11.972528 57.130829 31.339512
-11.975237 57.131191 30.704346
-11.952979 57.134624 28.866116
-9.0056152 57.362347 36.317802
-8.8138771 57.377502 36.425625
-8.6498766 57.390472 36.507198
-8.6318054 57.392521 35.831802
-8.483736 57.402325 38.014053
-8.4485264 57.406372 36.638023
-28.003767 55.860687 25.644978
-27.926437 55.869213 23.022896
-28.104313 55.855106 22.976507
-28.670298 55.810146 22.903654
-28.670145 55.810749 22.251451
-28.915417 55.791241 22.248373
-29.028749 55.781631 22.902313
-29.203842 55.767735 22.87051
-33.184444 55.448109 26.147573
-33.109512 55.457558 22.292789
-33.147617 55.455116 21.639318
-33.075863 55.461365 21.0411
-33.266354 55.445679 21.632481
-34.057323 55.378807 25.998442
-37.601009 55.092724 30.619078
-37.517879 55.102905 26.672831
-37.985916 55.062206 30.503271
-41.481037 54.791725 22.150349
-43.052559 54.662971 26.284594
-42.962719 54.673996 21.997263
1.2367399 58.180679 32.39362
1.1788623 58.17659 31.827112
1.2027559 58.178879 31.395571
1.2323289 58.18161 30.980106
1.2182424 58.180916 30.508678
1.2696309 58.185337 30.139303
1.2620457 58.185139 29.69318
1.2552187 58.18499 29.256287
1.2801946 58.187325 28.87006
1.148924 58.173706 32.380352
1.1488129 58.174129 31.902311
1.1682943 58.176079 31.463009
1.1835233 58.177685 31.025421
1.1845968 58.178177 30.575266
1.1762677 58.177929 30.12009
1.1938075 58.179695 29.709539
1.1921599 58.179951 29.279621
1.2069585 58.181492 28.879484
1.212813 58.182323 28.474092
1.2200805 58.183262 28.077303
1.2183573 58.183487 27.675507
1.255437 58.186752 27.329033
1.2626246 58.187664 26.950441
1.2501087 58.187027 26.553854
1.2743886 58.18961 25.837534
1.1140391 58.170879 32.43911
1.0997995 58.1702 31.938622
1.1292007 58.172924 31.51375
1.1397915 58.174168 31.068626
1.121248 58.173126 30.589491
1.1329947 58.174446 30.162783
1.1406487 58.175438 29.737871
1.1646317 58.177704 29.34281
1.1643498 58.178062 28.921432
1.1548529 58.177692 28.495167
1.1779047 58.179867 28.118738
1.1922305 58.181355 27.736908
1.1817511 58.180889 27.329884
1.204983 58.18306 26.971264
1.2087713 58.183704 26.594242
1.2254524 58.185352 26.238354
1.2334563 58.186317 25.877394
1.2271411 58.18615 25.505259
1.2285794 58.186588 25.147533
1.0724977 58.167526 32.494175
1.0683388 58.167633 32.008057
1.0739251 58.168495 31.546196
1.0798838 58.16938 31.093649
1.0913399 58.170685 30.65749
1.1085967 58.17244 30.237423
1.1117458 58.17308 29.804897
1.1209247 58.174187 29.38835
1.1312858 58.175381 28.980532
1.122236 58.175045 28.553816
1.140484 58.176846 28.170141
1.1499168 58.177948 27.781183
1.139783 58.177509 27.373829
1.1526166 58.178867 27.001659
1.156651 58.179531 26.624437
1.1681217 58.180771 26.261873
1.1757376 58.182034 25.534859
0.99246752 58.161591 32.016655
1.0309665 58.165855 30.687664
1.0520477 58.168304 29.834713
1.0513698 58.16864 29.403978
1.0635296 58.170349 28.583076
1.0865645 58.172886 27.803326
1.092658 58.173721 27.415894
0.99311888 58.164371 29.000946
1.0082664 58.166302 28.197256
1.0128206 58.167023 27.80143
0.96043599 58.162838 27.820662
0.89177799 58.15662 28.65494
0.80104911 58.149662 28.368877
0.71483392 58.139656 31.846806
0.73053342 58.142128 30.497625
0.74630445 58.144154 29.645943
0.75321513 58.145081 29.22986
0.7499969 58.145576 28.396381
0.64488983 58.133236 32.793884
0.64278173 58.133511 32.306221
0.66673434 58.13665 30.943945
0.71111363 58.142456 28.42713
0.58188152 58.130322 30.477314
0.58683592 58.131107 30.043661
0.60474324 58.133286 29.210123
0.4709956 58.121555 30.416054
0.25515699 58.103676 31.197638
0.28048837 58.106873 29.893698
0.26153576 58.106129 29.050943
0.13933624 58.094833 30.788589
0.096356213 58.091774 30.390936
0.0065222546 58.082928 32.269264
-0.040772915 58.079147 32.289913
-0.020802306 58.082375 30.477503
-0.016721547 58.083092 30.043707
-0.013855057 58.084469 28.774967
-0.0052619334 58.085514 28.376511
-0.10397557 58.075382 30.895828
-0.096776552 58.076748 30.019524
-0.086777888 58.077919 29.601912
-0.070026673 58.080364 28.373594
-0.16227368 58.07233 29.142941
-4.3950381 57.732563 32.512634
-6.7255573 57.555668 23.12043
-6.7122631 57.557003 22.810549
-6.7862916 57.551414 22.481884
-6.7785268 57.552589 21.862677
-8.2248068 57.433754 26.045778
-8.1881332 57.438843 23.643194
-8.1539574 57.443546 21.451935
-8.1369581 57.445961 20.276987
-8.2372799 57.436092 22.365417
-8.2350931 57.436546 22.053822
-9.5214787 57.325336 31.866858
-9.8537874 57.298988 31.767969
-9.9373007 57.292381 31.727802
-10.101443 57.279388 31.658873
-10.460504 57.255684 26.2855
-10.438049 57.260204 23.266235
-10.431053 57.261627 22.310005
-12.321332 57.11047 23.174606
-12.320893 57.110798 22.852552
-12.323164 57.110905 22.531898
-12.318053 57.111874 21.911636
-12.322303 57.111816 21.600695
-12.317176 57.112495 21.302
-12.308461 57.113453 21.009804
-12.30812 57.113747 20.713387
-12.316239 57.113373 20.413004
-12.381706 57.09882 30.741831
-12.37306 57.099895 30.315109
-12.340548 57.111134 20.754293
-12.336258 57.111736 20.463854
-12.428101 57.093414 32.638268
-12.4259 57.094017 32.166935
-12.428267 57.094254 31.69772
-12.420544 57.095268 31.252401
-12.417063 57.095947 30.808996
-12.4178 57.096287 30.367567
-12.412706 57.097076 29.942282
-12.406547 57.097946 29.525854
-12.409369 57.098103 29.104303
-12.405847 57.098751 28.698471
-12.400885 57.099503 28.301239
-12.399565 57.099968 27.905741
-12.401863 57.10014 27.512033
-12.391812 57.101276 27.139986
-12.385087 57.102146 26.769453
-12.381668 57.102753 26.400478
-12.37919 57.103607 25.673773
-13.624399 56.999329 31.44433
-16.427353 56.776779 30.972418
-16.392982 56.781044 29.279608
-17.570906 56.688751 27.721292
-17.717999 56.674545 30.486511
-18.085081 56.647835 27.733215
-18.119463 56.645096 27.739771
-20.446836 56.454926 33.296005
-20.438406 56.456024 32.821243
-20.423786 56.459648 30.10273
-20.41687 56.4617 28.442711
-20.483438 56.451897 33.425323
-20.464357 56.453831 32.964668
-20.497776 56.451653 32.432381
-20.447647 56.45763 30.23402
-20.454218 56.457504 29.794504
-20.45986 56.457447 29.364071
-20.448908 56.458679 28.96316
-20.436447 56.460026 28.570702
-20.431044 56.462547 26.257792
-20.43778 56.462353 25.883926
-20.414598 56.464497 25.549469
-20.416634 56.464661 25.191324
-20.41058 56.465454 24.847095
-20.418852 56.465115 24.492203
-20.401724 56.46677 24.169003
-20.489784 56.451283 33.544945
-20.479183 56.452557 33.068626
-20.478031 56.453083 32.586979
-20.590128 56.44598 30.583895
-20.477135 56.455219 30.305128
-20.472595 56.456352 29.454811
-20.537701 56.452362 28.140499
-20.532602 56.453815 26.97942
-20.532536 56.454163 26.602423
-20.475805 56.458954 26.297541
-20.486292 56.460655 23.492868
-20.476915 56.461983 22.849941
-20.479225 56.46209 22.527666
-20.684025 56.43774 31.432371
-20.661827 56.440292 30.566626
-20.633902 56.445461 27.30842
-20.609047 56.447758 26.956245
-20.592703 56.449379 26.598774
-20.562727 56.454292 23.803232
-20.545216 56.455971 23.488644
-20.559387 56.455154 23.146257
-20.558981 56.455479 22.822783
-20.753918 56.432182 31.431444
-20.721415 56.435539 30.57991
-20.696793 56.440453 27.314135
-20.682503 56.441921 26.948843
-20.666056 56.44355 26.59144
-20.629208 56.449306 23.470284
-20.62011 56.450321 23.151199
-20.621695 56.450779 22.505539
-20.815985 56.428024 30.56978
-20.779913 56.433834 27.319229
-20.749353 56.436581 26.973675
-20.748857 56.436958 26.596823
-20.716389 56.442371 23.471062
-20.688978 56.445118 22.845982
-20.685043 56.445717 22.529491
-20.881693 56.422764 30.608809
-20.828154 56.430294 26.991953
-20.75392 56.436798 26.329792
-20.76086 56.439083 23.19434
-20.754028 56.439915 22.876503
-20.755733 56.440071 22.554298
-20.80456 56.429115 30.370703
-20.868786 56.427032 27.023664
-20.846384 56.429134 26.672569
-20.794373 56.433552 26.361137
-20.810141 56.434849 23.543036
-20.800549 56.435898 23.223751
-20.799473 56.436279 22.899979
-20.783508 56.437824 22.594559
-20.858004 56.424877 30.354704
-20.917944 56.422783 27.400433
-20.903198 56.424286 27.034832
-20.850769 56.429081 26.346384
-20.853489 56.431694 23.215994
-20.852621 56.432056 22.892292
-20.836853 56.433586 22.586939
-20.961227 56.419685 27.018278
-20.949915 56.420914 26.654154
-20.898224 56.425308 26.342749
-20.922522 56.42593 23.519342
-20.907476 56.42741 23.205975
-20.900881 56.428223 22.887985
-20.902822 56.42836 22.56563
-21.050098 56.412312 27.351128
-21.035667 56.413792 26.985779
-21.035318 56.414162 26.608915
-20.962044 56.42025 26.323421
-20.998308 56.41993 23.488932
-20.977587 56.421856 23.181551
-20.982761 56.421741 22.852289
-20.967226 56.423252 22.547138
-21.123434 56.406506 27.321901
-21.109118 56.407974 26.956749
-21.092649 56.409607 26.599487
-21.044003 56.41629 23.491224
-21.052223 56.415943 23.154812
-21.03997 56.417198 22.842888
-21.036184 56.417786 22.526466
-21.214018 56.396362 30.569843
-21.15822 56.403717 27.345631
-21.149151 56.404774 26.973682
-21.143423 56.405567 26.603289
-21.11211 56.410885 23.476862
-21.103029 56.411896 23.157919
-21.108309 56.411774 22.828808
-21.092878 56.413277 22.523794
-21.202339 56.400551 26.964725
-21.196833 56.401325 26.594393
-21.167374 56.406498 23.46855
-21.158485 56.407494 23.149675
-21.146423 56.408733 22.837742
-21.142828 56.409306 22.521318
-21.276831 56.394321 27.303282
-21.262985 56.395752 26.938179
-21.174091 56.403404 26.295454
-21.207497 56.404182 22.497429
-21.377146 56.383427 30.524294
-21.344442 56.389648 26.520863
-21.282101 56.397694 23.110525
-21.293711 56.397072 22.776014
-21.278778 56.398537 22.471344
-21.242662 56.401665 22.189919
-21.47929 56.375359 30.458027
-21.482359 56.377739 27.558147
-21.465506 56.37941 27.192381
-21.457289 56.380402 26.821486
-21.446997 56.381546 26.458616
-21.399454 56.38813 23.364927
-21.385136 56.389549 23.052523
-21.385094 56.389847 22.729853
-21.387779 56.389923 22.408613
-21.54059 56.370499 30.441124
-21.558029 56.371754 27.521038
-21.557089 56.372177 27.135674
-21.538202 56.374004 26.778139
-21.533297 56.374725 26.409031
-21.468651 56.382652 23.335396
-21.477459 56.382252 23.000053
-21.465794 56.383461 22.689117
-21.456709 56.384464 22.379337
-21.685852 56.358669 30.741873
-21.600803 56.365726 30.421316
-21.624411 56.366497 27.495243
-21.634283 56.36607 27.096893
-21.599537 56.369141 26.759151
-21.578522 56.371128 26.409451
-21.542629 56.376793 23.305668
-21.545815 56.376839 22.976318
-21.52845 56.378494 22.671221
-21.653526 56.361507 30.449545
-21.704578 56.360123 27.489614
-21.688162 56.361759 27.124363
-21.669638 56.363556 26.767015
-21.638044 56.366375 26.430307
-21.603542 56.371929 23.326284
-21.601068 56.372417 23.002659
-21.607172 56.372231 22.674753
-21.586678 56.37413 22.376467
-21.711687 56.356876 30.454983
-21.713902 56.360012 26.792963
-21.704054 56.361122 26.43042
-21.654533 56.367855 23.345633
-21.634764 56.369705 23.039261
-21.64673 56.369053 22.705437
-21.638042 56.370026 22.395788
-21.773378 56.351959 30.465364
-21.772425 56.355 27.187031
-21.764547 56.355961 26.81633
-21.765411 56.356236 26.440754
-21.709869 56.363438 23.361786
-21.707457 56.363922 23.038073
-21.696098 56.365108 22.727131
-21.704948 56.3647 22.400492
-21.847795 56.346046 30.456919
-21.851059 56.348759 27.172569
-21.837734 56.350147 26.808519
-21.816839 56.352127 26.458811
-21.776154 56.358166 23.36054
-21.761993 56.359573 23.048349
-21.767939 56.359398 22.720209
-21.759052 56.360386 22.410494
-21.899334 56.341946 30.459129
-21.917192 56.343513 27.154123
-21.91993 56.343643 26.770609
-21.899134 56.345615 26.421164
-21.853487 56.352039 23.331253
-21.850977 56.352531 23.007767
-21.822014 56.355103 22.714092
-21.830652 56.35471 22.387474
-21.955616 56.337475 30.448854
-21.995647 56.336956 27.502659
-21.987289 56.338306 26.747393
-21.944983 56.341965 26.423836
-21.916204 56.347065 23.315243
-21.902161 56.348465 23.003332
-21.90822 56.348278 22.675501
-21.899446 56.349258 22.366074
-22.02527 56.331955 30.4275
-22.066483 56.331341 27.482632
-22.042347 56.333927 26.747282
-22.010883 56.336735 26.410839
-21.977325 56.342209 23.309305
-21.969147 56.343147 22.991713
-21.981144 56.342495 22.658344
-21.96076 56.344387 22.360348
-22.074219 56.328041 30.447006
-22.113819 56.327908 27.116259
-22.111416 56.328438 26.73959
-22.06918 56.332092 26.416172
-22.04093 56.337151 23.308815
-22.038542 56.337631 22.985544
-22.009708 56.340191 22.692074
-22.018463 56.33979 22.365683
-22.173464 56.32349 26.752819
-22.152653 56.325462 26.403576
-22.112572 56.331451 23.309748
-22.110079 56.33194 22.986551
-22.104486 56.332672 22.670437
-22.095671 56.333652 22.361233
-24.433844 56.140972 29.740992
-24.437149 56.141834 28.49869
-24.437246 56.143909 26.197212
-24.42918 56.144871 25.843109
-24.413141 56.146454 25.502953
-24.411171 56.146927 25.151663
-24.417871 56.146717 24.795813
-24.416388 56.147144 24.453773
-24.42354 56.146889 24.107267
-24.487566 56.133396 33.390877
-24.460838 56.135925 32.945297
-24.433855 56.140514 30.244125
-24.436703 56.140682 29.811584
-24.474312 56.138115 29.339687
-24.418488 56.142864 29.000605
-24.443581 56.141266 28.560429
-24.451719 56.142715 26.242271
-24.437784 56.144138 25.893942
-24.426868 56.145321 25.546925
-24.446817 56.144077 25.170385
-24.414024 56.146969 24.857019
-24.429012 56.146103 24.496107
-24.447182 56.144981 24.13711
-24.4944 56.136475 29.386307
-24.479 56.140518 26.272005
-24.58609 56.134014 24.045088
-24.56937 56.133369 26.227924
-24.7533 56.122242 22.3533
-24.814846 56.117359 22.340292
-24.739058 56.123608 22.098875
-24.890488 56.104042 30.410267
-24.777279 56.12056 22.105398
-24.948271 56.099461 30.391048
-24.94763 56.106838 22.295877
-24.986631 56.096394 30.40703
-25.017422 56.097614 26.352343
-24.994881 56.103077 22.296312
-24.901541 56.110706 22.071564
-25.063591 56.090298 30.380871
-25.068848 56.093517 26.360886
-25.057312 56.098114 22.292833
-25.054375 56.090954 30.465397
-25.125378 56.089024 26.354124
-25.109171 56.09399 22.292482
-25.168835 56.085579 26.343454
-25.154497 56.090393 22.281824
-25.217806 56.081696 26.328632
-25.210531 56.085953 22.261471
-25.288111 56.07613 26.296776
-25.26462 56.081661 22.248938
-25.334074 56.072479 26.292707
-25.316345 56.077557 22.238506
-25.395109 56.067642 26.273479
-25.367605 56.073486 22.232105
-25.452757 56.063057 26.270807
-25.432116 56.068359 22.224667
-25.476151 56.06115 26.323481
-25.493374 56.06348 22.233219
-25.548771 56.05537 26.324144
-25.542406 56.059555 22.25782
-25.63294 56.048695 26.302324
-25.609623 56.054211 22.256111
-25.686535 56.044426 26.308184
-25.689772 56.047855 22.232485
-25.797123 56.035679 26.254431
-25.862797 56.030479 26.223886
-25.944143 56.024021 26.211416
-26.01664 56.01825 26.217178
-26.066303 56.014275 26.243734
-28.424303 55.827114 25.777397
-28.412781 55.828979 24.731445
-28.396746 55.833164 21.512947
-28.385698 55.834309 21.221273
-28.388737 55.834339 20.920027
-28.426992 55.826832 25.854858
-28.447845 55.82584 25.117157
-28.458055 55.827724 22.134651
-28.39588 55.832897 21.884857
-28.411148 55.831974 21.563972
-28.405657 55.83268 21.266335
-28.414318 55.832268 20.959261
-28.508623 55.823689 22.153465
-28.452654 55.829193 20.988113
-28.551378 55.820263 22.177137
-28.622448 55.814617 22.168579
-28.724634 55.806534 22.120035
-28.785349 55.801716 22.104364
-28.844809 55.797001 22.088526
-29.14975 55.768974 26.255167
-29.23287 55.762363 26.251024
-29.362301 55.752041 26.282026
-29.559698 55.736328 26.292768
-52.755608 53.883236 34.964649
-52.816437 53.878365 34.998436
-52.767429 53.882763 34.447464
-52.722084 53.886864 33.898937
-52.862339 53.874668 35.050129
-52.820465 53.878525 34.466927
-52.769577 53.883049 33.941952
-52.718365 53.887581 33.434917
-52.914581 53.870483 35.07885
-52.861813 53.875168 34.543194
-52.814392 53.879429 34.001858
-52.755516 53.884544 33.525814
-52.714954 53.888256 32.989002
-52.67989 53.891537 32.447048
-52.969013 53.866116 35.123192
-52.921421 53.870407 34.563301
-52.875694 53.874542 34.013859
-52.826111 53.878952 33.498379
-52.776062 53.883385 33.000706
-52.723385 53.888 32.528362
-52.689495 53.891178 31.996271
-52.879147 53.874241 34.042763
-52.829411 53.878662 33.526939
-52.779209 53.88311 33.028919
-52.734135 53.88715 32.525211
-52.686409 53.89138 32.046856
-52.649731 53.894756 31.539955
-52.612282 53.898178 31.05076
-52.878723 53.87471 33.563408
-52.832279 53.878868 33.049488
-52.783371 53.883202 32.561104
-52.735607 53.887432 32.082458
-52.682892 53.892029 31.636385
-52.647133 53.895325 31.138861
-52.618725 53.898045 30.628784
-52.880699 53.874981 33.08688
-52.831787 53.879314 32.598202
-52.693493 53.891598 31.182644
-52.652641 53.895267 30.717377
-52.627274 53.897747 30.209406
-52.839752 53.879101 32.134533
-52.789085 53.883541 31.680399
-52.74728 53.887299 31.20525
-52.660152 53.895042 30.306364
-52.627125 53.898094 29.837593
-52.716267 53.890549 30.340904
-52.676697 53.8941 29.894091
-52.64418 53.897102 29.434603
-52.621082 53.899372 28.955559
-52.660736 53.896126 29.056389
-52.629032 53.899048 28.615461
-52.606754 53.901237 28.155243
-52.612171 53.901096 27.833736
-52.594818 53.902889 27.377731
-52.602463 53.90258 27.048803
-52.578415 53.904869 26.631981
-52.564022 53.906406 26.196898
-52.561729 53.906853 25.908213
-52.570454 53.906452 25.584509
-52.550735 53.908379 25.188814
-52.560303 53.90789 24.887764
-52.547474 53.909271 24.489298
-52.552883 53.909081 24.224131
-52.541805 53.910313 23.835968
-52.5401 53.910656 23.605085
-52.53825 53.911163 23.207935
-52.55246 53.909912 23.341354
-52.544662 53.910873 22.96443
-52.544224 53.911121 22.728649
-52.543076 53.911556 22.349293
-52.542156 53.911839 22.11615
-52.528637 53.913223 21.776562
-52.537903 53.912689 21.549528
-52.527634 53.913811 21.21282
-52.526932 53.914356 20.675186
-52.5215 53.915089 20.343462
-52.505596 53.917099 19.518602
-52.497795 53.917999 19.210093
-52.484669 53.919476 18.73159
-52.486946 53.919579 18.417057
-52.476128 53.920856 17.955414
-52.476456 53.921101 17.655558
-52.474133 53.921707 17.192282
-52.466042 53.9226 16.915789
-52.465649 53.923038 16.463753
-52.466103 53.923656 15.742455
-52.453587 53.925278 15.050245
-52.441525 53.926853 14.370951
-52.434807 53.92799 13.704987
-54.605782 53.735096 36.019547
-54.663216 53.730534 36.01527
-54.706287 53.727077 36.048882
-54.755707 53.723133 36.060299
-54.823341 53.717766 36.045185
-54.7495 53.724045 35.599468
-54.69426 53.728912 35.07494
-54.837505 53.717148 35.484165
-54.76825 53.723068 35.031986
-54.670647 53.731789 33.973633
-54.9091 53.711494 35.438232
-54.857708 53.716072 34.898647
-54.791523 53.721745 34.448273
-54.74279 53.726089 33.92831
-54.692013 53.730576 33.433922
-54.869633 53.715576 34.397762
-54.812767 53.720535 33.917343
-54.765373 53.724766 33.407349
-54.715775 53.729149 32.922745
-54.612404 53.738197 32.012787
-54.789505 53.723312 32.889572
-54.741062 53.727596 32.414726
-54.684673 53.732471 31.987568
-54.8508 53.718441 32.885643
-54.805912 53.722458 32.395348
-54.754997 53.726913 31.945322
-54.930794 53.712128 32.830402
-54.877453 53.716782 32.378883
-54.828354 53.7211 31.921278
-54.769283 53.726162 31.518446
-54.72142 53.73037 31.079027
-54.904758 53.715034 31.909143
-54.858185 53.719151 31.453331
-54.8069 53.723614 31.029413
-54.973015 53.709621 31.888914
-54.919506 53.714264 31.463516
-54.873684 53.718311 31.016911
-54.822987 53.722721 30.601927
-54.770779 53.727234 30.203131
-54.735783 53.730431 29.746761
-55.024303 53.705528 31.904942
-54.979816 53.709484 31.44146
-54.887596 53.717613 30.565117
-54.835781 53.722095 30.166525
-54.786049 53.726414 29.769142
-54.751785 53.729542 29.322012
-55.076977 53.701313 31.930189
-55.034351 53.705132 31.458883
-54.992561 53.708874 30.997129
-54.942398 53.713238 30.582153
-54.903683 53.716728 30.131527
-54.858051 53.72073 29.71966
-54.814606 53.724556 29.309303
-54.769463 53.728504 28.914976
-55.056816 53.703751 31.011324
-55.012112 53.707703 30.573835
-54.969772 53.711464 30.138071
-54.931664 53.714893 29.696751
-54.886463 53.718853 29.293856
-54.843376 53.722645 28.892412
-54.790649 53.727161 28.535505
-55.083073 53.702045 30.584787
-55.037052 53.706089 30.163776
-55.000713 53.709385 29.714922
-54.947926 53.713924 29.341078
-54.91045 53.717285 28.917583
-54.861614 53.721508 28.546165
-54.828484 53.724525 28.126053
-54.783577 53.728428 27.757298
-55.13797 53.697628 30.64118
-55.097351 53.70126 30.197521
-55.05542 53.704983 29.77047
-55.017654 53.708378 29.337862
-54.976486 53.712025 28.928877
-54.931644 53.715939 28.543049
-54.888783 53.719696 28.158548
-54.853878 53.722839 27.754276
-55.154194 53.696732 30.207722
-55.108795 53.700714 29.795296
-55.071178 53.704098 29.362478
-55.028263 53.707874 28.960529
-54.995171 53.710896 28.531376
-54.950649 53.714779 28.154093
-54.915993 53.717903 27.749851
-54.867317 53.722088 27.403378
-54.830547 53.725357 27.023125
-55.1744 53.695503 29.78643
-55.133266 53.699154 29.368244
-55.094326 53.702629 28.951738
-55.055653 53.706074 28.544157
-55.023014 53.709049 28.124029
-54.982697 53.712605 27.741182
-54.938293 53.716461 27.380764
-54.901791 53.719711 27.000679
-54.865154 53.722961 26.629019
-54.822025 53.726704 26.286077
-55.207581 53.693253 29.358467
-55.164837 53.697014 28.956438
-55.129917 53.700176 28.534386
-55.08556 53.704044 28.156963
-55.052963 53.707008 27.745527
-55.010525 53.71072 27.377989
-54.978031 53.713661 26.98398
-54.941406 53.716911 26.612387
-54.902489 53.720329 26.255892
-54.86533 53.723606 25.900684
-54.829922 53.726742 25.546818
-54.794098 53.729904 25.200953
-55.368237 53.67971 30.198538
-55.32827 53.683285 29.763876
-55.290604 53.686672 29.33107
-55.245853 53.69059 28.936344
-55.206921 53.694054 28.528666
-55.172039 53.697205 28.11557
-55.133438 53.700626 27.7255
-55.090866 53.704346 27.357969
-55.054142 53.707611 26.977842
-55.029572 53.709938 26.564955
-54.986481 53.713676 26.222322
-54.947136 53.717121 25.873995
-54.915855 53.719944 25.506861
-54.879974 53.72311 25.161203
-54.843594 53.726311 24.823402
-55.495583 53.669212 30.605963
-55.449562 53.673252 30.18441
-55.405724 53.67712 29.76441
-55.373249 53.680115 29.309597
-55.328323 53.684048 28.914885
-55.291077 53.687386 28.500063
-55.254074 53.690697 28.094164
-55.215282 53.694134 27.704119
-55.178478 53.697414 27.315643
-55.133636 53.701302 26.963411
-55.104717 53.70396 26.564228
-55.067585 53.707245 26.201025
-55.030167 53.710541 25.845974
-54.998714 53.713375 25.478933
-54.958416 53.716885 25.146563
-54.930519 53.719433 24.782557
-54.893494 53.722675 24.452671
-55.529922 53.666897 30.143847
-55.489731 53.670486 29.709339
-55.451828 53.673897 29.276693
-55.410645 53.67754 28.867651
-55.371571 53.681019 28.460243
-55.332695 53.684471 28.06164
-55.288101 53.688354 27.692846
-55.253185 53.691486 27.297338
-55.214325 53.694916 26.924343
-55.179344 53.698044 26.545933
-55.150368 53.700699 26.155565
-55.102654 53.704788 25.83441
-55.073223 53.707466 25.460653
-55.03717 53.710648 25.115078
-55.011414 53.713032 24.744686
-54.936832 53.719555 24.092855
-54.907425 53.722202 23.752775
-55.592541 53.661926 30.135151
-55.550636 53.665646 29.707918
-55.51096 53.669186 29.282433
-55.471657 53.672688 28.865978
-55.432632 53.676163 28.458443
-55.395706 53.679466 28.05261
-55.353146 53.683193 27.676695
-55.318325 53.686321 27.281183
-55.279572 53.689743 26.908176
-55.244682 53.69286 26.52976
-55.20966 53.69598 26.15976
-55.17028 53.699429 25.811489
-55.140949 53.702099 25.437794
-55.098667 53.705757 25.112059
-55.072918 53.708141 24.741543
-55.033833 53.711544 24.418169
-55.007244 53.713978 24.063828
-54.971291 53.717129 23.742872
-54.945831 53.719467 23.397968
-55.662033 53.656406 30.124821
-55.618401 53.660255 29.704922
-55.535778 53.66758 28.877291
-55.50045 53.670769 28.455254
-55.463539 53.674072 28.049356
-55.424866 53.677502 27.6593
-55.38036 53.68137 27.298723
-55.349457 53.684193 26.89781
-55.310604 53.687611 26.533092
-55.271507 53.691044 26.176537
-55.240311 53.693867 25.801107
-55.206837 53.696854 25.440733
-55.175133 53.699703 25.081888
-55.13451 53.703228 24.757271
-55.101879 53.706135 24.414236
-55.06871 53.709076 24.079018
-55.039356 53.71172 23.7388
-55.011642 53.71423 23.400091
-55.613358 53.661419 28.864464
-55.577999 53.664612 28.442492
-55.537296 53.668205 28.050854
-55.496651 53.671783 27.667774
-55.452095 53.675655 27.307077
-55.42107 53.678486 26.906044
-55.39011 53.681305 26.513803
-55.353069 53.684578 26.150589
-55.313713 53.688026 25.802248
-55.28017 53.691021 25.441811
-55.250492 53.69371 25.076311
-55.21413 53.696911 24.738636
-55.181515 53.699814 24.395739
-55.148369 53.702755 24.060654
-55.114609 53.705738 23.733232
-55.682629 53.655907 28.866497
-55.645397 53.659245 28.45162
-55.604675 53.662838 28.059858
-55.565907 53.666275 27.669619
-55.525234 53.669849 27.294907
-55.494232 53.672676 26.893932
-55.463291 53.675495 26.501753
-55.416256 53.679535 26.172531
-55.382946 53.682518 25.803764
-55.349384 53.685513 25.443262
-55.315502 53.688526 25.090881
-55.279087 53.69173 24.75301
-55.250694 53.694309 24.396988
-55.215374 53.697418 24.068232
-55.179398 53.700569 23.747002
-55.118607 53.706001 23.089325
-55.089394 53.708618 22.765623
-55.782162 53.647591 29.303797
-55.709221 53.65416 28.457472
-55.670422 53.657608 28.058481
-55.629845 53.661182 27.675205
-55.591156 53.664604 27.293383
-55.554356 53.667877 26.913074
-55.51746 53.67115 26.541183
-55.480389 53.674427 26.177578
-55.451168 53.677097 25.795231
-55.411537 53.680557 25.454691
-55.381824 53.683254 25.088923
-55.34549 53.686451 24.750975
-55.312878 53.689354 24.407804
-55.279739 53.692295 24.072443
-55.245998 53.695274 23.744741
-55.218201 53.697792 23.40576
-55.809578 53.645798 28.876858
-55.770607 53.649265 28.468878
-55.7337 53.652569 28.062597
-55.696964 53.655853 27.665117
-55.656483 53.659412 27.290257
-55.62558 53.662231 26.889145
-55.582954 53.665943 26.537909
-55.555931 53.668453 26.140308
-55.51276 53.672188 25.80525
-55.477268 53.675331 25.451191
-55.445545 53.678181 25.091944
-55.411369 53.681213 24.747326
-55.383072 53.683784 24.391161
-55.341465 53.687374 24.081427
-55.312099 53.690018 23.740862
-55.284355 53.692532 23.401808
-55.253773 53.695259 23.076691
-55.220196 53.698212 22.765152
-55.164158 53.703247 22.127457
-55.106953 53.708355 21.512856
-56.536549 53.58136 36.180237
-55.87875 53.640301 28.869471
-55.841656 53.643627 28.454329
-55.802975 53.647068 28.055201
-55.764404 53.650486 27.664747
-55.723961 53.654045 27.289818
-55.683411 53.6576 26.923185
-55.652443 53.660419 26.530489
-55.623447 53.663082 26.139669
-55.580338 53.666813 25.804539
-55.548943 53.669643 25.437101
-55.509029 53.673119 25.104271
-55.479004 53.675831 24.746407
-55.44648 53.67873 24.40309
-55.411301 53.681828 24.073973
-55.377632 53.684803 23.746052
-55.354244 53.686981 23.394344
-55.287945 53.692825 22.763802
-56.597721 53.576424 36.253902
-56.550087 53.580746 35.669106
-55.945385 53.634975 28.89942
-55.902771 53.638721 28.505501
-55.869442 53.641754 28.084654
-55.832668 53.645039 27.686918
-55.790298 53.648743 27.318773
-55.759285 53.651573 26.917337
-55.720562 53.654984 26.552086
-55.687538 53.657951 26.174635
-55.654362 53.660923 25.805584
-55.612854 53.664528 25.471422
-55.581078 53.667381 25.111902
-55.548954 53.670254 24.76049
-55.510094 53.673641 24.436417
-55.483341 53.67609 24.08139
-55.417542 53.681915 23.426655
-55.389103 53.684479 23.094997
-55.35775 53.68726 22.777056
-55.270042 53.695087 21.836716
-56.659977 53.571423 36.310341
-56.602612 53.576466 35.781223
-56.555077 53.580757 35.214233
-56.512058 53.584698 34.641842
-55.937759 53.636299 28.106632
-55.899158 53.639721 27.715796
-55.856823 53.643421 27.347466
-55.821972 53.646545 26.959648
-55.78709 53.649666 26.580372
-55.750126 53.652935 26.216291
-55.718884 53.655758 25.840181
-55.681419 53.659054 25.492445
-55.647617 53.662064 25.139376
-55.613422 53.665096 24.794283
-55.576656 53.66832 24.463484
-55.549877 53.670773 24.108236
-55.51194 53.674076 23.792704
-55.486256 53.67643 23.446817
-55.453434 53.679333 23.127403
-55.426502 53.681774 22.796923
-55.394367 53.684608 22.486122
-55.336555 53.689774 21.862053
-56.719761 53.566624 36.356041
-56.662449 53.571663 35.826653
-56.612122 53.576164 35.27528
-56.5676 53.580219 34.710392
-56.524673 53.584133 34.155926
-55.962597 53.634651 27.741949
-55.92408 53.638062 27.359467
-55.893116 53.640888 26.957735
-55.854523 53.644291 26.592215
-55.817661 53.647552 26.22806
-55.780552 53.650826 25.872051
-55.753139 53.653351 25.490728
-55.71542 53.656658 25.150909
-55.683372 53.659527 24.799206
-55.646736 53.662739 24.468399
-55.620041 53.665184 24.113131
-55.58651 53.668152 23.784924
-55.554474 53.670994 23.457954
-55.523926 53.673717 23.132263
-55.490448 53.676666 22.820158
-55.46059 53.679325 22.503082
-55.434418 53.681702 22.181282
-55.402874 53.684483 21.87871
-55.374954 53.686981 21.571354
-55.348408 53.689369 21.265251
-56.741005 53.565422 35.819199
-56.683697 53.570442 35.30759
-56.633293 53.574936 34.774036
-56.578468 53.579742 34.281872
-56.545364 53.582909 33.690117
-56.511005 53.586155 33.124786
-56.470524 53.589844 32.608536
-56.426533 53.593781 32.12521
-56.000225 53.632004 27.359034
-55.965412 53.635124 26.971077
-55.924828 53.63868 26.612221
-55.893692 53.641502 26.227442
-55.860497 53.644478 25.857916
-55.82708 53.647465 25.496649
-55.795376 53.650311 25.136906
-55.76334 53.653179 24.785271
-55.730885 53.656071 24.441593
-55.693741 53.659317 24.11853
-55.662281 53.662125 23.783857
-55.625923 53.665298 23.469353
-55.599632 53.667698 23.131062
-55.57053 53.670307 22.806627
-55.538467 53.673138 22.495682
-55.505531 53.676033 22.191866
-55.482994 53.67812 21.865389
-55.4505 53.680973 21.569811
-55.421589 53.683544 21.269423
-55.398674 53.68565 20.958761
-56.826691 53.558609 35.814465
-56.765034 53.563953 35.326599
-56.715698 53.568371 34.784912
-56.531719 53.584873 32.71854
-56.499458 53.587933 32.173302
-56.459099 53.591587 31.683981
-56.419682 53.595158 31.204414
-56.381115 53.598652 30.734509
-56.349953 53.601574 30.244589
-56.088924 53.624981 27.324818
-56.050262 53.628395 26.950829
-56.013374 53.631664 26.578279
-55.976341 53.634941 26.21401
-55.937107 53.638378 25.864605
-55.907413 53.641079 25.489782
-55.875515 53.643944 25.129929
-55.841259 53.64698 24.784708
-55.806545 53.650047 24.447311
-55.777534 53.652672 24.098402
-55.745949 53.655487 23.763744
-55.711632 53.658504 23.442982
-55.683064 53.661079 23.110977
-55.653835 53.663696 22.786558
-55.619453 53.66671 22.48168
-55.590862 53.66927 22.165821
-55.561424 53.67189 21.857197
-55.531071 53.674576 21.555637
-55.478939 53.679276 20.944483
-56.918983 53.551285 35.793133
-56.859848 53.556446 35.289387
-56.498093 53.58889 31.235975
-56.45742 53.592545 30.773157
-56.425694 53.595512 30.282833
-56.383152 53.599285 29.853762
-56.346138 53.602631 29.41188
-56.316547 53.6054 28.950399
-56.282322 53.608513 28.519999
-56.244923 53.611858 28.112936
-56.21133 53.614902 27.700602
-56.174278 53.618202 27.311121
-56.135391 53.621635 26.937092
-56.100159 53.624779 26.557657
-56.064838 53.627926 26.186625
-56.027405 53.631226 25.830578
-55.989658 53.634544 25.482531
-55.959488 53.637276 25.115988
-55.927036 53.640175 24.764196
-55.890095 53.643414 24.433275
-55.85878 53.646214 24.090719
-55.826954 53.649048 23.755949
-55.79454 53.651924 23.428808
-55.767887 53.65435 23.090574
-55.736301 53.65715 22.772299
-55.703941 53.660007 22.461311
-55.615032 53.667915 21.535328
-55.588108 53.670334 21.229128
-57.008793 53.544136 35.798283
-56.467934 53.592529 29.865192
-56.432316 53.595772 29.415886
-56.388695 53.599606 29.012005
-56.357464 53.602493 28.566725
-56.328506 53.605198 28.123741
-56.291042 53.60854 27.725306
-56.253689 53.611862 27.335533
-56.223759 53.614613 26.926678
-56.190235 53.61763 26.540417
-56.150986 53.621075 26.183023
-56.115311 53.624241 25.82021
-56.08329 53.627121 25.452223
-56.049065 53.630165 25.099066
-56.006466 53.633842 24.779963
-55.971336 53.636944 24.442331
-55.939789 53.639763 24.099594
-55.909824 53.642452 23.758314
-55.87933 53.645184 23.424801
-55.852482 53.647625 23.086514
-55.820736 53.650436 22.768187
-55.786053 53.653473 22.46319
-55.731747 53.658367 21.826681
-57.089996 53.537674 35.800449
-57.034645 53.542557 35.272739
-56.462002 53.593746 29.042276
-56.43055 53.596653 28.596699
-56.397846 53.599644 28.167597
-56.365505 53.602596 27.747644
-56.326206 53.606068 27.364594
-56.29607 53.608837 26.955429
-56.264225 53.611725 26.562016
-56.236187 53.614315 26.163694
-56.200535 53.617481 25.801012
-56.162704 53.620804 25.453108
-56.128426 53.623852 25.099888
-56.093792 53.626919 24.754635
-56.054691 53.630322 24.430115
-56.025177 53.632984 24.081057
-55.993153 53.635838 23.746237
-55.966827 53.638245 23.40028
-55.927311 53.641659 23.099321
-55.895473 53.644482 22.780788
-55.86937 53.646854 22.451391
-55.833828 53.649952 22.153444
-55.815022 53.651752 21.815023
-55.786625 53.654289 21.507721
-55.722439 53.659924 20.925426
-55.697945 53.662148 20.621662
-57.154774 53.532501 35.822868
-57.099457 53.53738 35.294933
-56.421303 53.598106 27.801186
-56.355206 53.604095 26.99403
-56.31955 53.607277 26.613853
-56.295074 53.609596 26.201403
-56.259342 53.612766 25.838264
-56.227219 53.615658 25.46995
-56.196838 53.618404 25.103292
-56.168182 53.621014 24.738344
-56.129227 53.624409 24.413876
-56.091682 53.627686 24.090425
-56.063778 53.630222 23.742758
-56.031242 53.633106 23.415487
-56.000164 53.635872 23.089502
-55.966286 53.638851 22.777079
-55.940212 53.641224 22.447607
-55.883747 53.646286 21.817001
-55.850922 53.649162 21.521231
-55.821594 53.651768 21.220667
-55.793549 53.65427 20.921259
-55.738983 53.659145 20.331608
-57.222496 53.527111 35.825401
-56.350704 53.605129 26.248791
-56.314835 53.608311 25.885069
-56.288315 53.610771 25.496229
-56.261734 53.613232 25.116014
-56.23304 53.615845 24.750803
-56.196091 53.619083 24.419605
-56.164646 53.621895 24.07679
-56.130669 53.624893 23.74807
-56.100216 53.627621 23.414341
-56.064987 53.630707 23.100578
-56.037457 53.633194 22.769527
-56.013557 53.635399 22.433943
-55.978207 53.638481 22.1359
-55.95285 53.640789 21.815136
-55.922291 53.643494 21.51338
-55.895248 53.645924 21.206974
-55.865013 53.648594 20.913254
-55.838299 53.65099 20.614962
-57.29567 53.521286 35.830593
-57.243092 53.525963 35.286552
-56.355007 53.605446 25.518641
-56.293587 53.610989 24.792114
-56.262436 53.613785 24.441036
-56.240913 53.615837 24.065977
-56.211037 53.618523 23.724623
-56.178593 53.621399 23.397276
-56.147591 53.624161 23.071215
-56.109615 53.627453 22.770929
-56.085651 53.629665 22.435209
-56.056759 53.632248 22.119102
-56.031425 53.634556 21.79841
-55.996513 53.637592 21.508385
-55.965015 53.640366 21.213436
-55.941483 53.642521 20.902422
-57.367821 53.515545 35.830544
-57.315281 53.520218 35.286442
-56.299431 53.611145 24.108883
-56.267365 53.613998 23.773306
-56.244968 53.616104 23.414112
-56.218044 53.618553 23.075418
-56.186375 53.621361 22.756657
-56.158207 53.623894 22.43309
-56.127182 53.626644 22.122883
-56.099651 53.62912 21.807953
-56.069115 53.631821 21.506046
-56.009624 53.637093 20.911318
-55.985126 53.639317 20.607189
-57.432697 53.510376 35.839466
-57.37899 53.515137 35.303177
-56.221561 53.618839 22.449751
-56.190556 53.621586 22.139257
-56.169491 53.623562 21.806332
-56.136868 53.626427 21.510176
-56.107666 53.629021 21.209236
-56.079727 53.631516 20.909452
-56.055298 53.633736 20.605242
-56.027634 53.6362 20.313499
-57.496208 53.505318 35.847424
-57.114216 53.539394 31.770853
-56.201702 53.621254 21.526857
-56.144714 53.626331 20.925676
-56.118103 53.628719 20.626854
-56.090485 53.63118 20.334808
-57.555904 53.500549 35.869953
-57.498837 53.505554 35.357269
-57.441662 53.510548 34.862122
-57.172806 53.534702 31.807364
-56.234066 53.618927 21.254297
-56.208481 53.621239 20.948284
-56.181965 53.623619 20.649227
-56.004837 53.639519 18.648445
-57.616043 53.49572 35.919945
-57.557854 53.500805 35.414932
-57.50605 53.505402 34.88789
-57.233879 53.5298 31.854956
-56.17025 53.625317 19.800997
-57.62009 53.495789 35.486233
-57.56958 53.500294 34.950882
-57.304649 53.524147 31.877848
-57.720879 53.487755 35.506496
-57.665154 53.492641 35.002701
-57.402081 53.516365 31.913042
-57.044468 53.548347 28.007868
-56.188053 53.625366 18.18235
-57.807564 53.480835 35.531677
-57.754154 53.485554 35.011902
-57.488098 53.50951 31.929255
-57.130047 53.541534 28.015579
-57.961697 53.46814 36.010956
-57.894543 53.473888 35.561081
-57.8484 53.478073 34.993698
-57.579716 53.502228 31.919075
-57.987381 53.466518 35.54578
-57.93475 53.471184 35.017933
-57.66695 53.495281 31.926987
-57.305237 53.527599 28.01255
-58.084545 53.458797 35.535915
-58.028011 53.463753 35.031826
-57.758411 53.487995 31.940329
-57.397728 53.520245 28.01091
-58.128014 53.455818 35.005875
-57.850407 53.480663 31.95331
-57.488972 53.512981 28.015953
-58.175785 53.45253 34.443016
-57.942593 53.473335 31.947636
-57.56982 53.506516 28.052656
-58.115463 53.458683 32.945141
-58.029297 53.466434 31.951561
-57.966999 53.471725 31.582062
-58.107674 53.460178 31.974964
-58.045494 53.465462 31.605309
-58.002926 53.469269 31.1392
-57.729057 53.493805 28.098969
-58.136826 53.458252 31.541853
-58.083508 53.46286 31.135904
-58.177719 53.455402 31.094547
-58.13055 53.459541 30.667849
-58.180691 53.455959 30.21908
-58.107349 53.462612 29.316053
-58.114162 53.462822 28.483658
-58.069115 53.466743 28.109819
-58.15876 53.459648 28.072672
-58.106255 53.464123 27.742121
-58.151711 53.460854 27.357855
-58.157436 53.461067 26.620975
-58.115429 53.464722 26.273754
-58.087719 53.467285 25.874212
-58.066673 53.469337 25.456978
-58.2061 53.457542 26.238041
-58.170532 53.460701 25.872229
-58.13483 53.463863 25.514503
-58.103878 53.46666 25.145096
-58.059402 53.470478 24.835699
-58.041485 53.472271 24.430706
-58.216301 53.457394 25.503765
-58.178944 53.460674 25.160652
-58.139618 53.464104 24.831686
-58.104904 53.467171 24.490862
-58.073235 53.470005 24.144972
-58.037766 53.473122 23.819384
-58.255829 53.454559 25.160406
-58.220024 53.457718 24.818535
-58.188892 53.460514 24.465061
-58.147331 53.4641 24.157591
-58.112019 53.467201 23.831926
-58.262657 53.454628 24.484938
-58.226295 53.457817 24.158276
-58.19117 53.460903 23.832672
-58.148647 53.464554 23.539265
-58.275211 53.454247 23.802322
-58.241611 53.457214 23.478142
-58.198826 53.460876 23.192024
-58.164017 53.463924 22.881929
-58.050781 53.474087 21.605007
-58.313995 53.451458 23.474274
-58.285244 53.454048 23.138912
