# .PCD v0.7 - Point Cloud Data file format
VERSION 0.7
FIELDS x y z
SIZE 4 4 4
TYPE F F F
COUNT 1 1 1
WIDTH 725
HEIGHT 1
VIEWPOINT 0 0 0 1 0 0 0
POINTS 725
DATA ascii
-83.396683 56.669449 12.671918
-83.659912 56.745316 11.633793
-83.621262 56.902317 10.079602
-83.959145 56.787987 11.641861
-83.890167 56.837616 9.5463905
-84.577103 56.665585 12.701163
-84.53997 56.669724 11.642035
-84.837639 56.667583 11.650188
-84.828537 56.741131 11.13349
-85.192764 56.393826 14.268319
-85.486755 56.379379 14.27355
-85.737541 56.575562 12.187021
-85.718758 56.575741 11.656466
-85.980865 56.696426 10.105245
-86.321335 56.594273 11.699552
-86.754189 56.007057 18.082905
-87.050407 56.010128 18.111761
-86.91024 56.52916 11.731747
-87.186897 56.500839 11.218184
-87.185318 56.600117 10.702641
-87.156532 56.538677 10.1644
-87.155098 56.63871 9.6495371
-87.530357 56.312202 13.348691
-87.513741 56.323105 12.814991
-87.852646 56.306076 13.909725
-87.831696 56.293026 13.368947
-88.12645 56.333782 12.854475
-88.073982 56.448921 10.738828
-88.062408 56.48563 10.213463
-88.398483 56.437546 11.272959
-88.363564 56.447651 10.210787
-88.972572 56.386143 10.209476
-89.639008 56.218807 12.338618
-89.637039 56.298637 11.815361
-90.526703 56.291382 10.221637
-93.707848 56.070477 10.27593
-94.696213 55.720036 13.565253
-96.968384 55.661644 11.455762
-98.090958 55.163662 18.168173
-99.09314 55.02792 18.250046
-101.12031 55.206963 14.547428
-101.11096 55.287151 13.423382
-101.08535 55.274445 12.85336
-101.07977 55.311958 12.294232
-81.438042 56.637096 16.446901
-81.431335 56.643303 16.079798
-81.424042 56.646 15.713654
-81.414513 56.635883 15.345309
-81.549522 56.640068 16.435684
-81.539398 56.627628 16.061472
-81.532036 56.630169 15.695081
-81.527451 56.647881 15.33605
-81.66407 56.623829 16.416084
-81.657059 56.629787 16.048323
-81.647758 56.62294 15.678266
-81.644669 56.64986 15.322071
-81.775665 56.62302 16.413874
-81.766853 56.619701 16.042364
-81.760872 56.631416 15.678491
-81.752579 56.630367 15.312276
-81.878334 56.620598 16.420837
-81.871452 56.626579 16.05225
-81.858772 56.601154 15.674869
-81.848946 56.590721 15.305317
-81.971649 56.592705 16.413713
-81.965088 56.598564 16.044952
-81.954422 56.582321 15.670658
-81.951881 56.609093 15.313517
-82.090469 56.580608 16.759087
-82.08091 56.571297 16.382257
-82.075989 56.586143 16.016649
-82.068695 56.588242 15.648604
-82.059021 56.577526 15.278402
-82.21701 56.575684 16.328035
-82.211426 56.59013 15.962089
-82.203438 56.591824 15.593725
-82.193039 56.5807 15.223228
-82.365921 56.594124 16.257627
-82.353912 56.580257 15.881413
-82.344894 56.581367 15.512907
-82.333427 56.56966 15.142296
-82.328606 56.591839 14.785031
-82.501099 56.586086 16.177118
-82.488197 56.571598 15.800795
-82.480164 56.581398 15.435322
-82.469666 56.578426 15.067607
-82.619339 56.614761 15.757487
-82.609001 56.614914 15.388187
-82.599892 56.620903 15.02299
-82.588295 56.614109 14.655688
-82.577934 56.613243 14.29239
-82.570686 56.6278 13.935704
-82.70948 56.652073 14.625945
-82.704506 56.679119 14.270684
-82.691383 56.665283 13.904622
-82.679527 56.657452 13.54245
-82.822014 56.660519 14.592706
-82.807297 56.640388 14.222569
-82.805267 56.682621 13.873351
-82.793106 56.674553 13.510695
-82.934441 56.650352 14.551652
-82.921227 56.639294 14.184179
-82.911224 56.643604 13.823421
-82.900589 56.644585 13.463494
-83.036301 56.713387 13.778006
-83.025063 56.714264 13.416885
-83.019035 56.740192 13.064454
-82.998772 56.69659 12.69475
-82.989555 56.706528 12.341285
-83.02169 56.876698 11.066227
-83.0056 56.854515 10.710209
-82.992844 56.848301 10.359268
-83.130981 56.84621 11.005566
-83.134171 56.919399 10.670179
-83.241272 56.923389 10.637904
-83.340935 56.833538 10.945189
-83.343849 56.906288 10.608991
-83.304413 56.895439 9.557436
-83.300842 56.937027 9.2174149
-83.274368 56.98605 8.1877975
-83.449425 56.827785 10.908657
-83.454315 56.909817 10.574073
-83.40657 56.920181 9.1773891
-83.551514 56.783218 10.86227
-83.522743 56.890892 9.4819355
-83.510399 56.893394 9.1343451
-83.676239 56.798218 10.808447
-83.672905 56.910252 10.127493
-83.801422 56.805122 10.743171
-83.779793 56.839634 10.045993
-83.906487 56.892254 9.9989052
-83.880402 56.842171 9.6383038
-83.876953 56.894661 9.2980766
-83.860176 56.886406 8.9477367
-84.033699 56.848007 10.675074
-84.0019 56.843338 9.9679804
-83.983971 56.831482 9.6146011
-83.980324 56.883823 9.2739992
-83.965385 56.885067 8.9249554
-84.137833 56.767406 11.018654
-84.134544 56.822292 10.675583
-84.090721 56.834751 9.6197367
-84.091278 56.90641 9.2820301
-84.242699 56.768734 11.032039
-84.188728 56.807896 9.625721
-84.337196 56.818188 10.69153
-84.304665 56.814068 9.9820766
-84.286331 56.802483 9.6275177
-84.53241 56.460651 14.598118
-84.4748 56.705994 12.106013
-84.458199 56.703957 11.745289
-84.447487 56.727165 11.392035
-84.436104 56.747242 11.039126
-84.424049 56.764202 10.686593
-84.413521 56.787605 10.336423
-84.402328 56.807934 9.9865131
-84.383896 56.796425 9.6315298
-84.382332 56.85862 9.2909927
-84.625931 56.573433 13.910163
-84.603157 56.617672 13.188007
-84.584114 56.606655 12.820056
-84.566574 56.601692 12.455646
-84.554947 56.621777 12.099321
-84.529655 56.652409 11.388076
-84.520393 56.682011 11.037472
-84.710884 56.526752 13.915395
-84.71093 56.597393 13.567592
-84.697006 56.608669 13.203626
-84.677948 56.597816 12.835254
-84.667038 56.621307 12.477829
-84.646576 56.603783 12.111292
-84.827728 56.494686 14.67778
-84.79261 56.48745 13.932416
-84.79953 56.586296 13.592635
-84.790192 56.616554 13.233528
-84.771233 56.605965 12.864559
-84.753792 56.601414 12.49913
-84.735641 56.593533 12.134632
-84.723488 56.610756 11.778005
-84.87616 56.471123 13.97615
-84.883461 56.570286 13.636014
-84.872169 56.591511 13.273851
-84.851212 56.571857 12.901963
-84.834015 56.567619 12.536267
-84.950569 56.564209 13.323668
-84.938972 56.58255 12.961699
-84.919907 56.56937 12.592818
-84.904625 56.571693 12.229838
-85.019928 56.567905 13.003606
-85.014824 56.611534 12.64925
-84.993172 56.585972 12.278092
-86.317047 56.649944 10.858539
-86.392067 56.598614 10.888222
-86.36908 56.622162 9.8011465
-86.377998 56.693645 9.4521999
-86.376236 56.723972 9.0961485
-86.358818 56.69384 8.7310219
-86.470749 56.56665 10.921967
-86.603516 55.967747 18.81846
-86.557457 56.563469 10.960076
-86.560921 56.717651 9.5312414
-86.689354 55.959179 18.860165
-86.660851 56.608215 11.001717
-86.630203 56.596199 9.9023285
-86.630081 56.630226 9.5452976
-86.646782 56.727985 9.1995831
-86.635025 56.717766 8.8358135
-86.621696 56.735748 8.1172934
-86.747711 56.579132 11.015862
-86.745087 56.603748 10.653673
-86.751732 56.663189 10.299236
-86.727287 56.605518 9.9228697
-86.722214 56.620663 9.5618296
-86.726448 56.670834 9.2075987
-86.722305 56.689346 8.8484297
-86.857422 56.487419 12.487029
-86.850517 56.496643 12.116411
-86.847832 56.521412 11.750862
-86.829124 56.486366 11.372831
-86.82476 56.504639 11.008467
-86.958908 56.422653 13.228563
-86.951126 56.429134 12.854136
-86.942467 56.432266 12.480446
-86.932953 56.432064 12.107526
-86.925125 56.43795 11.737625
-87.049881 56.421013 12.858775
-87.03862 56.414837 12.482279
-87.026482 56.405281 12.106721
-87.141647 56.386646 12.84846
-87.143082 56.42725 12.483706
-87.1334 56.427124 12.109859
-87.122849 56.423672 11.736813
-87.261665 56.403439 13.218404
-87.253532 56.40992 12.842712
-87.236786 56.384953 12.460634
-87.234634 56.412834 12.093578
-87.367668 56.389473 13.199123
-87.364471 56.414528 12.828002
-87.355202 56.417591 12.452546
-87.339851 56.398537 12.073298
-87.334023 56.413685 11.703985
-87.481735 56.403076 13.187469
-87.470474 56.400078 12.808409
-87.458321 56.393673 12.43026
-87.447876 56.393265 12.055331
-87.441795 56.408321 11.685591
-87.578979 56.425919 12.419494
-87.561928 56.440502 11.673301
-87.55735 56.461689 11.305387
-87.691002 56.466599 12.036633
-87.687149 56.490993 11.667443
-87.679756 56.502762 11.296493
-87.778481 56.5033 10.914927
-87.763008 56.599735 9.4540157
-87.761009 56.630257 9.0916977
-87.874924 56.444775 10.904437
-88.016685 56.489433 11.289823
-88.008186 56.497986 10.91795
-87.95916 56.591335 8.3503513
-88.132309 56.504402 10.913128
-88.100708 56.510719 9.7992172
-88.118454 56.610622 9.4473019
-88.107994 56.612717 9.0785589
-88.091179 56.592625 8.7074032
-88.076797 56.619026 7.978282
-88.248108 56.46524 10.88402
-88.228951 56.518459 9.7782583
-88.223801 56.619144 8.6875429
-88.202858 56.586285 8.3151751
-88.387947 56.491455 10.864326
-88.345177 56.468933 9.7425175
-88.490654 56.522167 9.7299223
-88.606728 56.489483 9.7118101
-88.578362 56.565983 8.2445936
-88.574646 56.596321 7.8809094
-88.758324 56.449661 10.82356
-88.734955 56.502567 9.7116394
-88.697533 56.55077 8.2375984
-88.690865 56.571594 7.8722095
-88.683289 56.589321 7.5069351
-88.869202 56.414768 10.822014
-88.851418 56.48658 9.7127151
-88.963524 56.460968 9.7145901
-88.9431 56.566341 8.2455587
-89.122002 56.370415 11.588518
-89.117973 56.401009 11.216213
-89.110107 56.419029 10.842151
-89.072159 56.425476 9.7173758
-89.066132 56.535336 8.6186581
-89.045891 56.512062 8.2446089
-89.042061 56.542503 7.8790989
-89.243309 56.301586 12.347896
-89.235458 56.320095 11.970277
-89.215057 56.297981 11.584641
-89.216827 56.347263 11.216496
-89.194473 56.318455 10.832585
-89.361977 56.2743 12.732205
-89.346474 56.268284 12.346754
-89.33287 56.268158 11.964462
-89.321182 56.273998 11.585109
-89.471176 56.269623 12.73765
-89.452789 56.254372 12.349401
-89.445061 56.272881 11.971092
-89.430504 56.269451 11.58902
-89.420799 56.281357 11.211864
-89.571518 56.246147 12.740837
-89.558983 56.2495 12.356826
-89.542503 56.240173 11.971396
-89.533829 56.255402 11.593305
-89.5271 56.276684 11.217752
-89.516449 56.285374 10.840619
-89.737015 55.724491 18.987635
-89.679222 56.249847 12.754581
-89.66082 56.234776 12.365403
-89.653191 56.253433 11.986155
-89.638657 56.25016 11.603148
-89.629021 56.262199 11.225049
-89.778709 56.236656 12.759842
-89.763252 56.230923 12.372528
-89.761589 56.26823 11.997168
-89.744095 56.255756 11.611364
-89.878265 56.234726 12.762114
-89.868782 56.247555 12.378858
-89.954628 56.255054 12.0011
-89.946144 56.270535 11.620696
-89.933647 56.273396 11.238772
-89.91713 56.263596 10.855617
-90.050392 56.213959 12.391469
-90.037247 56.297874 11.25736
-90.026825 56.306904 10.877312
-90.009354 56.293945 10.494122
-90.124168 56.320072 10.905347
-90.094147 56.390076 9.3995447
-90.290657 55.674042 19.127722
-90.209671 56.303276 10.939631
-90.176376 56.32151 9.8013239
-90.365005 55.641994 19.169191
-90.263367 56.314857 9.8383665
-90.250526 56.433037 8.3468189
-90.432579 55.668282 18.7959
-90.35479 56.372128 9.8655739
-90.356247 56.416168 9.4930506
-90.311623 56.397682 8.3555031
-90.401405 55.716473 18.695862
-90.320618 56.387344 9.7522984
-90.303474 56.488583 8.2532787
-90.307442 56.538998 7.8833165
-90.294991 56.539146 7.5069962
-90.476952 55.675129 18.731186
-90.395157 56.492065 8.2876225
-90.393089 56.523899 7.9145203
-90.365273 56.477139 7.531795
-90.559883 55.657642 18.783844
-90.464111 56.428593 8.3189116
-90.644669 55.658623 18.84499
-90.72113 55.645054 18.893679
-90.804512 55.659283 18.951384
-90.742714 56.37888 9.5660381
-90.901413 55.706974 19.026577
-90.813377 56.444229 8.4699421
-90.809387 56.467957 8.0931854
-90.813789 56.516766 7.7201948
-90.80143 56.515366 7.3411045
-90.965179 55.690601 18.651966
-90.888496 56.410229 8.5030928
-90.900505 56.481174 8.1326828
-91.042068 55.678555 18.696692
-90.982605 56.332733 9.6710148
-90.952606 56.38282 8.1507835
-91.102654 55.626522 18.714659
-91.055183 56.301414 9.6904678
-91.194626 55.664242 18.764603
-91.147003 56.327007 9.7158527
-91.255951 55.613285 18.77927
-91.216751 56.423153 8.217247
-91.330162 55.598465 18.806087
-91.312927 56.332005 9.7576408
-91.310173 56.356922 9.3761511
-91.291824 56.36903 8.6094208
-91.285835 56.384296 8.2287617
-91.291603 56.433926 7.8533444
-91.277069 56.424049 7.4705482
-91.402763 55.576252 18.825232
-91.396324 56.236549 10.919122
-91.383667 56.265457 10.147519
-91.375687 56.27499 9.7623672
-91.363411 56.271915 9.3760958
-91.359665 56.293602 8.9950247
-91.486221 55.592064 18.852785
-91.474274 56.19894 11.312208
-91.460068 56.190552 10.919663
-91.442863 56.238274 9.7643251
-91.430641 56.235203 9.3778801
-91.560867 55.583344 18.865307
-91.551659 56.190895 11.316655
-91.537544 56.182526 10.923682
-91.628052 55.555557 18.875586
-91.618324 56.154472 11.320086
-91.617203 56.18317 10.934682
-91.702553 55.54353 18.895863
-91.711143 56.158813 11.728965
-91.708023 56.181713 11.340508
-91.690849 56.164253 10.944654
-91.796646 55.577354 18.926861
-91.78701 56.140919 11.732236
-91.783897 56.163853 11.343435
-91.885208 55.5877 18.937637
-91.871712 56.143188 11.730241
-91.862045 56.147648 11.336889
-91.860992 56.176495 10.950021
-91.961693 55.562931 18.932568
-91.946709 56.14986 11.332946
-91.935783 56.15094 10.939774
-92.034935 55.528992 18.92544
-92.031227 56.151978 11.330549
-92.016922 56.143826 10.934943
-92.12941 55.555172 18.947681
-92.103989 56.154583 10.938188
-92.211418 55.553459 18.964203
-92.161446 56.185246 9.7733097
-92.152245 56.191711 9.3844128
-92.283188 55.524841 18.972391
-92.247002 56.229588 9.3975763
-92.233337 56.223587 9.0068331
-92.353592 55.495758 18.983044
-92.333374 56.214222 9.7955351
-92.457703 55.563435 19.032961
-92.419106 56.233551 9.8084412
-92.535385 55.592499 18.639503
-92.495056 56.224243 9.8207979
-92.617165 55.596214 18.671289
-92.684639 55.567535 18.682873
-92.648148 56.215675 9.8474932
-92.640961 56.327282 8.2961502
-92.628822 56.359047 7.5204825
-92.761543 55.567677 18.699575
-92.700836 56.283421 8.293045
-92.829308 55.542191 18.703726
-92.773972 56.277344 8.2931938
-92.899254 55.525848 18.710501
-93.044838 55.521118 18.735422
-93.103813 55.489185 18.734348
-93.195915 55.544979 18.768095
-93.241989 55.476765 18.756214
-93.186028 56.239285 8.2886648
-93.310753 55.475761 18.781677
-93.258408 56.252304 8.3023758
-93.309891 56.209129 8.3120708
-93.401886 56.171833 9.5077915
-93.382416 56.222225 8.3262949
-93.522743 55.490833 18.864912
-93.57814 55.446461 18.868906
-93.647484 55.445126 18.894865
-93.711029 55.44532 18.921612
-93.72261 56.108749 9.9591274
-93.70929 56.108002 9.5586157
-93.705116 56.131672 9.1632318
-93.692818 56.133499 8.7652235
-93.686234 56.15057 8.3704004
-93.789337 56.048271 10.772017
-93.782051 56.063576 10.37202
-93.984253 55.755348 14.457648
-94.027313 55.704613 14.461061
-94.108261 55.751751 14.497488
-94.42749 55.421597 18.865005
-94.557251 55.423965 18.940863
-94.495087 55.644871 14.270857
-94.578308 56.032551 10.252435
-94.795929 55.385204 18.995447
-97.672386 55.173809 18.850172
-97.734642 55.165443 18.868029
-97.786858 55.124287 18.862947
-97.763397 56.299015 1.6863773
-97.841812 56.153999 3.7916989
-97.852303 56.214668 3.3703883
-97.898232 56.093597 4.2123408
-97.90242 56.139214 3.7909181
-100.79124 55.308323 13.100233
-100.77374 55.308098 12.644587
-100.76275 55.321915 12.193689
-101.03468 55.327438 12.660584
-101.01543 55.323635 12.204257
-101.01101 55.351742 11.756166
-101.14595 55.326889 12.213859
-101.1375 55.346142 11.763177
-101.11909 55.343842 11.309534
-101.43971 54.900898 18.204161
-101.3813 55.26685 12.226731
-101.37723 55.295086 11.776913
-81.919189 56.948502 11.790861
-81.894218 56.91708 11.268828
-81.88266 56.958817 10.760166
-82.279442 56.899639 11.763475
-82.262955 56.916718 11.249043
-82.241997 56.909847 10.732122
-82.643768 56.876949 11.745233
-82.623177 56.874653 11.227053
-82.601753 56.867786 10.709721
-82.981926 56.918732 10.712612
-82.963081 56.926952 10.197697
-82.937576 56.901508 9.6794233
-83.304802 56.986156 9.187706
-83.282951 56.98127 8.6732988
-83.593559 57.108292 6.6600289
-84.319771 57.094845 6.7076459
-84.664406 57.017616 6.7248802
-85.109993 56.811886 9.8310022
-85.092773 56.832714 9.3152447
-85.072289 56.839428 8.7986412
-85.450424 56.827454 9.3521709
-85.420631 56.79599 8.8299866
-85.401405 56.808327 8.314374
-87.156784 56.708542 8.8999586
-87.493423 56.576942 9.4051657
-87.499626 56.680977 8.895381
-87.475746 56.675282 8.3725891
-87.455933 56.684303 7.8524952
-87.84594 56.671307 8.8911018
-87.811348 56.62738 8.3630791
-87.79966 56.665169 7.8453212
-89.545509 56.58976 7.8742318
-89.525345 56.595005 7.3487968
-89.498001 56.576759 6.8222141
-89.916168 56.4762 8.9115753
-89.904633 56.509281 8.3871155
-89.879814 56.499981 7.858789
-90.24881 56.510586 7.8672128
-90.237732 56.544464 7.3427901
-92.112801 56.221401 10.098494
-92.10289 56.255234 9.5667095
-92.070572 56.348946 7.974185
-92.04142 56.327484 7.4393497
-92.469482 56.265263 9.0685854
-92.445915 56.320805 8.0043221
-92.420128 56.309116 7.4692459
-92.788292 56.374466 6.433753
-92.778183 56.406155 5.9026847
-93.166367 56.343014 6.4504223
-93.153091 56.365509 5.9175806
-93.552925 56.327328 6.4715967
-93.532822 56.331379 5.9361639
-94.337944 56.20068 7.5871668
-94.74231 56.160191 8.1366177
-94.71994 56.15979 7.5951414
-94.703156 56.173481 7.055923
-95.071281 56.211075 5.9793134
-82.908257 56.438927 17.885574
-83.254478 56.454716 17.064272
-83.435501 56.464565 16.639574
-83.421074 56.453262 16.260193
-83.598457 56.502544 15.472983
-83.593384 56.536068 15.114687
-83.579399 56.528999 14.744996
-83.568855 56.537178 14.382137
-83.780884 56.516544 15.044395
-83.763748 56.672546 13.630512
-83.963066 56.541569 15.002902
-83.925507 56.554695 13.908408
-83.92939 56.63068 13.567517
-83.928337 56.684864 13.220995
-83.907379 56.651001 12.851915
-83.892143 56.642105 12.491504
-83.891228 56.696335 12.148333
-83.881088 56.709549 11.796008
-84.113319 56.488987 14.954205
-84.084061 56.538422 13.870648
-84.080559 56.639694 13.174707
-84.068039 56.643246 12.81552
-84.050491 56.624611 12.452305
-84.047455 56.669037 12.106418
-84.275986 56.479557 14.928307
-84.423737 56.546829 13.815381
-84.396278 56.659706 12.399627
-84.62928 56.475071 14.840501
-84.604431 56.550209 13.760928
-84.595543 56.6311 13.056389
-84.573059 56.596146 12.686019
-84.561165 56.605019 12.328895
-84.807762 56.470749 14.782867
-84.774651 56.458042 14.042466
-84.781006 56.544819 13.701987
-84.702904 56.70509 10.866882
-84.955933 56.48288 13.985419
-84.94812 56.513115 13.628161
-84.94886 56.577671 13.281563
-85.207733 56.354588 16.494684
-85.378723 56.328026 16.444616
-85.366264 56.343857 16.070467
-85.33654 56.355869 15.321605
-85.56163 56.324776 16.409338
-85.546112 56.331303 16.031509
-85.912048 56.33427 15.954481
-85.878761 56.345146 15.20276
-86.045059 56.38575 14.826745
-86.001892 56.426403 13.724155
-85.943871 56.474903 12.274673
-86.218666 56.381294 14.851366
-86.167244 56.395023 13.738833
-86.13131 56.528942 12.308604
-86.341408 56.384964 13.779702
-86.312889 56.48209 12.702299
-86.289703 56.464367 12.332925
-86.276024 56.480885 11.973661
-86.54615 56.323517 14.926171
-86.504936 56.376804 13.821332
-86.667007 56.397194 13.874669
-88.242668 56.211288 14.84536
-88.595985 56.293743 13.155967
-88.589432 56.316395 12.786107
-88.660606 56.37059 10.618145
-89.043999 55.834713 19.006531
-89.150757 55.756954 19.04141
-89.123589 56.183872 14.061569
-89.094658 56.248089 12.562385
-89.097076 56.292992 12.197937
-89.077042 56.269852 11.818545
-89.257423 56.179203 14.129683
-89.252251 56.200695 13.753312
-89.224113 56.263039 12.255623
-89.213707 56.268162 11.882107
-89.205353 56.279327 11.511329
-89.358521 56.23534 12.688643
-89.49543 56.292446 12.379048
-89.633522 56.140366 14.296802
-89.626358 56.21648 13.168329
-89.789734 55.794312 19.006771
-89.907959 55.725922 19.036598
-90.155914 55.929283 15.583867
-90.299828 55.91177 16.009068
-90.286041 55.90416 15.611553
-90.426422 55.922657 15.252379
-91.451805 56.138115 12.316668
-91.779533 55.635632 18.967123
-91.873634 56.151749 11.538039
-92.06086 55.60981 18.989109
-92.195595 55.578056 18.99511
-92.171661 55.832916 15.393648
-92.163956 55.847599 14.998233
-92.151443 55.849854 14.600907
-92.141151 55.857616 14.207128
-92.334152 55.557301 18.997961
-92.305748 55.767662 15.779868
-92.309822 55.812531 15.391968
-92.30204 55.827248 14.996048
-92.289413 55.829544 14.598223
-92.279022 55.837337 14.203939
-92.48777 55.573532 19.007746
-92.452339 55.802845 15.385736
-92.440887 55.808624 14.986485
-92.428116 55.810902 14.588161
-92.417587 55.818672 14.193374
-92.628197 55.554852 19.003078
-92.595306 55.792999 15.379343
-92.583702 55.798798 14.979508
-92.570755 55.801086 14.580604
-92.56366 55.817837 14.187797
-92.743355 55.799202 15.384769
-92.731628 55.805111 14.984185
-92.72216 55.816456 14.587176
-92.707764 55.815384 14.188398
-92.840012 55.784142 14.187629
-93.041504 55.496433 19.023302
-93.17067 55.457626 19.018427
-93.307716 55.437 19.016909
-93.265381 56.076843 10.721974
-93.447815 55.422874 19.024065
-93.57238 55.379395 19.031986
-93.926743 55.409214 18.92802
-94.144669 56.10598 9.453023
-94.275391 55.698692 14.550533
-94.387161 55.701366 14.179773
-94.911095 55.381214 18.854755
-95.041122 55.37875 18.890421
-95.119347 55.264957 18.883106
-96.36879 55.275352 18.864958
-96.496574 55.262615 18.867014
-96.748795 55.228149 18.866627
-96.759727 55.636108 13.451971
-96.730644 55.633171 12.624942
-96.730629 55.661827 12.221112
-96.716362 55.660671 11.811632
-96.854073 55.174236 18.84936
-96.880791 55.641735 13.033834
-96.869652 55.647331 12.622166
-96.852684 55.640705 12.209212
-96.838371 55.639481 11.799224
-96.839508 55.670269 11.397656
-96.991272 55.188793 18.858683
-96.990883 55.626923 12.610109
-96.978127 55.629028 12.19871
-96.972313 55.64539 11.792073
-96.964943 55.658432 11.385944
-97.111443 55.167233 18.859066
-97.115623 55.642319 12.1991
-97.096954 55.632252 11.785697
-97.085266 55.636433 11.377081
-97.232903 55.141312 18.868256
-97.261238 55.609711 13.02647
-97.241463 55.626354 12.202224
-97.235626 55.642807 11.794128
-97.215279 55.629459 11.380898
-97.353737 55.082417 19.308731
-97.375893 55.157391 18.893982
-97.470306 55.634327 10.979087
-97.6073 55.087173 18.909552
-98.853455 55.005177 18.87327
-98.962608 54.963886 18.896805
-99.018585 55.459686 12.943315
-99.016151 55.482109 12.525048
-99.002937 55.483784 12.103261
-98.99707 55.499451 11.686098
-98.998581 55.529217 11.273079
-99.09137 54.955036 18.933641
-99.149971 55.454247 12.969652
-99.143135 55.468216 12.548549
-99.13456 55.478783 12.128064
-99.119705 55.477257 11.706331
-99.107681 55.48103 11.287271
-99.21199 54.930984 18.95916
-99.27253 55.432533 12.986977
-99.26577 55.446655 12.565276
-99.252701 55.448696 12.142207
-100.94751 54.876217 18.849855
-101.19017 54.810894 18.896839
-101.45767 54.766579 18.944632
