# .PCD v0.7 - Point Cloud Data file format
VERSION 0.7
FIELDS x y z
SIZE 4 4 4
TYPE F F F
COUNT 1 1 1
WIDTH 1102
HEIGHT 1
VIEWPOINT 0 0 0 1 0 0 0
POINTS 1102
DATA ascii
-81.407951 56.5914 14.18611
-81.391167 56.618061 13.661437
-81.355141 56.637653 12.610018
-81.319397 56.65807 11.564777
-83.107529 56.540089 13.163894
-83.056976 56.599606 11.59272
-83.038567 56.603577 11.068993
-83.021767 56.622581 10.548831
-83.317688 56.636963 10.561999
-83.29628 56.61216 10.036214
-83.274437 56.582672 9.5115461
-83.558144 56.67181 9.0053453
-83.521866 56.679047 7.9679003
-83.510147 56.740173 7.4558773
-83.486992 56.697803 6.934958
-83.786514 56.741543 6.9352202
-83.758202 56.65506 6.4116554
-84.441406 56.627403 9.0127888
-84.406647 56.645111 7.9740844
-84.734901 56.5965 9.0148258
-84.698906 56.604538 7.9745984
-85.157967 56.41655 13.204939
-85.124802 56.449551 12.149749
-85.110008 56.478577 11.626255
-85.093277 56.493198 11.101542
-85.070625 56.463959 10.571603
-85.052727 56.469265 10.048308
-85.035583 56.47979 9.5268755
-85.00486 56.526512 8.4898109
-85.40316 56.454899 11.627723
-85.383774 56.450027 11.099621
-85.345932 56.445862 10.048738
-85.654335 56.518639 10.065825
-85.634468 56.509834 9.5403109
-85.61113 56.476738 9.0132589
-85.597122 56.507851 8.4950247
-85.91983 56.537529 9.0342369
-85.879745 56.516998 7.9875274
-86.466591 56.060886 18.066175
-86.183647 56.546726 8.0091829
-86.804085 56.44482 9.0792341
-86.777168 56.504086 8.0384693
-87.066032 56.54295 7.5370455
-87.49295 56.30986 12.278608
-87.455856 56.307983 11.215342
-87.441261 56.329243 10.689299
-87.813438 56.294495 12.832942
-87.796127 56.300896 12.299535
-87.988861 56.382633 8.6170368
-87.970497 56.381363 8.0918102
-88.316147 56.390373 9.1453791
-88.652573 56.340218 10.197191
-88.614174 56.331703 9.1382351
-88.596809 56.431728 8.0954475
-89.650146 56.18264 12.87019
-89.607841 56.248222 11.271673
-89.583794 56.222031 10.734019
-89.553139 56.252556 9.6751461
-89.516792 56.254971 8.6170006
-89.492935 56.317047 7.5687308
-89.474586 56.316933 7.0425072
-89.923965 56.17514 11.803636
-90.255226 56.164021 12.342665
-90.443031 56.331558 7.5684271
-90.786072 56.194809 9.1477013
-91.115341 56.239067 9.1596403
-93.982208 56.030445 9.2129669
-95.14978 55.607948 18.041388
-94.974174 55.992382 9.8001308
-98.857246 55.401012 17.731007
-100.22816 55.308617 17.903822
-100.518 55.368988 15.639973
-101.2509 55.32465 16.882938
-101.61347 55.285465 17.490669
-81.442505 56.349922 18.976479
-81.367188 56.625137 13.196421
-81.363823 56.648109 12.851666
-81.35656 56.648899 12.502278
-81.34877 56.646488 12.153668
-81.340454 56.640888 11.805865
-81.55394 56.353546 18.968294
-81.477982 56.62714 13.181498
-81.460449 56.612541 12.476441
-81.454277 56.619473 12.130181
-81.447571 56.623253 11.78456
-81.443748 56.643082 11.44413
-81.593727 56.628532 13.165067
-81.5867 56.632263 12.81426
-81.577408 56.623249 12.461698
-81.562363 56.624203 11.766465
-81.554901 56.624737 11.421094
-81.702705 56.618088 13.156466
-81.693848 56.612259 12.802737
-81.687912 56.622219 12.454932
-81.677956 56.609924 12.102905
-81.670929 56.613529 11.756525
-81.807167 56.615822 13.159657
-81.798492 56.609997 12.805504
-81.789253 56.600906 12.452271
-81.782974 56.607655 12.10482
-81.777901 56.620819 11.760342
-81.911011 56.589512 13.506198
-81.904953 56.596321 13.153648
-81.898331 56.599895 12.80182
-81.883392 56.597393 12.100449
-82.028397 56.574963 13.832502
-82.022812 56.584789 13.478919
-82.013084 56.572422 13.120719
-82.008133 56.585217 12.771292
-81.994743 56.591751 12.071824
-82.153427 56.585949 13.422141
-82.141197 56.563702 13.061006
-82.137405 56.585567 12.713871
-82.127617 56.575745 12.359753
-82.12088 56.581749 12.011361
-82.286911 56.562576 13.337788
-82.28093 56.577637 12.987106
-82.272545 56.580009 12.634461
-82.417137 56.559105 13.25888
-82.410378 56.573589 12.907933
-82.399323 56.565884 12.552543
-82.389534 56.564438 12.20052
-82.507141 56.608559 11.801115
-82.497604 56.609917 11.452229
-82.487495 56.608124 11.104042
-82.47493 56.593601 10.754514
-82.465561 56.595154 10.409876
-82.757523 56.251183 18.992805
-82.607979 56.65313 11.069784
-82.595131 56.638348 10.719517
-82.585503 56.639641 10.374116
-82.575302 56.637852 10.029331
-82.564529 56.632996 9.6851921
-82.551285 56.61541 9.3400145
-82.546997 56.643158 9.0038347
-82.870949 56.253586 18.96092
-82.713837 56.639755 11.028164
-82.704514 56.64386 10.68175
-82.698441 56.664108 10.339841
-82.68412 56.642807 9.9907274
-82.67498 56.647316 9.6479588
-82.667191 56.658463 9.3073931
-82.656906 56.656933 8.9655743
-82.646057 56.652393 8.6243162
-82.636566 56.654556 8.2850847
-82.628433 56.663467 7.9476485
-82.818642 56.65905 10.644148
-82.808372 56.659801 10.297823
-82.795586 56.647831 9.950264
-82.782219 56.632755 9.603528
-82.777962 56.66291 9.2660732
-82.765381 56.651413 8.9222383
-82.754166 56.646564 8.5806522
-82.91378 56.660999 10.226864
-82.906235 56.67765 9.8842382
-82.892235 56.662342 9.5366545
-82.879608 56.653603 9.191597
-82.868362 56.651485 8.8488359
-82.854576 56.636662 8.5051432
-82.846092 56.647919 8.1664553
-82.887299 56.77393 7.5937376
-82.879135 56.788624 7.2561097
-82.858574 56.741974 6.911829
-82.847298 56.74102 6.5740194
-82.972809 56.764824 6.8573022
-82.964951 56.783001 6.5209713
-83.083229 56.745556 7.1573977
-83.073608 56.75666 6.8194962
-83.059402 56.745354 6.4797449
-83.18795 56.745724 7.1284966
-83.182228 56.776081 6.7923555
-83.161789 56.735359 6.4489751
-83.28643 56.757088 6.7507515
-83.263702 56.706326 6.4061637
-83.204514 56.769123 4.3873086
-83.390587 56.747917 6.7089777
-83.32589 56.797508 4.6822028
-83.871307 56.234081 18.780899
-83.500824 56.739716 6.6472955
-83.625473 56.722458 6.9161377
-83.619675 56.761189 6.5794735
-83.742332 56.75288 6.8595047
-83.729691 56.762077 6.5190349
-83.841377 56.731342 6.832109
-83.824219 56.720936 6.4893527
-83.946579 56.735332 6.833179
-83.929237 56.724995 6.4899116
-84.053848 56.687439 7.1776342
-84.045616 56.718952 6.8382359
-84.025978 56.698994 6.4936128
-83.957146 56.729977 4.7925644
-84.155144 56.701687 7.1788306
-84.144714 56.723534 6.8377237
-84.127144 56.713322 6.4935994
-84.049347 56.70541 4.7872071
-84.23938 56.708229 6.837224
-84.217354 56.678635 6.490736
-84.150032 56.719467 4.7863727
-84.352692 56.708637 7.1886764
-84.333336 56.691853 6.8421445
-84.311157 56.66235 6.4953141
-84.249893 56.732773 4.7909646
-84.844749 56.148586 18.746027
-84.52034 56.613148 9.2701054
-84.509308 56.633812 8.9238005
-84.493179 56.63221 8.5746384
-84.474182 56.617905 8.2246065
-84.467827 56.658466 7.8834953
-84.442062 56.68243 7.1946735
-84.413826 56.626961 6.8434892
-84.402641 56.646 6.501801
-84.336983 56.697281 4.7945657
-84.92881 56.125217 18.772892
-84.610275 56.604408 9.2899971
-84.59491 56.60601 8.9400272
-84.57888 56.604549 8.590601
-84.564423 56.609665 8.2431955
-84.542618 56.582798 7.8921371
-84.531303 56.601166 7.5484228
-84.519325 56.616573 7.2048459
-84.426048 56.680698 4.8082166
-84.711609 56.587437 9.6790895
-84.692665 56.573238 9.3247423
-84.679779 56.584728 8.9761305
-84.659492 56.564308 8.6232691
-84.649757 56.588955 8.2785921
-84.632629 56.581676 7.9298935
-84.600876 56.577347 7.2367911
-84.520393 56.691814 4.8418589
-84.804901 56.545883 10.07521
-84.791496 56.554298 9.7235355
-84.779671 56.569214 9.3740664
-84.767159 56.581074 9.0249348
-84.744949 56.551418 8.6699715
-84.735603 56.576408 8.324873
-84.705879 56.578827 7.6297708
-84.690018 56.575508 7.2829218
-84.677994 56.588539 6.9388132
-84.882828 56.570965 9.7668886
-84.871407 56.586189 9.4167261
-84.852501 56.569553 9.0619717
-84.832909 56.549782 8.7080965
-84.821709 56.565399 8.3610115
-84.805298 56.558727 8.0114059
-84.790482 56.558655 7.6637177
-84.779526 56.574898 7.3189273
-84.765625 56.578499 6.9731674
-84.963531 56.540302 9.7965126
-84.95472 56.565304 9.4478235
-84.938377 56.558491 9.0943508
-84.928185 56.5774 8.7462711
-84.908188 56.554798 8.3925018
-84.894356 56.557987 8.0438375
-84.882118 56.567799 7.6969223
-84.86692 56.564949 7.3490891
-85.029381 56.562946 9.1470318
-85.012672 56.553436 8.7936373
-84.995277 56.540821 8.4409733
-84.984062 56.554012 8.0932674
-84.974457 56.573841 7.7471437
-86.473938 56.095634 18.765352
-86.535957 56.022396 18.789017
-86.377724 56.569424 7.3197451
-86.614807 56.485657 6.6724372
-86.727989 56.516659 7.0342979
-86.713913 56.497326 6.6762657
-86.899292 56.411556 10.993701
-86.878456 56.437511 9.9022522
-86.873268 56.452511 9.5417261
-86.859604 56.435806 9.1766739
-86.852783 56.444538 8.8170919
-86.845161 56.450176 8.4578962
-86.841858 56.471859 8.1018333
-86.832626 56.471336 7.7433219
-86.822594 56.467731 7.3852816
-86.98999 56.375381 10.990096
-86.968964 56.401306 9.8981342
-86.966293 56.425804 9.5391369
-86.957664 56.428162 9.1770649
-86.948219 56.42738 8.8155222
-86.93795 56.42347 8.4545383
-86.926872 56.416443 8.094142
-86.922714 56.435036 7.7381735
-87.081131 56.340717 10.978965
-87.075294 56.423397 9.897193
-87.064812 56.41938 9.5324068
-87.05349 56.412186 9.168294
-87.04393 56.411358 8.8064098
-87.038727 56.426506 8.4479647
-87.027534 56.419456 8.0870562
-87.177879 56.418011 9.8806772
-87.164581 56.4044 9.5137777
-87.160851 56.425663 9.1541491
-87.148483 56.415234 8.7901478
-87.140495 56.420742 8.4297476
-87.131683 56.423149 8.0697641
-87.291092 56.330433 10.944575
-87.278908 56.393517 9.8566141
-87.267937 56.389271 9.4911594
-87.258743 56.391361 9.1279802
-87.251328 56.399841 8.7668476
-87.240471 56.395672 8.4046783
-87.234016 56.407486 8.0457802
-87.229362 56.4258 7.6884108
-87.40078 56.334347 10.927427
-87.387871 56.397167 9.8379011
-87.379242 56.402336 9.4736195
-87.364502 56.385319 9.1066608
-87.356827 56.393688 8.7450991
-87.348305 56.398945 8.3839283
-87.338959 56.4011 8.0231791
-87.501297 56.410152 9.8183031
-87.489746 56.405727 9.4517536
-87.477341 56.398113 9.085885
-87.466743 56.396847 8.7222233
-87.455292 56.392445 8.359128
-87.634293 56.379265 10.897993
-87.579437 56.48283 7.9880199
-87.568756 56.48172 7.6260052
-87.549225 56.448803 7.2610373
-87.668335 56.487904 7.2513528
-87.650467 56.46138 6.8876233
-87.637131 56.450901 6.5267105
-87.777618 56.476551 7.2465706
-87.762344 56.459599 6.8834662
-87.754333 56.468273 6.5239639
-87.882698 56.435383 7.2384338
-87.878159 56.456676 6.8793535
-87.859161 56.427055 6.5154896
-88.020584 56.499294 7.2344685
-87.99118 56.434574 6.8648739
-87.98008 56.433636 6.5035524
-88.137497 56.477905 7.2060194
-88.118561 56.451324 6.8402843
-88.095993 56.412041 6.4744911
-88.236076 56.379566 7.1642675
-88.241562 56.438751 6.8081522
-88.375038 56.423428 7.1435099
-88.36335 56.425278 6.7803016
-88.511017 56.466679 7.1325169
-88.487724 56.430374 6.7643175
-88.62661 56.442001 7.1231828
-88.605896 56.415241 6.7556643
-88.725349 56.369171 7.1147065
-88.718781 56.390045 6.7523165
-88.845596 56.372417 7.1174669
-88.839027 56.393333 6.7544684
-88.982498 56.432465 7.1293774
-88.949898 56.367821 6.7562094
-89.15638 56.324749 9.7088442
-89.153389 56.358105 9.34198
-89.129128 56.322227 8.9644547
-89.115547 56.3209 8.593914
-89.121361 56.38271 8.2334051
-89.103004 56.365643 7.8621788
-89.098244 56.392872 7.4976492
-89.075127 56.359997 7.1265454
-89.305603 56.267174 11.204395
-89.291954 56.266376 10.826513
-89.277336 56.262287 10.44937
-89.261749 56.254921 10.072999
-89.245193 56.244282 9.6974306
-89.239357 56.268101 9.3291225
-89.226738 56.269905 8.9579477
-89.216095 56.277985 8.5887556
-89.207428 56.292385 8.2213163
-89.194908 56.294189 7.8528767
-89.401337 56.261906 10.8294
-89.383812 56.248466 10.449882
-89.377037 56.269291 10.078413
-89.363434 56.26812 9.7038488
-89.345932 56.254292 9.3283405
-89.339211 56.274967 8.9597712
-89.325676 56.273613 8.5885401
-89.314117 56.278545 8.2192326
-89.495979 56.262676 10.45847
-89.477463 56.246021 10.07921
-89.469772 56.263676 9.7076826
-89.45816 56.268738 9.3348665
-89.442627 56.261173 8.9610529
-89.434998 56.278736 8.5922518
-89.61544 56.261608 10.845542
-89.59494 56.238979 10.463053
-89.591225 56.26931 10.092325
-89.577637 56.268284 9.7166452
-89.557152 56.245193 9.338419
-89.547546 56.256535 8.9672937
-89.728546 56.24921 11.228608
-89.71199 56.239319 10.846729
-89.697403 56.235455 10.46762
-89.687782 56.247059 10.092826
-89.67717 56.255451 9.7184906
-89.668564 56.270042 9.3462429
-89.65004 56.253189 8.9697962
-89.636497 56.251965 8.5970984
-89.843376 56.210583 11.985226
-89.834816 56.225937 11.605763
-89.828232 56.247326 11.228833
-89.814674 56.246784 10.848386
-89.797119 56.233574 10.466823
-89.787529 56.245171 10.091511
-89.776955 56.253548 9.7166557
-89.759407 56.239902 9.3390932
-89.746857 56.241837 8.9654169
-89.899597 56.250454 10.47337
-89.884056 56.243355 10.093832
-89.87352 56.251747 9.7184601
-89.858994 56.247524 9.34198
-89.840462 56.230648 8.9646797
-89.829971 56.238815 8.5925426
-90.166122 55.881901 18.702682
-89.968971 56.291508 9.3598909
-89.947472 56.265373 8.9801311
-89.937057 56.273663 8.6071301
-89.934731 56.307098 8.2385435
-89.922356 56.309093 7.8661208
-89.902946 56.289009 7.4918318
-89.888618 56.284679 7.1205363
-90.057594 56.317238 9.010747
-90.04126 56.306923 8.6338558
-90.039108 56.340549 8.2644119
-90.017761 56.314407 7.8873601
-89.998459 56.294498 7.5124555
-89.984245 56.290325 7.1405478
-90.071548 56.276016 7.1704469
-90.062622 56.287872 6.8006129
-90.166138 56.290138 7.2059627
-90.239464 56.293461 7.2177739
-90.230812 56.30587 6.8465114
-90.208504 56.350197 6.7365379
-90.196121 56.350128 6.3643212
-90.294205 56.335957 6.7663226
-90.281914 56.33614 6.3936691
-90.357422 56.292961 6.4267068
-90.853638 55.842342 18.60293
-90.920769 55.802254 18.641287
-91.210144 56.260376 7.0712171
-91.345741 56.12257 10.507188
-91.332878 56.280499 8.2268095
-91.322685 56.283146 7.8455839
-91.304985 56.263798 7.4624877
-91.276566 56.212986 7.0769958
-91.425072 56.154305 10.135526
-91.42054 56.238194 8.993619
-91.403526 56.253162 8.2294054
-91.390167 56.246441 7.8466702
-91.369286 56.217701 7.4622378
-91.353775 56.20451 7.0809598
-91.501328 56.174355 9.7569733
-91.495628 56.189865 9.3737965
-91.485619 56.192795 8.9894466
-91.47451 56.192471 8.6056328
-91.465546 56.198273 8.2237196
-91.452263 56.191483 7.8409834
-91.584534 56.184513 9.7680988
-91.56926 56.172108 9.3795404
-91.556107 56.165722 8.9933367
-91.55481 56.19347 8.6135206
-91.539467 56.18058 8.2284193
-91.529518 56.183186 7.8465815
-91.658386 56.165817 9.7770357
-91.652901 56.181454 9.392909
-91.646309 56.193851 9.0091133
-91.628876 56.174965 8.6214199
-91.616837 56.171501 8.2373047
-91.613457 56.192921 7.8575268
-91.763451 56.13718 10.945307
-91.737442 56.157406 9.7802744
-91.731956 56.17308 9.3957157
-91.715591 56.157509 9.0069733
-91.707886 56.166668 8.6233673
-91.689301 56.14452 8.2361555
-91.689186 56.175308 7.8573627
-91.944199 55.787231 18.589363
-91.828255 56.178299 9.779067
-91.809647 56.156715 9.3874655
-91.806236 56.178436 9.0043936
-91.791916 56.168911 8.6172657
-91.779762 56.165462 8.2322054
-91.766495 56.158772 7.8477416
-92.033417 55.797646 18.598055
-91.896156 56.133984 9.7647171
-91.900307 56.177532 9.3841324
-91.883713 56.161942 8.9943743
-91.862709 56.133694 8.604084
-91.856987 56.14888 8.2215071
-91.846878 56.151505 7.8379426
-92.11628 55.790047 18.601234
-91.990036 56.164059 9.7652855
-91.964584 56.123825 9.3696852
-91.957687 56.136135 8.9844208
-91.949684 56.145206 8.5995207
-91.940567 56.151043 8.2150145
-91.933624 56.163013 7.8321691
-92.195107 55.772335 18.605104
-92.060371 56.128517 9.7584105
-92.061096 56.162758 9.3752804
-92.037651 56.128536 8.9816914
-92.026245 56.128284 8.5949545
-92.023621 56.152817 8.2127447
-92.013283 56.155449 7.8281474
-92.261375 55.7267 18.603542
-92.138611 56.185574 8.9945288
-92.133751 56.204132 8.6095686
-92.114555 56.182091 8.2195559
-92.110764 56.203522 7.8366461
-92.089317 56.174934 7.4481177
-92.076683 56.171196 7.0637708
-92.342865 55.724522 18.622015
-92.229759 56.148666 9.7740307
-92.211899 56.195618 8.6139889
-92.185509 56.185772 7.838973
-92.167313 56.166599 7.4512467
-92.164589 56.191029 7.0696421
-92.147484 56.17477 6.6841469
-92.416641 55.704277 18.635935
-92.26088 56.205139 7.4625888
-92.251495 56.210938 7.078002
-92.23101 56.185394 6.6908431
-92.330399 56.212299 7.083962
-92.323204 56.224339 6.7001677
-92.402885 56.194416 7.0922389
-92.388992 56.18779 6.7061558
-92.491959 56.223137 7.1090846
-92.467979 56.188568 6.7193003
-92.538162 56.171833 6.7242823
-92.642036 56.218616 7.1174202
-92.614525 56.17482 6.7257161
-92.599358 56.165218 6.3387899
-92.711494 56.203289 7.115231
-92.69062 56.178242 6.725131
-92.671982 56.159302 6.3368039
-92.7929 56.225712 7.1163788
-92.765137 56.182003 6.7236543
-92.831703 56.167583 6.7208524
-92.936058 56.225155 7.1141987
-92.901276 56.1628 6.7186084
-92.987106 56.174084 7.10603
-92.965836 56.149105 6.7143092
-93.040207 56.163681 6.7126899
-93.142258 56.221771 7.1095786
-93.103683 56.150169 6.7116804
-93.193993 56.179184 7.1151819
-93.165604 56.135708 6.7200761
-93.153168 56.135681 6.3305807
-93.252319 56.154972 7.1267033
-93.237633 56.148991 6.7351818
-93.317924 56.149807 7.1370006
-93.30323 56.143929 6.7450447
-93.403419 56.201168 7.148571
-93.371414 56.148739 6.7508416
-93.451851 56.149708 7.1491971
-93.433472 56.134697 6.7553301
-93.420807 56.135098 6.3639321
-93.495331 56.120277 6.7642455
-93.795647 55.70573 18.585506
-93.568413 56.143734 6.7777157
-93.668068 56.136459 7.9721332
-93.659081 56.146942 7.5780821
-93.641983 56.135517 7.1822243
-93.620216 56.111462 6.7860785
-93.891121 55.636692 18.615686
-93.844063 55.912525 14.013686
-93.773544 56.075516 9.9724483
-93.753418 56.056351 9.5686092
-93.756317 56.098587 9.1762047
-93.733749 56.072666 8.7738113
-93.723831 56.080482 8.377758
-93.712708 56.085003 7.9821172
-93.700386 56.086224 7.5869207
-93.69381 56.102798 7.1943135
-93.855576 56.023014 11.194686
-93.83931 56.014236 10.788357
-93.828712 56.020424 10.386436
-93.823814 56.041679 9.9884434
-93.810753 56.041115 9.5875788
-93.806877 56.064949 9.1918535
-93.791382 56.057678 8.7920876
-93.77813 56.056328 8.3943663
-93.777573 56.08884 8.002162
-93.920959 55.9944 11.616941
-93.909554 55.998379 11.211485
-93.889915 56.014427 10.406217
-93.874771 56.008118 10.002795
-93.858383 55.998394 9.600174
-93.858131 56.031548 9.2058582
-93.822304 56.037086 8.0131712
-93.961578 56.003571 10.821636
-93.947777 56.000763 10.417099
-93.943146 56.022202 10.018332
-93.930328 56.021828 9.6166859
-93.912804 56.008812 9.2142057
-93.891479 56.019001 8.4184828
-94.035194 55.998131 11.239947
-94.02272 55.998856 10.834246
-94.008987 55.996136 10.429278
-93.994003 55.989979 10.025077
-93.991707 56.017361 9.6280022
-93.970764 55.995174 9.2235918
-93.953064 56.014763 8.4284983
-94.089371 55.973934 11.253519
-94.08741 56.002342 10.853084
-94.073753 55.999767 10.447598
-94.065811 56.012203 10.046218
-94.046165 55.993561 9.6405401
-94.039238 56.008476 9.2418547
-94.164803 55.971851 11.684821
-94.157242 55.985508 11.279576
-94.144936 55.986542 10.873014
-94.127884 55.974918 10.465425
-94.127014 56.005932 10.067132
-94.103951 55.978222 9.6594315
-94.100609 56.002529 9.2619028
-94.076248 56.004147 8.4620829
-94.227715 55.972744 11.716264
-94.216805 55.97747 11.308576
-94.208122 55.987919 10.903431
-94.198174 55.994946 10.498842
-94.186966 55.998558 10.094844
-94.178009 56.007999 9.6930571
-94.149361 55.998272 8.8881264
-94.275497 55.969177 11.340457
-94.270432 55.989067 10.936738
-94.257111 55.987156 10.529868
-94.242531 55.981804 10.123757
-94.230186 55.982243 9.7200336
-94.2201 55.988529 9.318471
-94.208771 55.991451 8.9174194
-94.14061 56.136871 4.9597774
-94.359726 55.956409 12.188088
-94.350327 55.96513 11.778803
-94.346642 55.988697 11.374058
-94.331184 55.981312 10.96409
-94.317955 55.97963 10.556789
-94.313972 56.002136 10.155299
-94.294701 55.984383 9.7476873
-94.277679 55.972416 9.3425827
-94.27346 55.994041 8.9440384
-94.260971 55.993835 8.5430107
-94.209618 56.150753 4.9817872
-94.406792 55.982178 11.395623
-94.387878 55.965801 10.983367
-94.374695 55.964283 10.575721
-94.363747 55.968525 10.170518
-94.358566 55.987804 9.7691326
-94.340942 56.007072 8.9658775
-94.570938 55.661217 18.549623
-94.44281 55.976154 10.601563
-94.435417 55.989834 10.197448
-94.419731 55.981678 9.7905684
-94.398651 55.992069 8.9850245
-94.637657 55.666267 18.591002
-94.509865 55.951599 11.033251
-94.517853 56.005672 10.635423
-94.492912 55.973621 10.222072
-94.459755 55.98576 9.0100489
-94.447372 55.98613 8.6076374
-94.444328 56.010956 8.2095804
-94.697792 55.65659 18.617847
-94.578583 55.999996 10.654351
-94.522255 56.01833 8.6298122
-94.512169 56.024818 8.2284546
-94.497292 56.018696 7.8263454
-94.484718 56.018513 7.4259582
-94.590141 56.034229 8.6371269
-94.569389 56.013 8.2313738
-94.54895 56.025352 7.4303679
-94.929749 55.598351 18.64259
-94.721008 56.026436 7.0222096
-94.716316 56.047619 6.6236701
-94.800148 56.07169 7.0217657
-96.763779 55.871368 8.782423
-96.761078 55.898308 8.3667955
-96.873833 55.828583 10.897485
-96.84169 55.850292 9.6287699
-96.856766 55.920803 9.2179365
-96.844383 55.923725 8.7970505
-96.819435 55.895592 8.372962
-96.784866 55.909943 7.1203384
-96.916512 55.885712 9.6275225
-96.87915 55.89426 8.3643827
-96.875145 55.917763 7.9479465
-96.89518 55.910522 6.6776652
-96.978775 55.922676 7.0801306
-97.051338 55.948444 7.0698791
-97.100357 55.918354 7.0626192
-97.083946 55.913052 6.6433325
-97.179741 55.960369 7.0753951
-97.140747 55.899857 6.6499181
-97.222641 55.919331 7.0860629
-97.407326 55.921993 7.148541
-97.528511 55.863914 9.6971674
-97.590248 55.859104 9.7044058
-97.854103 55.484726 18.521458
-97.913742 55.460976 18.522629
-97.782227 55.85236 9.7253428
-97.981796 55.445633 18.521219
-97.849266 55.847279 9.7187223
-98.042229 55.410736 18.519976
-97.92057 55.850216 9.7201843
-98.131989 55.45388 18.553072
-97.859383 56.070549 3.3665154
-97.845497 56.072376 2.9444807
-97.83783 56.089287 2.5226233
-98.054977 55.845673 9.7363758
-98.238739 55.381016 18.572407
-98.304726 55.370026 18.592117
-98.377769 55.761131 9.7518044
-98.511032 55.714165 11.922999
-98.579033 55.696262 11.923307
-98.65818 55.738354 11.504621
-100.08884 55.322525 18.493269
-100.195 55.314808 18.510321
-100.31532 55.314556 18.52133
-100.42571 55.287563 18.522572
-100.85072 55.342758 16.729658
-100.82118 55.356327 15.793194
-100.8139 55.379097 15.332832
-100.79015 55.40419 14.411933
-100.93875 55.320259 16.821363
-101.19592 55.328381 16.849041
-101.18821 55.350887 16.381664
-101.17057 55.351925 15.909917
-82.009178 56.908424 4.6299677
-82.387466 56.887119 5.1082191
-82.3601 56.846397 4.6016574
-82.343117 56.860207 4.0982919
-82.329033 56.889339 3.5954916
-82.315987 56.923985 3.0925841
-82.741982 56.832005 5.0911016
-82.723579 56.840382 4.5864515
-82.706261 56.854237 4.0823126
-82.682358 56.834332 3.5773742
-83.093117 56.860367 4.5903554
-83.075432 56.874435 4.085187
-83.049004 56.844978 3.578948
-83.039444 56.899395 3.0751216
-83.017204 56.890675 2.5699322
-82.99411 56.877628 2.0650489
-83.457092 56.857967 4.6079001
-83.422272 56.892223 3.5961454
-83.39846 56.878384 3.0897307
-83.379837 56.88958 2.5840557
-83.358307 56.886658 2.0783243
-83.335892 56.87941 1.5727617
-84.896576 56.742611 5.1981936
-84.879448 56.762562 4.6893606
-87.457108 56.363552 9.8990469
-87.669769 56.596027 5.244905
-88.005585 56.546165 5.2370124
-88.705688 56.534512 5.2534614
-89.049927 56.496731 5.2556071
-89.03476 56.518055 4.7365456
-89.408096 56.495354 5.2477274
-89.381355 56.478474 4.7257013
-89.747459 56.424763 5.2316728
-89.750252 56.503284 4.7136669
-90.103989 56.398258 5.23142
-90.098145 56.448193 4.7110896
-90.480835 56.424587 5.2511292
-90.850502 56.417805 5.2674646
-90.833015 56.430122 4.7426147
-91.22567 56.355713 5.8058619
-91.206673 56.363091 5.2794929
-91.581718 56.352528 5.2950525
-91.97776 56.330509 5.8472214
-91.949158 56.310127 5.3167629
-92.321632 56.274281 5.3406568
-92.712303 56.283195 5.3626299
-93.090057 56.252396 5.3770175
-93.462212 56.200066 5.393333
-93.870148 56.238491 5.4189057
-94.296074 56.149082 7.0433211
-94.261292 56.171959 5.9699683
-94.221603 56.125576 5.4306483
-94.673714 56.154915 6.5148125
-94.609734 56.104431 5.4352541
-95.012077 56.119041 5.4338408
-95.3918 56.075512 5.4321213
-101.7217 55.54052 11.066607
-82.250603 56.323662 18.777058
-82.578377 56.294262 18.763128
-82.563866 56.3246 18.006966
-82.817108 56.255821 19.036774
-82.782036 56.297119 17.516754
-82.772507 56.302837 17.141142
-82.827599 56.358418 15.605604
-83.54525 56.485725 14.003384
-83.5354 56.496483 13.645356
-83.52697 56.513401 13.290639
-83.511665 56.498756 12.92889
-83.506058 56.528141 12.580464
-83.480476 56.520523 11.870824
-83.648048 56.551834 11.108569
-83.619736 56.59243 10.071745
-83.618896 56.644756 9.7350931
-83.600517 56.617138 9.3848324
-83.589958 56.624981 9.0419149
-83.574554 56.610508 8.6964216
-83.797462 56.568195 10.359865
-83.78833 56.584705 10.015487
-83.736816 56.582012 8.6355515
-83.963547 56.587227 10.326291
-83.949997 56.584301 9.9776087
-83.944496 56.616726 9.6364508
-83.931816 56.617329 9.29041
-83.920662 56.624531 8.9464607
-83.906693 56.619083 8.6014576
-83.898605 56.639606 8.2611694
-83.879005 56.608814 7.9145727
-84.110863 56.562016 9.9438982
-84.06987 56.605358 8.5677805
-84.053024 56.586979 8.2215986
-84.04435 56.604244 7.8813176
-84.533958 56.179974 18.9764
-84.313591 56.478256 11.28974
-84.284561 56.578442 9.9084435
-84.498558 56.517361 11.24045
-84.461388 56.534008 10.189547
-84.455948 56.568497 9.8468428
-84.452103 56.609619 9.5058022
-84.436218 56.599766 9.1566601
-84.417389 56.577225 8.8067446
-84.404694 56.580502 8.4620113
-84.389061 56.571136 8.1163883
-84.381836 56.597397 7.7763824
-84.663124 56.48098 11.172554
-84.620178 56.540005 9.7800226
-84.615768 56.580708 9.4386749
-84.596855 56.560856 9.0877495
-84.579552 56.547523 8.7392168
-84.842537 56.512184 11.112293
-84.794769 56.49773 10.05323
-85.023766 56.429935 11.737736
-84.932663 56.484562 9.2841396
-84.922203 56.502014 8.9392872
-84.913406 56.526089 8.5961123
-84.901535 56.53759 8.2516632
-84.888969 56.54612 7.9074993
-85.80722 56.07032 18.994926
-85.991531 56.077866 18.964371
-86.164207 56.068073 18.952263
-85.91288 56.424797 11.901086
-85.888657 56.399559 11.535645
-86.332001 56.033047 18.972507
-85.99691 56.490448 9.7908754
-85.965714 56.504089 9.0878162
-85.934921 56.453773 8.7289286
-85.92379 56.476833 8.3825283
-86.217834 56.400623 11.233888
-86.171951 56.494705 9.8261461
-86.4076 56.422493 11.637382
-86.376732 56.376347 11.266611
-86.373795 56.430725 10.919312
-86.320961 56.433647 9.8499203
-86.322655 56.504471 9.5079422
-86.305275 56.505749 9.1543627
-86.27404 56.456257 8.7939663
-86.265533 56.489548 8.4475183
-86.243179 56.472065 8.0944815
-86.227882 56.480251 7.7459083
-86.483841 56.449024 9.8911161
-86.434952 56.525291 8.488039
-86.694725 56.375332 11.346711
-86.687248 56.411449 10.993999
-86.630508 56.397308 9.917201
-86.728592 56.540367 7.8423982
-88.185333 56.028412 17.83106
-88.292953 56.279366 12.286491
-88.58271 55.984978 18.838032
-88.538078 55.987946 17.631456
-88.703293 55.959633 18.901173
-88.668922 55.990845 17.703186
-88.486816 56.335323 9.8370705
-88.819458 55.929634 18.951391
-88.79847 55.99754 17.765728
-88.669533 56.23452 12.066913
-88.654526 56.31086 10.97387
-88.594818 56.287518 9.5069265
-88.588028 56.306725 9.1473999
-88.571236 56.294605 8.7837992
-88.568573 56.326565 8.427681
-88.558937 56.336636 8.0689745
-88.932144 55.886539 18.98188
-88.918709 55.972702 17.802135
-88.814125 56.223656 12.471668
-88.784058 56.289036 11.001063
-88.743553 56.281391 9.8989964
-88.704254 56.315048 8.4525099
-88.701149 56.344116 8.0957098
-88.917511 56.241817 11.390649
-88.916496 56.276825 11.028159
-89.062096 56.261951 11.444445
-89.039986 56.232159 11.067311
-89.331345 55.943111 18.791893
-89.29493 55.951714 17.579498
-89.215012 56.199284 12.615919
-89.174324 56.222164 11.127296
-89.173195 56.254776 10.763887
-89.158669 56.246967 10.393369
-89.120621 56.310654 8.5753517
-89.103203 56.293438 8.2100115
-89.434074 55.88171 18.845394
-89.420685 55.953709 17.656073
-89.558479 55.895145 18.919392
-89.535141 55.933018 17.713724
-89.391014 56.309845 8.6749811
-89.67305 55.854877 18.967094
-89.600891 56.173965 12.777478
-89.599442 56.201717 12.406264
-89.587494 56.198559 12.028849
-89.577621 56.201366 11.654355
-89.567329 56.234447 10.915144
-89.560623 56.24625 10.546153
-89.531441 56.223053 9.8029375
-89.537453 56.272152 9.4435616
-89.517113 56.243317 9.0720177
-89.505051 56.270016 8.345295
-89.821754 55.92004 18.647537
-89.791046 55.932026 17.433243
-89.925529 55.909138 17.479244
-89.899323 55.96468 15.904984
-90.098969 55.900902 18.74716
-90.062988 55.897774 17.52198
-90.031212 55.93676 15.939038
-90.026611 55.955597 15.551607
-90.235977 55.898685 18.794199
-90.224434 55.898903 18.38266
-90.1912 55.870098 17.556723
-90.176186 55.955109 15.986932
-90.358543 55.853962 18.818642
-90.326813 55.861507 17.593613
-90.504044 55.853771 18.853855
-90.469177 55.853466 17.623262
-90.441429 55.933487 15.649692
-90.638542 55.809063 18.868172
-90.622536 55.862492 17.656778
-90.785042 55.798412 18.899408
-90.762421 55.835129 17.679346
-90.913376 55.844772 17.713577
-90.856552 56.133934 12.282002
-91.067039 55.766563 18.942785
-91.075043 55.854321 18.149057
-91.054169 55.831085 17.729378
-90.990395 56.103798 12.285207
-90.934067 56.165165 9.6497602
-90.933617 56.194355 9.2808704
-91.236336 55.85062 18.579708
-91.195549 55.808434 17.737766
-91.04747 56.167084 8.531476
-91.356895 55.827343 17.766331
-91.239174 56.128471 10.40266
-91.413353 56.100651 11.540472
-91.401154 56.132607 10.785375
-91.688316 55.823212 18.61919
-91.649155 55.791237 17.776926
-91.562546 56.167854 10.786213
-91.533646 56.123882 10.397787
-91.81179 55.824928 17.793629
-91.953583 55.813507 17.799295
-91.873665 56.051903 12.67436
-92.119835 55.795677 18.644522
-92.079796 55.764538 17.798727
-92.086929 55.81794 17.405836
-92.261818 55.781303 18.657057
-92.254494 55.79847 18.244778
-92.238853 55.794361 17.826799
-92.214859 55.768833 17.403652
-92.207855 55.821121 16.602613
-92.185059 55.832573 15.795626
-92.363907 55.774586 17.414207
-92.332001 55.79929 16.194941
-92.551292 55.767986 18.664684
-92.517403 55.755093 17.822006
-92.510574 55.773598 17.414116
-92.495331 55.770832 17.000786
-92.492798 55.799686 16.601004
-92.474777 55.789577 16.189873
-92.476624 55.829098 15.797515
-92.688515 55.74049 18.655924
-92.675377 55.780087 17.832355
-92.642448 55.769703 16.999866
-92.621613 55.788551 16.187628
-92.612709 55.801449 15.785876
-92.833862 55.736916 18.663807
-92.817024 55.767998 17.835608
-92.806465 55.77795 17.422995
-92.777534 55.777939 16.597872
-92.753723 55.789772 15.786247
-92.973312 55.757275 18.266165
-92.946327 55.727455 17.835257
-92.946434 55.763741 17.431999
-92.890259 55.803364 15.396502
-93.103889 55.756992 17.860916
-93.268333 55.729649 18.703777
-93.240524 55.735458 17.861557
-93.409485 55.717529 18.705082
-93.401604 55.735458 18.287868
-93.388626 55.740929 17.86832
-93.3778 55.751358 17.453157
-93.203667 56.028526 9.5544634
-93.542847 55.686005 18.704634
-93.510773 55.72002 17.451483
-93.678932 55.668331 18.722561
-93.685616 55.721191 18.317863
-93.657898 55.729095 17.47732
-93.808601 55.65815 18.756166
-93.808212 55.693909 18.344065
-93.791939 55.728386 17.512159
-93.929329 55.668617 18.780479
-93.898376 55.705441 17.520523
-93.785286 55.96497 11.510992
-93.746635 56.059864 9.7752781
-93.704369 56.057285 8.6159678
-93.953323 55.912109 13.712294
-93.897469 56.0107 10.956058
-93.845032 56.080692 8.6360893
-94.018944 55.987217 10.972988
-93.981636 55.996098 9.8023682
-94.192009 55.927513 12.967812
-94.167297 55.999172 11.393418
-94.149925 55.990833 10.997342
-94.146072 56.045673 10.22325
-94.109055 55.991241 9.8227835
-94.07946 56.017105 8.6628485
-94.107262 56.113617 8.2902012
-94.086937 56.09763 7.902092
-94.069199 56.087585 7.5158958
-94.399887 55.651695 18.716167
-94.52272 55.650467 18.759371
-94.610794 55.570621 18.774132
-95.160217 55.902424 12.016047
-95.117828 55.901501 10.81622
-95.252998 55.921047 10.852275
-95.51564 55.616112 18.697655
-95.367027 55.894268 10.887644
-95.340843 55.928371 9.7016144
-95.610176 55.550583 18.724779
-95.493843 55.894993 10.92435
-95.476433 55.947906 9.7391262
-95.44619 55.971882 8.5573702
-95.451004 56.012661 8.1696424
-95.730522 55.53936 18.761478
-95.613518 55.879356 10.946468
-95.592445 55.923767 9.7578773
-95.562553 55.948174 8.574564
-95.850845 55.520832 18.787659
-95.737061 55.927151 10.172978
-95.719063 55.917942 9.7726393
-95.875298 55.883083 10.989388
-96.000183 55.874531 11.018301
-95.96804 55.893627 9.8182917
-95.951782 55.946377 8.6329403
-96.077141 55.939861 8.6543894
-96.53775 55.791447 12.672259
-96.53788 55.820438 12.268368
-96.52388 55.819569 11.858793
-96.520935 55.841923 11.455787
-96.506287 55.867889 10.649158
-96.498795 55.880402 10.247424
-96.479294 55.895653 9.4453697
-96.4842 55.934227 9.0506792
-96.453804 55.897919 8.6454105
-96.438828 55.894207 8.2462969
-96.435066 55.914238 7.8511987
-97.664909 55.499287 18.600943
-97.788712 55.479408 18.61948
-97.913864 55.465076 18.65163
-97.799225 55.820797 10.226965
-98.036766 55.448879 18.689936
-98.018433 55.50304 17.377398
-98.150772 55.406448 18.715544
-98.145599 55.486794 17.410965
-98.270393 55.373508 18.740099
-98.278343 55.48 17.443237
-98.522713 55.442375 17.502384
-98.642761 55.425072 17.546234
-98.695984 55.732616 10.814588
-98.851578 55.672901 12.515918
-98.83329 55.719948 11.263184
-98.837349 55.755184 10.851837
-99.174309 55.394531 18.613749
-99.151817 55.437336 17.281023
-99.131805 55.455559 16.400583
-99.107834 55.437824 15.955051
-99.087433 55.482059 14.662598
-99.299583 55.377193 18.646667
-99.268646 55.403931 17.305958
-99.275314 55.444725 16.874937
-99.242882 55.439106 15.989471
-99.235062 55.452015 15.555264
-99.222939 55.484173 14.694495
-99.416634 55.344601 18.668383
-99.399376 55.39719 17.33518
-99.383827 55.395947 16.88883
-99.379822 55.41634 16.452236
-99.545273 55.328781 18.691401
-101.03172 55.297668 18.508497
-101.15704 55.276829 18.542551
-101.54019 55.196957 18.615473
-101.52646 55.22961 17.702259
-101.68464 55.191082 18.644407
