# .PCD v0.7 - Point Cloud Data file format
VERSION 0.7
FIELDS x y z
SIZE 4 4 4
TYPE F F F
COUNT 1 1 1
WIDTH 1548
HEIGHT 1
VIEWPOINT 0 0 0 1 0 0 0
POINTS 1548
DATA ascii
-101.72335 4.3423853 15.916631
-101.72327 4.342391 16.007631
-101.72318 4.3423967 16.098633
-101.7231 4.3424025 16.189634
-101.72301 4.3424082 16.280636
-101.72293 4.3424139 16.371637
-101.72285 4.3424196 16.462639
-101.72276 4.3424253 16.55364
-101.72268 4.3424311 16.644642
-101.7226 4.3424368 16.735643
-101.72251 4.3424425 16.826645
-101.72243 4.3424482 16.917646
-101.72234 4.342454 17.008648
-101.72226 4.3424597 17.099649
-101.72218 4.3424654 17.190651
-101.72209 4.3424711 17.281652
-101.72201 4.3424768 17.372654
-101.72192 4.3424826 17.463655
-101.72184 4.3424883 17.554657
-101.72176 4.342494 17.645658
-101.72167 4.3424997 17.73666
-101.72159 4.3425055 17.827662
-101.7215 4.3425112 17.918663
-101.72142 4.3425169 18.009665
-101.72134 4.3425226 18.100666
-101.72125 4.3425283 18.191668
-101.72117 4.3425341 18.282669
-101.72108 4.3425398 18.373671
-101.721 4.3425455 18.464672
-101.72092 4.3425512 18.555674
-101.72083 4.342557 18.646675
-101.72075 4.3425627 18.737677
-101.72066 4.3425684 18.828678
-101.72058 4.3425741 18.91968
-101.7205 4.3425798 19.010681
-101.72041 4.3425856 19.101683
-101.72033 4.3425913 19.192684
-101.72025 4.342597 19.283686
-101.72016 4.3426027 19.374687
-101.72008 4.3426085 19.465689
-101.71999 4.3426142 19.55669
-101.71991 4.3426199 19.647692
-101.71983 4.3426256 19.738693
-101.71974 4.3426313 19.829695
-101.71966 4.3426371 19.920696
-101.71957 4.3426428 20.011698
-101.71949 4.3426485 20.102699
-101.71941 4.3426542 20.193701
-101.71932 4.34266 20.284702
-101.71924 4.3426657 20.375704
-101.71915 4.3426714 20.466705
-101.71907 4.3426771 20.557707
-101.71899 4.3426828 20.648708
-101.7189 4.3426886 20.73971
-101.71882 4.3426943 20.830711
-101.71873 4.3427 20.921713
-101.71865 4.3427057 21.012714
-101.71857 4.3427114 21.103716
-101.71848 4.3427172 21.194717
-101.7184 4.3427229 21.285719
-101.71832 4.3427286 21.37672
-101.71823 4.3427343 21.467722
-101.71815 4.3427401 21.558723
-101.71806 4.3427458 21.649725
-101.71798 4.3427515 21.740726
-101.7179 4.3427572 21.831728
-101.71781 4.3427629 21.922729
-101.71773 4.3427687 22.013731
-101.71764 4.3427744 22.104733
-101.71756 4.3427801 22.195734
-101.71748 4.3427858 22.286736
-101.71739 4.3427916 22.377737
-101.71731 4.3427973 22.468739
-101.71722 4.342803 22.55974
-101.71714 4.3428087 22.650742
-101.71706 4.3428144 22.741743
-101.71697 4.3428202 22.832745
-101.71689 4.3428259 22.923746
-101.7168 4.3428316 23.014748
-101.71672 4.3428373 23.105749
-101.71664 4.3428431 23.196751
-99.081306 18.300322 19.173769
-99.090569 18.448507 19.173769
-99.099831 18.596693 19.173769
-99.109093 18.744879 19.173769
-99.118355 18.893064 19.173769
-99.127617 19.04125 19.173769
-99.136879 19.189436 19.173769
-99.146141 19.337622 19.173769
-99.155403 19.485807 19.173769
-99.164665 19.633993 19.173769
-99.173927 19.782179 19.173769
-99.183189 19.930365 19.173769
-99.192451 20.07855 19.173769
-99.201714 20.226736 19.173769
-99.210976 20.374922 19.173769
-99.220238 20.523108 19.173769
-99.2295 20.671293 19.173769
-99.238762 20.819479 19.173769
-99.248024 20.967665 19.173769
-99.257286 21.11585 19.173769
-99.266548 21.264036 19.173769
-99.27581 21.412222 19.173769
-99.285072 21.560408 19.173769
-99.294334 21.708593 19.173769
-99.303596 21.856779 19.173769
-99.312859 22.004965 19.173769
-99.322121 22.153151 19.173769
-99.331383 22.301336 19.173769
-99.340645 22.449522 19.173769
-99.349907 22.597708 19.173769
-99.359169 22.745893 19.173769
-99.368431 22.894079 19.173769
-99.377693 23.042265 19.173769
-99.386955 23.190451 19.173769
-99.396217 23.338636 19.173769
-99.405479 23.486822 19.173769
-99.414742 23.635008 19.173769
-99.424004 23.783194 19.173769
-99.433266 23.931379 19.173769
-99.442528 24.079565 19.173769
-99.45179 24.227751 19.173769
-99.461052 24.375937 19.173769
-99.470314 24.524122 19.173769
-99.479576 24.672308 19.173769
-99.488838 24.820494 19.173769
-99.4981 24.968679 19.173769
-99.507362 25.116865 19.173769
-99.516624 25.265051 19.173769
-99.525887 25.413237 19.173769
-99.535149 25.561422 19.173769
-99.544411 25.709608 19.173769
-99.553673 25.857794 19.173769
-99.562935 26.00598 19.173769
-99.572197 26.154165 19.173769
-99.581459 26.302351 19.173769
-99.590721 26.450537 19.173769
-99.599983 26.598722 19.173769
-99.609245 26.746908 19.173769
-99.618507 26.895094 19.173769
-99.627769 27.04328 19.173769
-99.637032 27.191465 19.173769
-99.646294 27.339651 19.173769
-99.655556 27.487837 19.173769
-99.664818 27.636023 19.173769
-99.67408 27.784208 19.173769
-99.683342 27.932394 19.173769
-99.692604 28.08058 19.173769
-99.701866 28.228765 19.173769
-99.711128 28.376951 19.173769
-99.72039 28.525137 19.173769
-99.729652 28.673323 19.173769
-99.738914 28.821508 19.173769
-99.748177 28.969694 19.173769
-99.757439 29.11788 19.173769
-99.766701 29.266066 19.173769
-99.775963 29.414251 19.173769
-99.785225 29.562437 19.173769
-99.794487 29.710623 19.173769
-99.803749 29.858809 19.173769
-99.813011 30.006994 19.173769
-99.822273 30.15518 19.173769
-99.831535 30.303366 19.173769
-99.840797 30.451551 19.173769
-99.85006 30.599737 19.173769
-99.859322 30.747923 19.173769
-99.868584 30.896109 19.173769
-99.877846 31.044294 19.173769
-99.887108 31.19248 19.173769
-99.89637 31.340666 19.173769
-99.905632 31.488852 19.173769
-99.914894 31.637037 19.173769
-99.924156 31.785223 19.173769
-99.933418 31.933409 19.173769
-99.94268 32.081593 19.173769
-99.951942 32.229778 19.173769
-99.961205 32.377964 19.173769
-99.970467 32.52615 19.173769
-99.979729 32.674335 19.173769
-99.988991 32.822521 19.173769
-99.998253 32.970707 19.173769
-100.00751 33.118893 19.173769
-100.01678 33.267078 19.173769
-100.02604 33.415264 19.173769
-100.0353 33.56345 19.173769
-100.04456 33.711636 19.173769
-100.05383 33.859821 19.173769
-100.06309 34.008007 19.173769
-100.07235 34.156193 19.173769
-100.08161 34.304379 19.173769
-100.09087 34.452564 19.173769
-100.10014 34.60075 19.173769
-100.1094 34.748936 19.173769
-100.11866 34.897121 19.173769
-100.12792 35.045307 19.173769
-100.13718 35.193493 19.173769
-100.14645 35.341679 19.173769
-100.15571 35.489864 19.173769
-100.16497 35.63805 19.173769
-100.17423 35.786236 19.173769
-100.18349 35.934422 19.173769
-100.19276 36.082607 19.173769
-100.20202 36.230793 19.173769
-100.21128 36.378979 19.173769
-100.22054 36.527164 19.173769
-100.2298 36.67535 19.173769
-100.23907 36.823536 19.173769
-100.24833 36.971722 19.173769
-100.25759 37.119907 19.173769
-100.26685 37.268093 19.173769
-100.27612 37.416279 19.173769
-100.28538 37.564465 19.173769
-100.29464 37.71265 19.173769
-100.3039 37.860836 19.173769
-100.31316 38.009022 19.173769
-100.32243 38.157207 19.173769
-100.33169 38.305393 19.173769
-100.34095 38.453579 19.173769
-100.35021 38.601765 19.173769
-100.35947 38.74995 19.173769
-100.36874 38.898136 19.173769
-100.378 39.046322 19.173769
-100.38726 39.194508 19.173769
-100.39652 39.342693 19.173769
-100.40578 39.490879 19.173769
-100.41505 39.639065 19.173769
-100.42431 39.787251 19.173769
-100.43357 39.935436 19.173769
-100.44283 40.083622 19.173769
-100.4521 40.231808 19.173769
-100.46136 40.379993 19.173769
-100.47062 40.528179 19.173769
-100.47988 40.676365 19.173769
-100.48914 40.824551 19.173769
-100.49841 40.972736 19.173769
-100.50767 41.120922 19.173769
-100.51693 41.269108 19.173769
-100.52619 41.417294 19.173769
-100.53545 41.565479 19.173769
-100.54472 41.713665 19.173769
-100.55398 41.861851 19.173769
-100.56324 42.010036 19.173769
-100.5725 42.158222 19.173769
-100.58176 42.306408 19.173769
-100.59103 42.454594 19.173769
-100.60029 42.602779 19.173769
-100.60955 42.750965 19.173769
-100.61881 42.899151 19.173769
-100.62807 43.047337 19.173769
-100.63734 43.195522 19.173769
-100.6466 43.343708 19.173769
-100.65586 43.491894 19.173769
-100.66512 43.640079 19.173769
-100.67439 43.788265 19.173769
-100.68365 43.936451 19.173769
-100.69291 44.084637 19.173769
-100.70217 44.232822 19.173769
-100.71143 44.381008 19.173769
-100.7207 44.529194 19.173769
-100.72996 44.67738 19.173769
-100.73922 44.825565 19.173769
-100.74848 44.973751 19.173769
-100.75774 45.121937 19.173769
-100.76701 45.270123 19.173769
-100.77627 45.418308 19.173769
-100.78553 45.566494 19.173769
-100.79479 45.71468 19.173769
-100.80405 45.862865 19.173769
-100.81332 46.011051 19.173769
-100.82258 46.159237 19.173769
-100.83184 46.307423 19.173769
-100.8411 46.455608 19.173769
-100.85036 46.603794 19.173769
-100.85963 46.75198 19.173769
-100.86889 46.900166 19.173769
-100.87815 47.048351 19.173769
-100.88741 47.196537 19.173769
-100.89668 47.344723 19.173769
-100.90594 47.492908 19.173769
-100.9152 47.641094 19.173769
-100.92446 47.78928 19.173769
-100.93372 47.937466 19.173769
-100.94299 48.085651 19.173769
-100.95225 48.233837 19.173769
-100.96151 48.382023 19.173769
-100.97077 48.530209 19.173769
-100.98003 48.678394 19.173769
-100.9893 48.82658 19.173769
-100.99856 48.974766 19.173769
-101.00782 49.122952 19.173769
-101.01708 49.271137 19.173769
-101.02634 49.419323 19.173769
-101.03561 49.567509 19.173769
-101.04487 49.715694 19.173769
-101.05413 49.86388 19.173769
-101.06339 50.012066 19.173769
-101.07265 50.160252 19.173769
-101.08192 50.308437 19.173769
-101.09118 50.456623 19.173769
-101.10044 50.604809 19.173769
-101.1097 50.752995 19.173769
-101.11897 50.90118 19.173769
-101.12823 51.049366 19.173769
-101.13749 51.197552 19.173769
-101.14675 51.345737 19.173769
-101.15601 51.493923 19.173769
-101.16528 51.642109 19.173769
-101.17454 51.790295 19.173769
-101.1838 51.93848 19.173769
-101.19306 52.086666 19.173769
-101.20232 52.234852 19.173769
-101.21159 52.383038 19.173769
-101.22085 52.531223 19.173769
-101.23011 52.679409 19.173769
-101.23937 52.827595 19.173769
-101.24863 52.97578 19.173769
-101.2579 53.123966 19.173769
-101.26716 53.272152 19.173769
-101.27642 53.420338 19.173769
-101.28568 53.568523 19.173769
-101.29494 53.716709 19.173769
-101.30421 53.864895 19.173769
-101.31347 54.013081 19.173769
-101.32273 54.161266 19.173769
-101.33199 54.309452 19.173769
-101.34126 54.457638 19.173769
-101.35052 54.605824 19.173769
-101.35978 54.754009 19.173769
-101.36904 54.902195 19.173769
-101.3783 55.050381 19.173769
-101.38757 55.198566 19.173769
-101.39683 55.346752 19.173769
-101.39643 55.346527 19.173769
-101.39568 55.345249 19.099512
-101.39492 55.343971 19.025255
-101.39417 55.342693 18.950998
-101.39341 55.341415 18.876741
-101.39265 55.340137 18.802485
-101.3919 55.33886 18.728228
-101.39114 55.337582 18.653971
-101.39039 55.336304 18.579714
-101.38963 55.335026 18.505457
-101.38888 55.333748 18.4312
-101.38812 55.33247 18.356943
-101.38737 55.331192 18.282686
-101.38661 55.329914 18.208429
-101.38586 55.328636 18.134172
-101.3851 55.327358 18.059916
-101.38435 55.32608 17.985659
-101.38359 55.324802 17.911402
-101.38284 55.323524 17.837145
-101.38208 55.322247 17.762888
-101.38132 55.320969 17.688631
-101.38057 55.319691 17.614374
-101.37981 55.318413 17.540117
-101.37906 55.317135 17.46586
-101.3783 55.315857 17.391603
-101.37755 55.314579 17.317347
-101.37679 55.313301 17.24309
-101.37604 55.312023 17.168833
-101.37528 55.310745 17.094576
-101.37453 55.309467 17.020319
-101.37377 55.308189 16.946062
-101.37302 55.306911 16.871805
-101.37226 55.305634 16.797548
-101.37151 55.304356 16.723291
-101.37075 55.303078 16.649035
-101.37 55.3018 16.574778
-101.36924 55.300522 16.500521
-101.36848 55.299244 16.426264
-101.36773 55.297966 16.352007
-101.36697 55.296688 16.27775
-101.36622 55.29541 16.203493
-101.36546 55.294132 16.129236
-101.36471 55.292854 16.054979
-101.36395 55.291576 15.980723
-101.3632 55.290298 15.906467
-101.36244 55.289021 15.832211
-101.36169 55.287743 15.757956
-101.36093 55.286465 15.6837
-101.36018 55.285187 15.609444
-101.35942 55.283909 15.535188
-101.35867 55.282631 15.460932
-101.35791 55.281353 15.386676
-101.35715 55.280075 15.31242
-101.3564 55.278797 15.238164
-101.35564 55.277519 15.163908
-101.35489 55.276241 15.089652
-101.35413 55.274963 15.015396
-101.35338 55.273685 14.94114
-101.35262 55.272408 14.866884
-101.35187 55.27113 14.792628
-101.35111 55.269852 14.718372
-101.35036 55.268574 14.644116
-101.3496 55.267296 14.56986
-101.34885 55.266018 14.495605
-101.34809 55.26474 14.421349
-101.34734 55.263462 14.347093
-101.34658 55.262184 14.272837
-101.34583 55.260906 14.198581
-101.34507 55.259628 14.124325
-101.34431 55.25835 14.050069
-101.34356 55.257072 13.975813
-101.3428 55.255795 13.901557
-101.34205 55.254517 13.827301
-101.34129 55.253239 13.753045
-101.34054 55.251961 13.678789
-101.33978 55.250683 13.604533
-101.33903 55.249405 13.530277
-101.33827 55.248127 13.456021
-101.33752 55.246849 13.381765
-101.33676 55.245571 13.307509
-101.33601 55.244293 13.233253
-101.33525 55.243015 13.158998
-101.3345 55.241737 13.084742
-101.33374 55.240459 13.010486
-101.33298 55.239182 12.93623
-101.33223 55.237904 12.861974
-101.33147 55.236626 12.787718
-101.33072 55.235348 12.713462
-101.32996 55.23407 12.639206
-101.32921 55.232792 12.56495
-101.32845 55.231514 12.490694
-101.3277 55.230236 12.416438
-101.32694 55.228958 12.342182
-101.32619 55.22768 12.267926
-101.32543 55.226402 12.19367
-101.32468 55.225124 12.119414
-101.32392 55.223846 12.045158
-101.32317 55.222569 11.970902
-101.32241 55.221291 11.896646
-101.32166 55.220013 11.822391
-101.3209 55.218735 11.748135
-101.32014 55.217457 11.673879
-101.31939 55.216179 11.599623
-101.31863 55.214901 11.525367
-101.31788 55.213623 11.451111
-101.31712 55.212345 11.376855
-101.31637 55.211067 11.302599
-101.31561 55.209789 11.228343
-101.31486 55.208511 11.154087
-101.3141 55.207233 11.079831
-101.31335 55.205956 11.005575
-101.31259 55.204678 10.931319
-101.31184 55.2034 10.857063
-101.31108 55.202122 10.782807
-101.31033 55.200844 10.708551
-101.30957 55.199566 10.634295
-101.30882 55.198288 10.56004
-101.30806 55.19701 10.485784
-101.3073 55.195732 10.411528
-101.30655 55.194454 10.337272
-101.30579 55.193176 10.263016
-101.30504 55.191898 10.18876
-101.30428 55.19062 10.114504
-101.30353 55.189342 10.040248
-101.30277 55.188065 9.965992
-101.30202 55.186787 9.891736
-101.30126 55.185509 9.8174801
-101.30051 55.184231 9.7432241
-101.29975 55.182953 9.6689682
-101.299 55.181675 9.5947123
-101.29824 55.180397 9.5204563
-101.29749 55.179119 9.4462004
-101.29673 55.177841 9.3719444
-101.29597 55.176563 9.2976885
-101.29522 55.175285 9.2234325
-101.29446 55.174007 9.1491766
-101.29371 55.172729 9.0749207
-101.29295 55.171452 9.0006647
-101.2922 55.170174 8.9264088
-101.29144 55.168896 8.8521528
-101.29069 55.167618 8.7778969
-101.28993 55.16634 8.7036409
-101.28918 55.165062 8.629385
-101.28842 55.163784 8.5551291
-101.28767 55.162506 8.4808731
-101.28691 55.161228 8.4066172
-101.28616 55.15995 8.3323612
-101.2854 55.158672 8.2581053
-101.28465 55.157394 8.1838493
-101.28389 55.156116 8.1095934
-101.28313 55.154839 8.0353374
-101.28238 55.153561 7.9610815
-101.28162 55.152283 7.8868256
-101.28087 55.151005 7.8125696
-101.28011 55.149727 7.7383137
-101.27936 55.148449 7.6640577
-101.2786 55.147171 7.5898018
-101.27785 55.145893 7.5155458
-101.27709 55.144615 7.4412899
-101.27634 55.143337 7.367034
-101.27558 55.142059 7.292778
-101.27483 55.140781 7.2185221
-101.27407 55.139503 7.1442661
-101.27332 55.138226 7.0700102
-101.27256 55.136948 6.9957542
-101.2718 55.13567 6.9214983
-101.27105 55.134392 6.8472424
-101.27029 55.133114 6.7729864
-101.26954 55.131836 6.6987305
-101.26878 55.130558 6.6244745
-101.26803 55.12928 6.5502186
-101.26727 55.128002 6.4759626
-101.26652 55.126724 6.4017067
-101.26576 55.125446 6.3274508
-101.26501 55.124168 6.2531948
-101.26425 55.12289 6.1789389
-101.2635 55.121613 6.1046829
-101.26274 55.120335 6.030427
-101.26199 55.119057 5.956171
-101.26123 55.117779 5.8819151
-101.26048 55.116501 5.8076591
-101.25972 55.115223 5.7334032
-101.25896 55.113945 5.6591473
-101.25821 55.112667 5.5848913
-101.25745 55.111389 5.5106354
-101.2567 55.110111 5.4363794
-101.25594 55.108833 5.3621235
-101.25519 55.107555 5.2878675
-101.25443 55.106277 5.2136116
-101.25368 55.105 5.1393557
-101.25292 55.103722 5.0650997
-101.25217 55.102444 4.9908438
-101.25141 55.101166 4.9165878
-101.25066 55.099888 4.8423319
-101.2499 55.09861 4.7680759
-101.24915 55.097332 4.69382
-101.24839 55.096054 4.6195641
-101.24763 55.094776 4.5453081
-101.24688 55.093498 4.4710522
-101.24612 55.09222 4.3967962
-101.24537 55.090942 4.3225403
-101.24461 55.089664 4.2482843
-101.24386 55.088387 4.1740284
-101.2431 55.087109 4.0997725
-101.24235 55.085831 4.0255165
-101.24159 55.084553 3.9512606
-101.24084 55.083275 3.8770046
-101.24008 55.081997 3.8027487
-101.23933 55.080719 3.7284927
-101.23857 55.079441 3.6542368
-101.23782 55.078163 3.5799809
-101.23706 55.076885 3.5057249
-101.23631 55.075607 3.431469
-101.23555 55.074329 3.357213
-101.23479 55.073051 3.2829571
-101.23404 55.071774 3.2087011
-101.23328 55.070496 3.1344452
-101.23253 55.069218 3.0601892
-101.23177 55.06794 2.9859333
-101.23102 55.066662 2.9116774
-101.23026 55.065384 2.8374214
-101.22951 55.064106 2.7631655
-101.22875 55.062828 2.6889095
-101.228 55.06155 2.6146536
-101.22724 55.060272 2.5403976
-101.22649 55.058994 2.4661417
-101.22573 55.057716 2.3918858
-101.22498 55.056438 2.3176298
-101.22422 55.055161 2.2433739
-101.22346 55.053883 2.1691179
-101.22271 55.052605 2.094862
-101.22195 55.051327 2.020606
-101.2212 55.050049 1.94635
-101.22044 55.048771 1.8720939
-101.21969 55.047493 1.7978379
-101.21893 55.046215 1.7235818
-101.21818 55.044937 1.6493257
-101.21742 55.043659 1.5750697
-101.21667 55.042381 1.5008136
-101.21591 55.041103 1.4265575
-101.21516 55.039825 1.3523015
-101.2144 55.038548 1.2780454
-101.21365 55.03727 1.2037894
-101.21289 55.035992 1.1295333
-101.21214 55.034714 1.0552772
-101.21138 55.033436 0.98102123
-101.21062 55.032158 0.90676522
-101.20987 55.03088 0.83250922
-101.20911 55.029602 0.75825322
-101.20836 55.028324 0.68399721
-101.2076 55.027046 0.60974121
-101.20773 55.027191 0.60976231
-101.19851 54.879757 0.60976231
-101.18929 54.732323 0.60976231
-101.18008 54.584888 0.60976231
-101.17086 54.437454 0.60976231
-101.16164 54.29002 0.60976231
-101.15243 54.142586 0.60976231
-101.14321 53.995152 0.60976231
-101.134 53.847717 0.60976231
-101.12478 53.700283 0.60976231
-101.11556 53.552849 0.60976231
-101.10635 53.405415 0.60976231
-101.09713 53.25798 0.60976231
-101.08791 53.110546 0.60976231
-101.0787 52.963112 0.60976231
-101.06948 52.815678 0.60976231
-101.06026 52.668243 0.60976231
-101.05105 52.520809 0.60976231
-101.04183 52.373375 0.60976231
-101.03262 52.225941 0.60976231
-101.0234 52.078506 0.60976231
-101.01418 51.931072 0.60976231
-101.00497 51.783638 0.60976231
-100.99575 51.636204 0.60976231
-100.98653 51.48877 0.60976231
-100.97732 51.341335 0.60976231
-100.9681 51.193901 0.60976231
-100.95889 51.046467 0.60976231
-100.94967 50.899033 0.60976231
-100.94045 50.751598 0.60976231
-100.93124 50.604164 0.60976231
-100.92202 50.45673 0.60976231
-100.9128 50.309296 0.60976231
-100.90359 50.161861 0.60976231
-100.89437 50.014427 0.60976231
-100.88515 49.866993 0.60976231
-100.87594 49.719559 0.60976231
-100.86672 49.572124 0.60976231
-100.85751 49.42469 0.60976231
-100.84829 49.277256 0.60976231
-100.83907 49.129822 0.60976231
-100.82986 48.982388 0.60976231
-100.82064 48.834953 0.60976231
-100.81142 48.687519 0.60976231
-100.80221 48.540085 0.60976231
-100.79299 48.392651 0.60976231
-100.78378 48.245216 0.60976231
-100.77456 48.097782 0.60976231
-100.76534 47.950348 0.60976231
-100.75613 47.802914 0.60976231
-100.74691 47.655479 0.60976231
-100.73769 47.508045 0.60976231
-100.72848 47.360611 0.60976231
-100.71926 47.213177 0.60976231
-100.71004 47.065742 0.60976231
-100.70083 46.918308 0.60976231
-100.69161 46.770874 0.60976231
-100.6824 46.62344 0.60976231
-100.67318 46.476006 0.60976231
-100.66396 46.328571 0.60976231
-100.65475 46.181137 0.60976231
-100.64553 46.033703 0.60976231
-100.63631 45.886269 0.60976231
-100.6271 45.738834 0.60976231
-100.61788 45.5914 0.60976231
-100.60867 45.443966 0.60976231
-100.59945 45.296532 0.60976231
-100.59023 45.149097 0.60976231
-100.58102 45.001663 0.60976231
-100.5718 44.854229 0.60976231
-100.56258 44.706795 0.60976231
-100.55337 44.559361 0.60976231
-100.54415 44.411926 0.60976231
-100.53493 44.264492 0.60976231
-100.52572 44.117058 0.60976231
-100.5165 43.969624 0.60976231
-100.50729 43.822189 0.60976231
-100.49807 43.674755 0.60976231
-100.48885 43.527321 0.60976231
-100.47964 43.379887 0.60976231
-100.47042 43.232452 0.60976231
-100.4612 43.085018 0.60976231
-100.45199 42.937584 0.60976231
-100.44277 42.79015 0.60976231
-100.43356 42.642715 0.60976231
-100.42434 42.495281 0.60976231
-100.41512 42.347847 0.60976231
-100.40591 42.200413 0.60976231
-100.39669 42.052979 0.60976231
-100.38747 41.905544 0.60976231
-100.37826 41.75811 0.60976231
-100.36904 41.610676 0.60976231
-100.35983 41.463242 0.60976231
-100.35061 41.315807 0.60976231
-100.34139 41.168373 0.60976231
-100.33218 41.020939 0.60976231
-100.32296 40.873505 0.60976231
-100.31374 40.72607 0.60976231
-100.30453 40.578636 0.60976231
-100.29531 40.431202 0.60976231
-100.28609 40.283768 0.60976231
-100.27688 40.136333 0.60976231
-100.26766 39.988899 0.60976231
-100.25845 39.841465 0.60976231
-100.24923 39.694031 0.60976231
-100.24001 39.546597 0.60976231
-100.2308 39.399162 0.60976231
-100.22158 39.251728 0.60976231
-100.21236 39.104294 0.60976231
-100.20315 38.95686 0.60976231
-100.19393 38.809425 0.60976231
-100.18472 38.661991 0.60976231
-100.1755 38.514557 0.60976231
-100.16628 38.367123 0.60976231
-100.15707 38.219688 0.60976231
-100.14785 38.072254 0.60976231
-100.13863 37.92482 0.60976231
-100.12942 37.777386 0.60976231
-100.1202 37.629951 0.60976231
-100.11098 37.482517 0.60976231
-100.10177 37.335083 0.60976231
-100.09255 37.187649 0.60976231
-100.08334 37.040215 0.60976231
-100.07412 36.89278 0.60976231
-100.0649 36.745346 0.60976231
-100.05569 36.597912 0.60976231
-100.04647 36.450478 0.60976231
-100.03725 36.303043 0.60976231
-100.02804 36.155609 0.60976231
-100.01882 36.008175 0.60976231
-100.00961 35.860741 0.60976231
-100.00039 35.713306 0.60976231
-99.991173 35.565872 0.60976231
-99.981956 35.418438 0.60976231
-99.97274 35.271004 0.60976231
-99.963524 35.123569 0.60976231
-99.954308 34.976135 0.60976231
-99.945091 34.828701 0.60976231
-99.935875 34.681267 0.60976231
-99.926659 34.533833 0.60976231
-99.917442 34.386398 0.60976231
-99.908226 34.238964 0.60976231
-99.89901 34.09153 0.60976231
-99.889793 33.944096 0.60976231
-99.880577 33.796661 0.60976231
-99.871361 33.649227 0.60976231
-99.862144 33.501793 0.60976231
-99.852928 33.354359 0.60976231
-99.843712 33.206924 0.60976231
-99.834496 33.05949 0.60976231
-99.825279 32.912056 0.60976231
-99.816063 32.764622 0.60976231
-99.806847 32.617188 0.60976231
-99.79763 32.469753 0.60976231
-99.788414 32.322319 0.60976231
-99.779198 32.174885 0.60976231
-99.769981 32.027451 0.60976231
-99.760765 31.880018 0.60976231
-99.751549 31.732586 0.60976231
-99.742332 31.585154 0.60976231
-99.733116 31.437721 0.60976231
-99.7239 31.290289 0.60976231
-99.714684 31.142857 0.60976231
-99.705467 30.995424 0.60976231
-99.696251 30.847992 0.60976231
-99.687035 30.70056 0.60976231
-99.677818 30.553127 0.60976231
-99.668602 30.405695 0.60976231
-99.659386 30.258263 0.60976231
-99.650169 30.11083 0.60976231
-99.640953 29.963398 0.60976231
-99.631737 29.815966 0.60976231
-99.62252 29.668533 0.60976231
-99.613304 29.521101 0.60976231
-99.604088 29.373669 0.60976231
-99.594872 29.226236 0.60976231
-99.585655 29.078804 0.60976231
-99.576439 28.931372 0.60976231
-99.567223 28.783939 0.60976231
-99.558006 28.636507 0.60976231
-99.54879 28.489075 0.60976231
-99.539574 28.341642 0.60976231
-99.530357 28.19421 0.60976231
-99.521141 28.046778 0.60976231
-99.511925 27.899345 0.60976231
-99.502708 27.751913 0.60976231
-99.493492 27.604481 0.60976231
-99.484276 27.457048 0.60976231
-99.47506 27.309616 0.60976231
-99.465843 27.162184 0.60976231
-99.456627 27.014751 0.60976231
-99.447411 26.867319 0.60976231
-99.438194 26.719887 0.60976231
-99.428978 26.572454 0.60976231
-99.419762 26.425022 0.60976231
-99.410545 26.27759 0.60976231
-99.401329 26.130157 0.60976231
-99.392113 25.982725 0.60976231
-99.382896 25.835293 0.60976231
-99.37368 25.68786 0.60976231
-99.364464 25.540428 0.60976231
-99.355247 25.392996 0.60976231
-99.346031 25.245564 0.60976231
-99.336815 25.098131 0.60976231
-99.327599 24.950699 0.60976231
-99.318382 24.803267 0.60976231
-99.309166 24.655834 0.60976231
-99.29995 24.508402 0.60976231
-99.290733 24.36097 0.60976231
-99.281517 24.213537 0.60976231
-99.272301 24.066105 0.60976231
-99.263084 23.918673 0.60976231
-99.253868 23.77124 0.60976231
-99.244652 23.623808 0.60976231
-99.235435 23.476376 0.60976231
-99.226219 23.328943 0.60976231
-99.217003 23.181511 0.60976231
-99.207787 23.034079 0.60976231
-99.19857 22.886646 0.60976231
-99.189354 22.739214 0.60976231
-99.180138 22.591782 0.60976231
-99.170921 22.444349 0.60976231
-99.161705 22.296917 0.60976231
-99.152489 22.149485 0.60976231
-99.143272 22.002052 0.60976231
-99.134056 21.85462 0.60976231
-99.12484 21.707188 0.60976231
-99.115623 21.559755 0.60976231
-99.106407 21.412323 0.60976231
-99.097191 21.264891 0.60976231
-99.087975 21.117458 0.60976231
-99.078758 20.970026 0.60976231
-99.069542 20.822594 0.60976231
-99.060326 20.675161 0.60976231
-99.051109 20.527729 0.60976231
-99.041893 20.380297 0.60976231
-99.032677 20.232864 0.60976231
-99.02346 20.085432 0.60976231
-99.014244 19.938 0.60976231
-99.005028 19.790567 0.60976231
-98.995811 19.643135 0.60976231
-98.986595 19.495703 0.60976231
-98.977379 19.34827 0.60976231
-98.968163 19.200838 0.60976231
-98.958946 19.053406 0.60976231
-98.94973 18.905973 0.60976231
-98.940514 18.758541 0.60976231
-98.931297 18.611109 0.60976231
-98.922081 18.463676 0.60976231
-98.912865 18.316244 0.60976231
-98.903648 18.168812 0.60976231
-98.904358 18.169003 0.60976231
-98.905067 18.169527 0.68401831
-98.905777 18.170052 0.75827432
-98.906487 18.170576 0.83253032
-98.907196 18.171101 0.90678632
-98.907906 18.171625 0.98104233
-98.908615 18.17215 1.0552983
-98.909325 18.172674 1.1295544
-98.910034 18.173199 1.2038105
-98.910744 18.173723 1.2780665
-98.911453 18.174248 1.3523226
-98.912163 18.174772 1.4265786
-98.912872 18.175297 1.5008347
-98.913582 18.175821 1.5750908
-98.914291 18.176346 1.6493468
-98.915001 18.17687 1.7236029
-98.91571 18.177395 1.797859
-98.91642 18.177919 1.872115
-98.91713 18.178444 1.9463711
-98.917839 18.178968 2.020627
-98.918549 18.179493 2.094883
-98.919258 18.180017 2.1691389
-98.919968 18.180542 2.2433949
-98.920677 18.181067 2.3176508
-98.921387 18.181591 2.3919067
-98.922096 18.182116 2.4661627
-98.922806 18.18264 2.5404186
-98.923515 18.183165 2.6146746
-98.924225 18.183689 2.6889305
-98.924934 18.184214 2.7631865
-98.925644 18.184738 2.8374424
-98.926353 18.185263 2.9116983
-98.927063 18.185787 2.9859543
-98.927773 18.186312 3.0602102
-98.928482 18.186836 3.1344662
-98.929192 18.187361 3.2087221
-98.929901 18.187885 3.2829781
-98.930611 18.18841 3.357234
-98.93132 18.188934 3.4314899
-98.93203 18.189459 3.5057459
-98.932739 18.189983 3.5800018
-98.933449 18.190508 3.6542578
-98.934158 18.191032 3.7285137
-98.934868 18.191557 3.8027697
-98.935577 18.192081 3.8770256
-98.936287 18.192606 3.9512815
-98.936996 18.19313 4.0255375
-98.937706 18.193655 4.0997934
-98.938416 18.19418 4.1740494
-98.939125 18.194704 4.2483053
-98.939835 18.195229 4.3225613
-98.940544 18.195753 4.3968172
-98.941254 18.196278 4.4710732
-98.941963 18.196802 4.5453291
-98.942673 18.197327 4.619585
-98.943382 18.197851 4.693841
-98.944092 18.198376 4.7680969
-98.944801 18.1989 4.8423529
-98.945511 18.199425 4.9166088
-98.94622 18.199949 4.9908648
-98.94693 18.200474 5.0651207
-98.947639 18.200998 5.1393766
-98.948349 18.201523 5.2136326
-98.949059 18.202047 5.2878885
-98.949768 18.202572 5.3621445
-98.950478 18.203096 5.4364004
-98.951187 18.203621 5.5106564
-98.951897 18.204145 5.5849123
-98.952606 18.20467 5.6591682
-98.953316 18.205194 5.7334242
-98.954025 18.205719 5.8076801
-98.954735 18.206244 5.8819361
-98.955444 18.206768 5.956192
-98.956154 18.207293 6.030448
-98.956863 18.207817 6.1047039
-98.957573 18.208342 6.1789598
-98.958282 18.208866 6.2532158
-98.958992 18.209391 6.3274717
-98.959702 18.209915 6.4017277
-98.960411 18.21044 6.4759836
-98.961121 18.210964 6.5502396
-98.96183 18.211489 6.6244955
-98.96254 18.212013 6.6987514
-98.963249 18.212538 6.7730074
-98.963959 18.213062 6.8472633
-98.964668 18.213587 6.9215193
-98.965378 18.214111 6.9957752
-98.966087 18.214636 7.0700312
-98.966797 18.21516 7.1442871
-98.967506 18.215685 7.2185431
-98.968216 18.216209 7.292799
-98.968925 18.216734 7.3670549
-98.969635 18.217258 7.4413109
-98.970345 18.217783 7.5155668
-98.971054 18.218307 7.5898228
-98.971764 18.218832 7.6640787
-98.972473 18.219357 7.7383347
-98.973183 18.219881 7.8125906
-98.973892 18.220406 7.8868465
-98.974602 18.22093 7.9611025
-98.975311 18.221455 8.0353584
-98.976021 18.221979 8.1096144
-98.97673 18.222504 8.1838703
-98.97744 18.223028 8.2581263
-98.978149 18.223553 8.3323822
-98.978859 18.224077 8.4066381
-98.979568 18.224602 8.4808941
-98.980278 18.225126 8.55515
-98.980988 18.225651 8.629406
-98.981697 18.226175 8.7036619
-98.982407 18.2267 8.7779179
-98.983116 18.227224 8.8521738
-98.983826 18.227749 8.9264297
-98.984535 18.228273 9.0006857
-98.985245 18.228798 9.0749416
-98.985954 18.229322 9.1491976
-98.986664 18.229847 9.2234535
-98.987373 18.230371 9.2977095
-98.988083 18.230896 9.3719654
-98.988792 18.231421 9.4462214
-98.989502 18.231945 9.5204773
-98.990211 18.23247 9.5947332
-98.990921 18.232994 9.6689892
-98.991631 18.233519 9.7432451
-98.99234 18.234043 9.8175011
-98.99305 18.234568 9.891757
-98.993759 18.235092 9.966013
-98.994469 18.235617 10.040269
-98.995178 18.236141 10.114525
-98.995888 18.236666 10.188781
-98.996597 18.23719 10.263037
-98.997307 18.237715 10.337293
-98.998016 18.238239 10.411549
-98.998726 18.238764 10.485805
-98.999435 18.239288 10.560061
-99.000145 18.239813 10.634316
-99.000854 18.240337 10.708572
-99.001564 18.240862 10.782828
-99.002274 18.241386 10.857084
-99.002983 18.241911 10.93134
-99.003693 18.242435 11.005596
-99.004402 18.24296 11.079852
-99.005112 18.243484 11.154108
-99.005821 18.244009 11.228364
-99.006531 18.244534 11.30262
-99.00724 18.245058 11.376876
-99.00795 18.245583 11.451132
-99.008659 18.246107 11.525388
-99.009369 18.246632 11.599644
-99.010078 18.247156 11.6739
-99.010788 18.247681 11.748156
-99.011497 18.248205 11.822412
-99.012207 18.24873 11.896667
-99.012917 18.249254 11.970923
-99.013626 18.249779 12.045179
-99.014336 18.250303 12.119435
-99.015045 18.250828 12.193691
-99.015755 18.251352 12.267947
-99.016464 18.251877 12.342203
-99.017174 18.252401 12.416459
-99.017883 18.252926 12.490715
-99.018593 18.25345 12.564971
-99.019302 18.253975 12.639227
-99.020012 18.254499 12.713483
-99.020721 18.255024 12.787739
-99.021431 18.255548 12.861995
-99.022141 18.256073 12.936251
-99.02285 18.256598 13.010507
-99.02356 18.257122 13.084763
-99.024269 18.257647 13.159019
-99.024979 18.258171 13.233274
-99.025688 18.258696 13.30753
-99.026398 18.25922 13.381786
-99.027107 18.259745 13.456042
-99.027817 18.260269 13.530298
-99.028526 18.260794 13.604554
-99.029236 18.261318 13.67881
-99.029945 18.261843 13.753066
-99.030655 18.262367 13.827322
-99.031364 18.262892 13.901578
-99.032074 18.263416 13.975834
-99.032784 18.263941 14.05009
-99.033493 18.264465 14.124346
-99.034203 18.26499 14.198602
-99.034912 18.265514 14.272858
-99.035622 18.266039 14.347114
-99.036331 18.266563 14.42137
-99.037041 18.267088 14.495625
-99.03775 18.267612 14.569881
-99.03846 18.268137 14.644137
-99.039169 18.268661 14.718393
-99.039879 18.269186 14.792649
-99.040588 18.269711 14.866905
-99.041298 18.270235 14.941161
-99.042007 18.27076 15.015417
-99.042717 18.271284 15.089673
-99.043427 18.271809 15.163929
-99.044136 18.272333 15.238185
-99.044846 18.272858 15.312441
-99.045555 18.273382 15.386697
-99.046265 18.273907 15.460953
-99.046974 18.274431 15.535209
-99.047684 18.274956 15.609465
-99.048393 18.27548 15.683721
-99.049103 18.276005 15.757977
-99.049812 18.276529 15.832232
-99.050522 18.277054 15.906488
-99.051231 18.277578 15.980744
-99.051941 18.278103 16.055
-99.05265 18.278627 16.129257
-99.05336 18.279152 16.203514
-99.05407 18.279676 16.277771
-99.054779 18.280201 16.352028
-99.055489 18.280725 16.426285
-99.056198 18.28125 16.500542
-99.056908 18.281775 16.574799
-99.057617 18.282299 16.649055
-99.058327 18.282824 16.723312
-99.059036 18.283348 16.797569
-99.059746 18.283873 16.871826
-99.060455 18.284397 16.946083
-99.061165 18.284922 17.02034
-99.061874 18.285446 17.094597
-99.062584 18.285971 17.168854
-99.063293 18.286495 17.243111
-99.064003 18.28702 17.317368
-99.064713 18.287544 17.391624
-99.065422 18.288069 17.465881
-99.066132 18.288593 17.540138
-99.066841 18.289118 17.614395
-99.067551 18.289642 17.688652
-99.06826 18.290167 17.762909
-99.06897 18.290691 17.837166
-99.069679 18.291216 17.911423
-99.070389 18.29174 17.98568
-99.071098 18.292265 18.059937
-99.071808 18.292789 18.134193
-99.072517 18.293314 18.20845
-99.073227 18.293839 18.282707
-99.073936 18.294363 18.356964
-99.074646 18.294888 18.431221
-99.075356 18.295412 18.505478
-99.076065 18.295937 18.579735
-99.076775 18.296461 18.653992
-99.077484 18.296986 18.728249
-99.078194 18.29751 18.802505
-99.078903 18.298035 18.876762
-99.079613 18.298559 18.951019
-99.080322 18.299084 19.025276
-99.081032 18.299608 19.099533
-99.081741 18.300133 19.17379
-101.39789 55.348999 19.317324
-101.31467 55.3535 19.317324
-101.23146 55.358002 19.317324
-101.14825 55.362503 19.317324
-101.06503 55.367004 19.317324
-100.98182 55.371506 19.317324
-100.89861 55.376007 19.317324
-100.81539 55.380508 19.317324
-100.73218 55.38501 19.317324
-100.64896 55.389511 19.317324
-100.56575 55.394012 19.317324
-100.48254 55.398514 19.317324
-100.39932 55.403015 19.317324
-100.31611 55.407516 19.317324
-100.23289 55.412018 19.317324
-100.14968 55.416519 19.317324
-100.06647 55.421021 19.317324
-99.983253 55.425522 19.317324
-99.90004 55.430023 19.317324
-99.816826 55.434525 19.317324
-99.733612 55.439026 19.317324
-99.650398 55.443527 19.317324
-99.567184 55.448029 19.317324
-99.483971 55.45253 19.317324
-99.400757 55.457031 19.317324
-99.317543 55.461533 19.317324
-99.234329 55.466034 19.317324
-99.151115 55.470535 19.317324
-99.067902 55.475037 19.317324
-98.984688 55.479538 19.317324
-98.901474 55.484039 19.317324
-98.81826 55.488541 19.317324
-98.735046 55.493042 19.317324
-98.651833 55.497543 19.317324
-98.568619 55.502045 19.317324
-98.485405 55.506546 19.317324
-98.402191 55.511047 19.317324
-98.318977 55.515549 19.317324
-98.235764 55.52005 19.317324
-98.15255 55.524551 19.317324
-98.069336 55.529053 19.317324
-97.986122 55.533554 19.317324
-97.902908 55.538055 19.317324
-97.819695 55.542557 19.317324
-97.736481 55.547058 19.317324
-97.653267 55.551559 19.317324
-97.570053 55.556061 19.317324
-97.486839 55.560562 19.317324
-97.403625 55.565063 19.317324
-97.320412 55.569565 19.317324
-97.237198 55.574066 19.317324
-97.153984 55.578568 19.317324
-97.07077 55.583069 19.317324
-96.987556 55.58757 19.317324
-96.904343 55.592072 19.317324
-96.821129 55.596573 19.317324
-96.737915 55.601074 19.317324
-96.654701 55.605576 19.317324
-96.571487 55.610077 19.317324
-96.488274 55.614578 19.317324
-96.40506 55.61908 19.317324
-96.321846 55.623581 19.317324
-96.238632 55.628082 19.317324
-96.155418 55.632584 19.317324
-96.072205 55.637085 19.317324
-95.988991 55.641586 19.317324
-95.905777 55.646088 19.317324
-95.822563 55.650589 19.317324
-95.739349 55.65509 19.317324
-95.656136 55.659592 19.317324
-95.572922 55.664093 19.317324
-95.489708 55.668594 19.317324
-95.406494 55.673096 19.317324
-95.32328 55.677597 19.317324
-95.240067 55.682098 19.317324
-95.156853 55.6866 19.317324
-95.073639 55.691101 19.317324
-94.990425 55.695602 19.317324
-94.907211 55.700104 19.317324
-94.823997 55.704605 19.317324
-94.740784 55.709106 19.317324
-94.65757 55.713608 19.317324
-94.574356 55.718109 19.317324
-94.491142 55.72261 19.317324
-94.407928 55.727112 19.317324
-94.324715 55.731613 19.317324
-94.241501 55.736115 19.317324
-94.158287 55.740616 19.317324
-94.075073 55.745117 19.317324
-93.991859 55.749619 19.317324
-93.908646 55.75412 19.317324
-93.825432 55.758621 19.317324
-93.742218 55.763123 19.317324
-93.659004 55.767624 19.317324
-93.57579 55.772125 19.317324
-93.492577 55.776627 19.317324
-93.409363 55.781128 19.317324
-93.326149 55.785629 19.317324
-93.242935 55.790131 19.317324
-93.159721 55.794632 19.317324
-93.076508 55.799133 19.317324
-92.993294 55.803635 19.317324
-92.91008 55.808136 19.317324
-92.826866 55.812637 19.317324
-92.743652 55.817139 19.317324
-92.660439 55.82164 19.317324
-92.577225 55.826141 19.317324
-92.494011 55.830643 19.317324
-92.410797 55.835144 19.317324
-92.327583 55.839645 19.317324
-92.24437 55.844147 19.317324
-92.161156 55.848648 19.317324
-92.077942 55.853149 19.317324
-91.994728 55.857651 19.317324
-91.911514 55.862152 19.317324
-91.8283 55.866653 19.317324
-91.745087 55.871155 19.317324
-91.661873 55.875656 19.317324
-91.578659 55.880157 19.317324
-91.495445 55.884659 19.317324
-91.412231 55.88916 19.317324
-91.329018 55.893661 19.317324
-91.245804 55.898163 19.317324
-91.16259 55.902664 19.317324
-91.079376 55.907166 19.317324
-90.996162 55.911667 19.317324
-90.912949 55.916168 19.317324
-90.829735 55.92067 19.317324
-90.746521 55.925171 19.317324
-90.663307 55.929672 19.317324
-90.580093 55.934174 19.317324
-90.49688 55.938675 19.317324
-90.413666 55.943176 19.317324
-90.330452 55.947678 19.317324
-90.247238 55.952179 19.317324
-90.164024 55.95668 19.317324
-90.080811 55.961182 19.317324
-89.997597 55.965683 19.317324
-89.914383 55.970184 19.317324
-89.831169 55.974686 19.317324
-89.747955 55.979187 19.317324
-89.664742 55.983688 19.317324
-89.581528 55.98819 19.317324
-89.498314 55.992691 19.317324
-89.4151 55.997192 19.317324
-89.331886 56.001694 19.317324
-89.248672 56.006195 19.317324
-89.165459 56.010696 19.317324
-89.082245 56.015198 19.317324
-88.999031 56.019699 19.317324
-88.915817 56.0242 19.317324
-88.832603 56.028702 19.317324
-88.74939 56.033203 19.317324
-88.666176 56.037704 19.317324
-88.582962 56.042206 19.317324
-88.499748 56.046707 19.317324
-88.416534 56.051208 19.317324
-88.333321 56.05571 19.317324
-88.250107 56.060211 19.317324
-88.166893 56.064713 19.317324
-88.083679 56.069214 19.317324
-88.000465 56.073715 19.317324
-87.917252 56.078217 19.317324
-87.834038 56.082718 19.317324
-87.750824 56.087219 19.317324
-87.66761 56.091721 19.317324
-87.584396 56.096222 19.317324
-87.501183 56.100723 19.317324
-87.417969 56.105225 19.317324
-87.334755 56.109726 19.317324
-87.251541 56.114227 19.317324
-87.168327 56.118729 19.317324
-87.085114 56.12323 19.317324
-87.0019 56.127731 19.317324
-86.918686 56.132233 19.317324
-86.835472 56.136734 19.317324
-86.752258 56.141235 19.317324
-86.669044 56.145737 19.317324
-86.585831 56.150238 19.317324
-86.502617 56.154739 19.317324
-86.419403 56.159241 19.317324
-86.336189 56.163742 19.317324
-86.252975 56.168243 19.317324
-86.169762 56.172745 19.317324
-86.086548 56.177246 19.317324
-86.003334 56.181747 19.317324
-85.92012 56.186249 19.317324
-85.836906 56.19075 19.317324
-85.753693 56.195251 19.317324
-85.670479 56.199753 19.317324
-85.587265 56.204254 19.317324
-85.504051 56.208755 19.317324
-85.420837 56.213257 19.317324
-85.337624 56.217758 19.317324
-85.25441 56.22226 19.317324
-85.171196 56.226761 19.317324
-85.087982 56.231262 19.317324
-85.004768 56.235764 19.317324
-84.921555 56.240265 19.317324
-84.838341 56.244766 19.317324
-84.755127 56.249268 19.317324
-84.671913 56.253769 19.317324
-84.588699 56.25827 19.317324
-84.505486 56.262772 19.317324
-84.422272 56.267273 19.317324
-84.339058 56.271774 19.317324
-84.255844 56.276276 19.317324
-84.17263 56.280777 19.317324
-84.089417 56.285278 19.317324
-84.006203 56.28978 19.317324
-83.922989 56.294281 19.317324
-83.839775 56.298782 19.317324
-83.756561 56.303284 19.317324
-83.673347 56.307785 19.317324
-83.590134 56.312286 19.317324
-83.50692 56.316788 19.317324
-83.423706 56.321289 19.317324
-83.340492 56.32579 19.317324
-83.257278 56.330292 19.317324
-83.174065 56.334793 19.317324
-83.090851 56.339294 19.317324
-83.007637 56.343796 19.317324
-82.924423 56.348297 19.317324
-82.841209 56.352798 19.317324
-82.757996 56.3573 19.317324
-82.674782 56.361801 19.317324
-82.591568 56.366302 19.317324
-82.508354 56.370804 19.317324
-82.42514 56.375305 19.317324
-82.341927 56.379807 19.317324
-82.258713 56.384308 19.317324
-82.175499 56.388809 19.317324
-82.092285 56.393311 19.317324
-82.009071 56.397812 19.317324
-81.925858 56.402313 19.317324
-81.842644 56.406815 19.317324
-81.75943 56.411316 19.317324
-81.676216 56.415817 19.317324
-81.593002 56.420319 19.317324
-81.509789 56.42482 19.317324
-81.426575 56.429321 19.317324
-81.343361 56.433823 19.317324
-81.260147 56.438324 19.317324
-81.176933 56.442825 19.317324
-81.093719 56.447327 19.317324
-81.010506 56.451828 19.317324
-80.927292 56.456329 19.317324
-80.844078 56.460831 19.317324
-80.760864 56.465332 19.317324
-80.67765 56.469833 19.317324
-80.594437 56.474335 19.317324
-80.594154 56.474457 19.317324
-80.594086 56.473175 19.244846
-80.594017 56.471893 19.172369
-80.593948 56.470612 19.099892
-80.59388 56.46933 19.027414
-80.593811 56.468048 18.954937
-80.593742 56.466766 18.88246
-80.593674 56.465485 18.809982
-80.593605 56.464203 18.737505
-80.593536 56.462921 18.665028
-80.593468 56.461639 18.59255
-80.593399 56.460358 18.520073
-80.59333 56.459076 18.447596
-80.593262 56.457794 18.375118
-80.593193 56.456512 18.302641
-80.593124 56.455231 18.230164
-80.593056 56.453949 18.157686
-80.592987 56.452667 18.085209
-80.592918 56.451385 18.012732
-80.59285 56.450104 17.940254
-80.592781 56.448822 17.867777
-80.592712 56.44754 17.7953
-80.592644 56.446259 17.722822
-80.592575 56.444977 17.650345
-80.592506 56.443695 17.577868
-80.592438 56.442413 17.50539
-80.592369 56.441132 17.432913
-80.5923 56.43985 17.360435
-80.592232 56.438568 17.287958
-80.592163 56.437286 17.215481
-80.592094 56.436005 17.143003
-80.592026 56.434723 17.070526
-80.591957 56.433441 16.998049
-80.591888 56.432159 16.925571
-80.59182 56.430878 16.853094
-80.591751 56.429596 16.780617
-80.591682 56.428314 16.708139
-80.591614 56.427032 16.635662
-80.591545 56.425751 16.563185
-80.591476 56.424469 16.490707
-80.591408 56.423187 16.41823
-80.591339 56.421906 16.345753
-80.59127 56.420624 16.273275
-80.591202 56.419342 16.200798
-80.591133 56.41806 16.128321
-80.591064 56.416779 16.055843
-80.590996 56.415497 15.983365
-80.590927 56.414215 15.910887
-80.590858 56.412933 15.838408
-80.59079 56.411652 15.76593
-80.590721 56.41037 15.693452
-80.590652 56.409088 15.620974
-80.590584 56.407806 15.548495
-80.590515 56.406525 15.476017
-80.590446 56.405243 15.403539
-80.590378 56.403961 15.33106
-80.590309 56.402679 15.258582
-80.59024 56.401398 15.186104
-80.590172 56.400116 15.113626
-80.590103 56.398834 15.041147
-80.590034 56.397552 14.968669
-80.589966 56.396271 14.896191
-80.589897 56.394989 14.823712
-80.589828 56.393707 14.751234
-80.58976 56.392426 14.678756
-80.589691 56.391144 14.606277
-80.589622 56.389862 14.533799
-80.589554 56.38858 14.461321
-80.589485 56.387299 14.388843
-80.589417 56.386017 14.316364
-80.589348 56.384735 14.243886
-80.589279 56.383453 14.171408
-80.589211 56.382172 14.098929
-80.589142 56.38089 14.026451
-80.589073 56.379608 13.953973
-80.589005 56.378326 13.881495
-80.588936 56.377045 13.809016
-80.588867 56.375763 13.736538
-80.588799 56.374481 13.66406
-80.58873 56.373199 13.591581
-80.588661 56.371918 13.519103
-80.588593 56.370636 13.446625
-80.588524 56.369354 13.374146
-80.588455 56.368073 13.301668
-80.588387 56.366791 13.22919
-80.588318 56.365509 13.156712
-80.588249 56.364227 13.084233
-80.588181 56.362946 13.011755
-80.588112 56.361664 12.939277
-80.588043 56.360382 12.866798
-80.587975 56.3591 12.79432
-80.587906 56.357819 12.721842
-80.587837 56.356537 12.649364
-80.587769 56.355255 12.576885
-80.5877 56.353973 12.504407
-80.587631 56.352692 12.431929
-80.587563 56.35141 12.35945
-80.587494 56.350128 12.286972
-80.587425 56.348846 12.214494
-80.587357 56.347565 12.142015
-80.587288 56.346283 12.069537
-80.587219 56.345001 11.997059
-80.587151 56.343719 11.924581
-80.587082 56.342438 11.852102
-80.587013 56.341156 11.779624
-80.586945 56.339874 11.707146
-80.586876 56.338593 11.634667
-80.586807 56.337311 11.562189
-80.586739 56.336029 11.489711
-80.58667 56.334747 11.417233
-80.586601 56.333466 11.344754
-80.586533 56.332184 11.272276
-80.586464 56.330902 11.199798
-80.586395 56.32962 11.127319
-80.586327 56.328339 11.054841
-80.586258 56.327057 10.982363
-80.586189 56.325775 10.909884
-80.586121 56.324493 10.837406
-80.586052 56.323212 10.764928
-80.585983 56.32193 10.69245
-80.585915 56.320648 10.619971
-80.585846 56.319366 10.547493
-80.585777 56.318085 10.475015
-80.585709 56.316803 10.402536
-80.58564 56.315521 10.330058
-80.585571 56.31424 10.25758
-80.585503 56.312958 10.185102
-80.585434 56.311676 10.112623
-80.585365 56.310394 10.040145
-80.585297 56.309113 9.9676666
-80.585228 56.307831 9.8951883
-80.585159 56.306549 9.82271
-80.585091 56.305267 9.7502317
-80.585022 56.303986 9.6777534
-80.584953 56.302704 9.6052752
-80.584885 56.301422 9.5327969
-80.584816 56.30014 9.4603186
-80.584747 56.298859 9.3878403
-80.584679 56.297577 9.315362
-80.58461 56.296295 9.2428837
-80.584541 56.295013 9.1704054
-80.584473 56.293732 9.0979271
-80.584404 56.29245 9.0254488
-80.584335 56.291168 8.9529705
-80.584267 56.289886 8.8804922
-80.584198 56.288605 8.8080139
-80.584129 56.287323 8.7355356
-80.584061 56.286041 8.6630573
-80.583992 56.28476 8.590579
-80.583923 56.283478 8.5181007
-80.583855 56.282196 8.4456224
-80.583786 56.280914 8.3731441
-80.583717 56.279633 8.3006659
-80.583649 56.278351 8.2281876
-80.58358 56.277069 8.1557093
-80.583511 56.275787 8.083231
-80.583443 56.274506 8.0107527
-80.583374 56.273224 7.9382749
-80.583305 56.271942 7.865797
-80.583237 56.27066 7.7933192
-80.583168 56.269379 7.7208414
-80.583099 56.268097 7.6483636
-80.583031 56.266815 7.5758858
-80.582962 56.265533 7.503408
-80.582893 56.264252 7.4309301
-80.582825 56.26297 7.3584523
-80.582756 56.261688 7.2859745
-80.582687 56.260406 7.2134967
-80.582619 56.259125 7.1410189
-80.58255 56.257843 7.068541
-80.582481 56.256561 6.9960632
-80.582413 56.25528 6.9235854
-80.582344 56.253998 6.8511076
-80.582275 56.252716 6.7786298
-80.582207 56.251434 6.706152
-80.582138 56.250153 6.6336741
-80.582069 56.248871 6.5611963
-80.582001 56.247589 6.4887185
-80.581932 56.246307 6.4162407
-80.581863 56.245026 6.3437629
-80.581795 56.243744 6.2712851
-80.581726 56.242462 6.1988072
-80.581657 56.24118 6.1263294
-80.581589 56.239899 6.0538516
-80.58152 56.238617 5.9813738
-80.581451 56.237335 5.908896
-80.581383 56.236053 5.8364182
-80.581314 56.234772 5.7639403
-80.581245 56.23349 5.6914625
-80.581177 56.232208 5.6189847
-80.581108 56.230927 5.5465069
-80.581039 56.229645 5.4740291
-80.580971 56.228363 5.4015512
-80.580902 56.227081 5.3290734
-80.580833 56.2258 5.2565956
-80.580765 56.224518 5.1841178
-80.580696 56.223236 5.11164
-80.580627 56.221954 5.0391622
-80.580559 56.220673 4.9666843
-80.58049 56.219391 4.8942065
-80.580421 56.218109 4.8217287
-80.580353 56.216827 4.7492509
-80.580284 56.215546 4.6767731
-80.580215 56.214264 4.6042953
-80.580147 56.212982 4.5318174
-80.580078 56.2117 4.4593396
-80.580009 56.210419 4.3868618
-80.579941 56.209137 4.314384
-80.579872 56.207855 4.2419062
-80.579803 56.206573 4.1694283
-80.579735 56.205292 4.0969505
-80.579666 56.20401 4.0244727
