# .PCD v0.7 - Point Cloud Data file format
VERSION 0.7
FIELDS x y z
SIZE 4 4 4
TYPE F F F
COUNT 1 1 1
WIDTH 668
HEIGHT 1
VIEWPOINT 0 0 0 1 0 0 0
POINTS 668
DATA ascii
-93.795059 55.828903 5.4500556
-99.454239 22.843372 18.4006
-99.643227 23.875736 6.5430846
-99.499199 22.55764 18.325998
-99.565079 22.301193 18.266706
-99.646385 22.06608 18.219662
-99.69986 21.809334 18.151808
-99.725021 21.526821 18.06875
-99.796112 21.636024 17.766939
-99.817535 21.706293 17.079727
-99.887199 22.344616 8.3054037
-99.796104 21.309744 17.667034
-99.796005 21.331345 17.316916
-100.48513 18.033464 17.575691
-100.48102 18.048161 17.234005
-100.47208 18.076357 16.55792
-100.47363 18.096565 16.227459
-100.45739 18.116285 15.561337
-100.60003 18.082359 13.655399
-100.58885 18.088068 13.336055
-100.57558 18.091482 13.017659
-100.57993 18.113205 12.709641
-100.54941 18.098366 12.386883
-100.54975 18.115711 12.080328
-100.71564 18.111675 9.9849768
-100.70081 18.112568 9.6825886
-100.70433 18.132517 9.3876019
-100.6925 18.136408 9.0886564
-100.66526 18.124157 8.7862873
-100.66326 18.138176 8.492753
-100.81972 18.117125 6.4653311
-100.82409 18.137487 6.1780252
-100.78539 18.113094 5.8836794
-100.79314 18.136902 5.5980649
-100.75778 18.115866 5.3063226
-101.65126 11.580121 18.544979
-101.64252 11.319653 18.81164
-101.66745 11.354263 18.496325
-101.66148 11.113139 18.431787
-101.68976 10.898655 18.390127
-101.85574 9.8996038 22.432116
-101.88628 9.6995068 22.383284
-101.92703 9.5065002 22.350086
-102.00272 9.8048429 16.959494
-101.92542 9.2844028 22.284603
-101.91847 9.0584965 22.209328
-102.52478 8.7018452 8.5754194
-102.50076 8.6986885 8.3053398
-102.50456 8.7247934 7.7815299
-102.49934 8.733304 7.5191751
-102.49212 8.7405243 7.257257
-102.49126 8.7517099 6.9974937
-102.38983 8.0305433 16.719938
-102.39829 7.825243 16.689905
-102.4172 7.6286421 16.674324
-102.52829 8.0439386 8.8034678
-102.64034 8.1693087 7.5242515
-102.60815 8.1612244 7.257812
-102.58232 8.1569386 6.99405
-102.59663 8.1769781 6.7392049
-102.57164 7.8593283 8.8126745
-102.56638 7.8676181 8.5488634
-102.55151 7.4012108 14.302629
-102.66329 7.8481507 5.4769473
-102.7382 4.5357924 22.622635
-102.81359 4.5868087 22.316122
-102.89017 4.5937681 18.217129
-93.27832 56.330265 16.879612
-93.282318 56.0406 18.079817
-93.26461 56.029465 17.642502
-93.315453 55.901249 18.472513
-93.351753 56.03508 18.088108
-93.343895 56.050613 17.66016
-93.304855 55.982315 17.204618
-93.371552 55.859283 18.471016
-93.367325 55.958172 17.209225
-93.37838 56.239803 14.342892
-93.35878 56.293087 13.117092
-93.434166 56.204826 14.352606
-93.386269 56.147076 13.508633
-93.424652 56.285763 13.133319
-93.39109 55.508953 18.824976
-93.461235 56.16629 13.536387
-93.436111 55.446846 18.826426
-93.50708 56.169197 10.716736
-93.528664 56.297222 9.9379482
-93.498199 56.249947 9.5297585
-93.567032 56.144825 10.722805
-93.561256 56.23513 9.5366383
-93.527451 56.249317 8.3452597
-93.586151 56.225117 8.3542547
-93.598892 56.294647 7.9672866
-93.58284 56.286507 7.5704403
-93.551765 56.237751 7.1700344
-93.642082 56.272438 7.5807619
-93.614494 56.233097 7.1810551
-93.604202 56.102776 6.3925805
-93.668686 56.069489 6.7970152
-93.652786 56.060863 6.4034243
-99.032524 25.416842 18.914223
-99.062325 25.222166 18.848532
-99.08979 25.027679 18.783998
-99.124023 24.844919 18.734495
-99.178864 24.685268 18.709879
-99.26947 25.287012 9.6717224
-99.218002 24.504755 18.669184
-99.489334 25.5826 4.5753365
-99.260567 24.323277 18.624695
-99.515923 25.338367 5.285553
-99.512253 25.347511 5.0445957
-99.513863 25.362453 4.8046622
-99.473885 25.331526 4.5599623
-99.392746 24.689817 10.357916
-99.39975 24.711159 10.109484
-99.385551 24.709614 9.8532715
-99.409164 24.748743 9.6133909
-99.509674 25.058434 5.9844723
-99.523605 25.086788 5.7469397
-99.502556 25.077003 5.5034609
-99.500221 25.087587 5.2637653
-99.496468 25.096609 5.0241971
-99.491302 25.104065 4.7847753
-99.448296 24.40707 12.387939
-99.442238 24.41497 12.123596
-99.427994 24.414095 11.856647
-99.43145 24.431919 11.600393
-99.381302 24.392679 11.31919
-99.415924 24.471279 10.574276
-99.430923 24.501076 10.329206
-99.470703 24.557276 10.095236
-99.489326 24.590883 9.8526525
-99.486671 24.601723 9.6022329
-99.48246 24.610842 9.3522739
-99.496574 24.639509 9.1100636
-99.489304 24.645254 8.860837
-99.49971 24.81575 5.9588161
-99.493401 24.822023 5.7189083
-99.492401 24.834017 5.480402
-99.48999 24.84446 5.2420068
-99.499672 24.867973 5.0056648
-99.441978 24.145447 12.853846
-99.440933 24.172941 12.329165
-99.454025 24.200882 12.076307
-99.433037 24.192898 11.807007
-99.423294 24.196642 11.545308
-99.424896 24.212261 11.290742
-99.431419 24.232998 11.039744
-99.429794 24.245077 10.786077
-99.433128 24.262329 10.535856
-99.434883 24.277855 10.286016
-99.658882 22.563818 16.99663
-99.641403 22.562197 16.693068
-99.692024 22.610216 12.599013
-99.681427 22.613377 12.336442
-99.721039 22.410667 12.829559
-100.45764 18.189518 17.084633
-100.36948 17.853802 18.727036
-100.5397 18.204359 13.843075
-100.55478 18.227329 13.594611
-100.53184 18.220739 13.3263
-100.52849 18.229248 13.071148
-100.50859 18.224829 12.808997
-100.50122 18.230043 12.555607
-100.64496 18.234493 10.649404
-100.63586 18.237852 10.408277
-100.61742 18.233904 10.164873
-100.6274 18.251928 9.9340153
-100.60538 18.245083 9.6921129
-100.60435 18.254465 9.4593868
-100.60924 18.268404 9.2297888
-100.74396 18.241438 7.8791018
-100.7375 18.246359 7.651299
-100.72942 18.249983 7.4239492
-100.71971 18.252314 7.1970711
-100.70063 18.247332 6.9688764
-100.71105 18.2652 6.74825
-100.68827 18.267002 6.2993016
-100.84943 18.258268 4.9858146
-100.84904 18.277355 4.5460057
-100.81898 18.263748 4.3235493
-100.83469 18.285574 4.1059031
-100.80946 18.275661 3.8849816
-100.82216 18.295147 3.6671786
-100.79388 18.282837 3.4470046
-101.23141 13.147854 19.24934
-101.30284 13.201449 19.002665
-101.30014 13.046785 18.973701
-101.31891 12.739678 19.229702
-101.67664 13.082443 8.6537123
-101.677 13.092006 8.4306526
-101.65902 13.109631 7.7617054
-101.65602 13.144585 6.8865876
-101.50899 12.260904 18.68321
-101.80116 12.94921 6.254353
-101.78823 12.960052 5.8204465
-101.50645 12.112077 18.663078
-101.85664 12.927437 3.901994
-101.86337 12.940125 3.6894681
-101.84237 12.937205 3.4755254
-101.85457 12.952962 3.2634339
-101.8216 12.943279 3.0497758
-101.80444 12.942478 2.8371222
-101.80309 12.950582 2.6249664
-101.52136 11.824188 18.656387
-101.61535 11.934481 17.266935
-101.5285 11.679653 18.653572
-101.63362 11.746576 18.436039
-101.62281 11.789686 17.264898
-102.01458 12.688034 0.94059473
-101.65348 11.611152 18.444223
-101.6682 11.631093 18.159447
-101.6727 11.645661 17.870049
-101.67438 11.658648 17.581663
-101.62807 11.646753 17.262472
-101.59429 11.263548 22.572582
-101.62769 11.454823 18.418894
-101.64975 11.478364 18.140089
-101.66912 11.500427 17.861975
-101.6408 11.498032 17.552269
-101.6169 11.497731 17.249514
-101.59554 11.122662 22.569727
-101.61617 11.147343 22.241549
-101.60789 11.302354 18.401051
-101.65223 11.336975 18.139223
-101.67171 11.358945 17.861265
-101.65845 11.364243 17.562473
-101.63023 11.011738 22.252131
-101.61997 11.020913 21.899475
-101.62383 10.867713 22.241982
-101.62051 10.88027 21.895906
-101.94386 11.547655 9.8565731
-101.61807 10.728635 22.228916
-101.61475 10.741098 21.883039
-101.62935 10.616668 21.886034
-102.08133 11.119208 8.3035107
-102.2405 8.7207251 16.567991
-102.36797 8.8193913 12.213194
-102.37669 8.6968584 12.214762
-102.35689 8.6980143 11.963274
-102.36154 8.7279425 11.246149
-102.49666 8.9359751 7.4104776
-102.68845 4.7896318 22.723095
-102.87833 4.7421083 18.582983
-102.89312 4.6286979 18.604834
-102.94784 4.5284801 18.651367
-99.432877 24.963648 9.5616083
-99.577896 25.618225 1.2545457
-99.697533 24.370674 4.9984255
-99.697899 24.390869 4.6571012
-99.703087 24.416126 4.3163447
-99.692459 24.424761 3.9743879
-99.679771 24.431215 3.632627
-99.720741 23.879318 7.354363
-99.69416 23.871649 7.0072737
-99.699982 23.897367 6.6670241
-99.703728 23.920927 6.3267636
-99.67775 23.913729 5.9824009
-99.684265 23.940094 5.6434865
-99.695648 23.971485 5.3053217
-99.677277 23.972057 4.9638281
-99.670692 23.984808 4.6241655
-99.72081 23.34371 10.054797
-99.738586 23.381739 9.7137642
-99.726677 23.389626 9.3650999
-99.705673 23.388222 9.0152674
-99.703224 23.405575 8.671423
-99.705559 23.427742 8.3295584
-99.698853 23.440678 7.9863534
-99.710823 23.472574 7.6479282
-99.706841 23.488197 7.3066707
-99.749664 22.855303 12.447401
-99.737801 22.884346 11.739156
-99.738762 22.905617 11.389652
-99.723732 22.910849 11.035991
-99.72023 22.927505 10.687622
-99.714508 22.941881 10.339779
-99.706589 22.953981 9.9924908
-99.706963 22.124985 17.818071
-99.712624 22.174313 17.067083
-99.71093 21.768045 17.726233
-99.704674 21.783792 17.346466
-99.70916 21.809711 16.975231
-99.7715 21.891165 16.637564
-99.807632 22.09407 13.748814
-99.794441 22.10183 13.387935
-99.799515 22.127186 13.036471
-99.795387 22.143528 12.682772
-99.783142 21.544233 16.564682
-100.30834 18.355602 17.925179
-100.31266 18.379137 17.559565
-100.53867 18.441105 13.344318
-100.53848 18.459507 13.002008
-100.52114 18.463528 12.6547
-100.48653 18.453064 12.302925
-100.47651 18.481153 11.626789
-100.69353 18.465645 8.6785002
-100.66812 18.462202 8.3472652
-100.66321 18.475697 8.021843
-100.64848 18.480989 7.6952639
-100.63912 18.490702 7.3707519
-100.82768 18.497646 3.5305614
-100.79778 18.490143 3.2105842
-100.80421 18.512735 2.8924708
-100.77003 18.501633 2.5732875
-101.53803 12.021261 18.60643
-101.63069 11.773556 18.240046
-101.67632 11.479089 18.209433
-101.72016 11.184583 18.178761
-101.73829 10.876486 18.133562
-101.7716 10.577564 18.093666
-101.93248 10.469471 15.684774
-101.8047 9.7557459 22.084131
-101.88922 9.8206654 21.75189
-101.88717 9.8387661 21.364176
-101.85641 9.4883928 21.666653
-101.86919 9.5141592 21.290247
-101.91099 9.2228756 21.255201
-102.2164 9.1753712 12.621931
-102.2066 9.1857071 12.299119
-102.36288 8.5430794 14.240294
-102.6432 8.0470371 7.3328886
-102.59986 8.0686693 6.4290538
-102.64616 8.1050634 6.1379328
-102.8174 5.1385112 17.700729
-102.79501 5.1459765 17.340647
-93.376038 55.997826 14.659861
-93.48671 55.140038 19.358971
-93.580788 55.854912 10.318269
-93.610451 55.886265 7.6309199
-93.709229 55.918743 6.7029514
-93.660385 55.834545 6.3158469
-93.75959 55.789673 5.9460664
-93.758644 55.818733 5.5703793
-99.636757 24.260204 6.1543059
-99.691246 23.937813 6.8760819
-99.652885 23.938284 6.138782
-99.57766 22.685991 18.617769
-99.596039 22.595989 18.606668
-99.601074 22.494255 18.586195
-99.63308 22.413141 18.586403
-99.630882 22.306955 18.559837
-99.654984 22.222782 18.553881
-99.669846 22.133499 18.545362
-99.676865 22.038637 18.533014
-99.788048 22.474331 10.258487
-99.89698 22.600262 9.2916994
-99.900703 22.613625 9.043664
-99.894936 22.619648 8.7936401
-99.884964 22.653414 7.8069477
-99.705223 21.958799 18.535637
-99.70668 21.859493 18.515297
-99.919037 22.411905 9.2824345
-99.907326 22.413425 9.0300035
-99.722214 21.771677 18.50345
-99.906464 22.311651 9.0189238
-99.900589 22.31756 8.7698317
-100.0013 22.586512 4.2082005
-100.00861 22.602091 3.9711137
-99.998451 22.604229 3.7328737
-99.986641 22.605082 3.4948752
-99.981102 22.610756 3.257477
-99.981842 22.62126 3.0204358
-99.728271 21.678795 18.489584
-99.900772 22.196772 9.2578335
-99.991776 22.477489 4.2065392
-100.06253 22.541565 3.9747057
-100.05241 22.543732 3.736203
-100.04063 22.544617 3.4979417
-100.01928 22.538141 3.2595997
-99.724976 21.580564 18.473543
-99.889854 22.08894 9.250205
-99.893524 22.101954 9.0038614
-100.04485 22.337116 6.1228728
-100.03731 22.498821 2.0784802
-99.750778 21.503267 18.475349
-99.894669 21.99357 9.244525
-99.753975 21.406546 18.449387
-99.819283 21.504557 17.274414
-100.08855 22.257057 3.9713631
-99.763908 21.313538 18.429636
-99.83593 21.378531 18.173635
-99.807693 21.395681 17.24081
-99.939598 21.655836 13.350641
-99.943634 21.669889 13.083883
-99.77018 21.219646 18.415108
-99.835304 21.279381 18.154196
-99.856453 21.307291 17.862583
-99.868134 21.328259 17.566599
-99.81382 21.301357 17.227188
-99.93924 21.544615 13.607449
-99.945343 21.56019 13.340321
-99.941864 21.568689 13.070068
-99.774467 21.127645 18.401554
-99.832695 21.182121 18.135731
-99.867821 21.219913 17.854551
-99.825165 21.21389 17.219452
-99.943581 21.450432 13.597846
-99.934746 21.455017 13.323322
-99.938713 21.468851 13.05721
-99.83802 21.091108 18.11945
-99.838104 21.103592 17.81316
-99.849617 21.124153 17.517929
-99.933495 21.346474 13.577465
-99.924568 21.350927 13.303342
-99.928467 21.364601 13.037632
-99.83876 20.993542 18.096031
-99.845741 21.010885 17.795105
-99.850136 21.026274 17.495108
-99.925209 21.241222 13.555091
-99.931137 21.256376 13.289005
-99.919937 21.259087 13.016062
-99.83419 20.890472 18.065954
-99.833954 20.902653 17.760338
-99.838135 20.91785 17.460791
-99.933006 21.146471 13.539
-99.931343 21.156139 13.269338
-100.05012 21.162626 12.774553
-100.14969 21.308325 8.4782372
-100.03991 20.956778 12.735198
-100.16264 21.217686 8.4720659
-100.16283 21.019363 8.4554977
-100.48924 18.226118 16.143961
-100.48763 18.236572 15.85541
-100.48346 18.245367 15.567841
-100.45385 18.238459 15.267975
-100.46756 18.258017 14.995775
-100.44045 18.25243 14.70278
-100.54138 18.230888 14.468135
-100.55611 18.250774 14.201632
-100.52409 18.252659 13.642495
-100.51626 18.258482 13.370443
-100.52189 18.27249 13.106919
-100.4937 18.265648 12.829145
-100.49487 18.27677 12.567231
-100.49389 18.286497 12.305999
-100.58857 18.269711 11.817405
-100.58946 18.28039 11.560854
-100.5802 18.284779 11.301686
-100.56075 18.282835 11.040174
-100.64967 18.273212 10.311487
-100.65479 18.286133 10.063918
-100.62517 18.277674 9.8058443
-100.59346 18.267862 9.5488787
-100.62555 18.297222 9.3135357
-100.5981 18.289923 9.0606575
-100.70802 18.291765 8.3562975
-100.68957 18.289825 8.1099844
-100.66086 18.281532 7.8623695
-100.66362 18.292542 7.6235652
-100.51842 17.677984 18.796049
-100.7874 18.311533 6.6911087
-100.75602 18.30139 6.448164
-100.73963 18.300417 6.209012
-100.7383 18.308678 5.9731555
-100.70987 18.300228 5.733705
-100.82189 18.293072 5.2734928
-100.83899 18.312538 5.0409756
-100.82043 18.310095 4.8045306
-100.82555 18.322189 4.5711203
-100.78648 18.307087 4.333931
-100.77961 18.311771 4.1003084
-100.771 18.315372 3.8668981
-100.7741 18.335058 3.402009
-100.82079 18.311926 2.2343976
-100.81534 18.317455 2.0017014
-101.66689 11.501003 18.807846
-101.68016 11.416453 18.814325
-101.66885 11.323112 18.806265
-101.66361 11.231844 18.806789
-101.65726 11.140542 18.807762
-101.6582 11.055041 18.813755
-101.76704 10.862885 18.596891
-101.76963 10.779302 18.598879
-101.78066 10.698984 18.604155
-101.74686 10.529987 18.59075
-102.29324 10.741948 2.0484715
-101.83821 9.826313 22.857069
-101.84695 9.7678785 22.870583
-101.84512 9.7026529 22.867775
-102.00264 9.9500828 17.020845
-101.85225 9.6374741 22.870707
-101.84802 9.5710802 22.870646
-102.00582 9.8198309 17.022434
-101.82499 9.5048742 22.861208
-101.99895 9.7579403 17.025297
-101.83808 9.4537888 22.883337
-101.92821 9.4964323 22.591694
-101.99944 9.700922 17.033812
-101.91302 9.4319124 22.587816
-101.83256 9.3301134 22.892433
-101.90031 9.3649654 22.582485
-101.91036 9.3062172 22.59528
-101.90357 9.2435865 22.59671
-101.90421 9.1846085 22.604465
-101.89163 9.1221952 22.597521
-101.89478 9.0647078 22.601278
-101.90006 9.0056973 22.603693
-102.20469 8.996357 15.662075
-102.19314 9.0122213 15.078912
-102.20812 9.0025434 13.959793
-102.1959 9.0078831 13.677581
-102.19851 9.0181608 13.404052
-102.35268 9.0325451 11.596394
-102.35977 9.0221825 10.566647
-102.3597 9.0393896 10.052887
-102.34713 9.0436649 9.7942104
-102.48372 9.0008831 8.0815964
-102.49084 9.011632 7.8347678
-102.48018 9.02456 7.3382907
-102.50938 8.9939909 7.0987353
-102.50816 9.0018682 6.8529038
-102.49551 9.0058193 6.6058588
-102.49011 9.0122261 6.3608155
-102.49203 9.0211086 6.1175346
-102.51843 8.9749689 6.3660979
-102.51101 8.9807186 6.1210909
-102.52029 8.9921551 5.8790751
-102.51817 8.9996767 5.6359224
-102.50461 9.0032663 5.3919125
-102.47137 9.0082769 4.9052839
-102.47054 9.0161715 4.6644278
-102.54601 8.9394855 6.3724103
-102.55739 8.9516859 6.1298237
-102.55735 8.9599819 5.8859944
-102.53648 8.9611492 5.6399913
-102.53236 8.9680061 5.3968449
-102.47914 8.9580536 5.1488013
-102.49917 8.9731359 4.909523
-102.49837 8.9810801 4.6683202
-102.50956 8.8166122 8.3463125
-102.48689 8.9179754 5.1521301
-102.53521 8.9427471 4.9155297
-102.56274 8.9604235 4.6764832
-102.55056 8.964509 4.4339762
-102.49822 8.7716856 8.3472576
-102.54282 8.9045982 4.9183912
-102.55 8.8680973 4.9211483
-102.61262 8.9060316 4.4427867
-102.54642 8.8297348 4.9259076
-102.61179 8.8602314 4.6898932
-102.60917 8.8675652 4.4473791
-102.54228 8.793107 4.9337988
-102.61718 8.8267336 4.6985807
-102.60524 8.8307924 4.4551086
-102.51135 8.6012897 9.3944359
-102.52054 8.6127844 9.1423378
-102.62231 8.7944498 4.7078943
-102.60104 8.7952318 4.463459
-102.50428 8.5768852 9.1488132
-102.51968 8.6149311 8.1438684
-102.53263 8.7234898 4.9496999
-102.58887 8.7505159 4.7125964
-102.61487 8.7672672 4.4722562
-102.4952 8.5764189 8.1461506
-102.52159 8.5933037 7.9019508
-102.52731 8.6032305 7.6538448
-102.54025 8.6155615 7.4078403
-102.50445 8.6114578 7.153266
-102.53187 8.628624 6.9112663
-102.5292 8.6356306 6.6643863
-102.51507 8.6387453 6.4163818
-102.53686 8.6618309 5.9298854
-102.57291 8.6818781 5.6903949
-102.57876 8.6916924 5.4470687
-102.62189 8.7297716 4.7212996
-102.58192 8.7239714 4.4750142
-102.57175 8.7515545 3.5067418
-102.49826 8.554287 7.9013557
-102.49471 8.5610065 7.6514225
-102.50765 8.5732498 7.4055877
-102.49052 8.5753508 7.1546597
-102.50125 8.6024275 6.4177694
-102.58674 8.7240772 3.5094249
-102.57919 8.7368402 3.025965
-102.49932 8.5303669 7.6552901
-102.5016 8.4277658 8.9205055
-102.73817 8.7488689 1.3285524
-102.673 8.7136002 1.323489
-102.709 8.7335796 1.0781521
-102.69571 8.7366581 0.83461422
-102.49669 8.4389381 7.4251685
-102.51859 8.3660412 8.94946
-102.53352 8.3788176 8.6986723
-102.52828 8.4002924 7.9395123
-102.50668 8.4007435 7.6841931
-102.5015 8.4066648 7.4333262
-102.58951 8.3852854 7.956224
-102.58665 8.3920288 7.7040577
-102.58164 8.3980227 7.4523335
-102.55581 8.3970118 7.197577
-102.53712 8.3983631 6.9453092
-102.55373 8.4115305 6.7000203
-102.5308 8.4113989 6.448781
-102.59126 8.3255901 8.7205706
-102.50372 8.3119593 8.1929684
-102.60612 8.4074745 6.215982
-102.56965 8.4027853 5.9638419
-102.57806 8.4131641 5.7187843
-102.59778 8.290184 8.7258434
-102.65732 8.4099169 5.4848619
-102.59834 8.4126415 4.7421002
-102.58887 8.2428379 8.9808159
-102.59483 8.2526426 8.7266636
-102.57854 8.2023849 8.9742041
-102.58446 8.2121639 8.7200508
-102.40791 7.8608069 16.94273
-102.58812 8.1673183 8.9682512
-102.4088 7.820766 16.939566
-102.57828 8.1253643 8.960372
-102.60255 8.141324 8.7105513
-102.40771 7.7813711 16.940262
-102.58617 8.0898237 8.9610415
-102.58269 8.0966272 8.7042933
-102.40656 7.7434902 16.940485
-102.60327 8.0581055 8.9635448
-102.59982 8.06493 8.706542
-102.4214 7.7123413 16.949936
-102.61044 8.0241909 8.9635305
-102.57923 8.0218449 8.6996117
-102.40949 7.6741667 16.948004
-102.56154 7.9728236 8.9522247
-102.56727 7.9826307 8.6976404
-102.59507 7.9487181 8.9649754
-102.58241 7.9524426 8.7054682
-102.58238 7.9090743 8.9647617
-102.59749 7.9219513 8.7120008
-102.59882 7.8779178 8.9686632
-102.59543 7.884757 8.7111511
-102.68558 8.0004616 5.9559379
-102.60647 7.8442583 8.9681072
-102.5938 7.848124 8.7081814
-102.58565 7.8021698 8.9604588
-102.59142 7.8121591 8.7051105
-102.53657 7.6440215 12.393264
-102.57292 7.7649012 8.9586
-102.60645 7.7840295 8.7099848
-102.53983 7.6137991 12.402752
-102.57717 7.7348876 8.9659214
-102.59224 7.7479477 8.7126493
-102.5415 7.5843759 12.41406
-102.59857 7.7117052 8.9797268
-102.60451 7.721755 8.7238712
-102.53523 7.5527797 12.420084
-102.59296 7.680284 8.9846735
-102.53905 7.5244861 12.426387
-102.58743 7.486372 13.287522
-102.59049 7.6062145 9.5110331
-102.60931 7.6286902 8.9973211
-102.55657 7.4237676 14.13937
-102.57237 7.4378252 13.860406
-102.60226 7.5591884 9.5350637
-102.65668 7.5373645 10.085003
-102.68137 7.5535831 9.8286791
-102.60265 7.5359297 9.5448647
-102.68678 7.5795999 9.0463467
-102.72773 7.6095457 7.0190158
-102.57978 7.0920401 16.011024
-102.5786 7.1007247 15.708612
-102.56583 7.105607 15.402995
-102.5847 7.1206069 15.115181
-102.57478 7.1262593 14.81577
-102.57068 7.1337194 14.521462
-102.55501 7.1373701 14.224234
-102.56284 7.1485534 13.939663
-102.57926 7.1002374 14.819691
-102.61009 7.1190052 14.541174
-102.59457 7.1227422 14.243465
-102.59376 7.1311665 13.954585
