# .PCD v0.7 - Point Cloud Data file format
VERSION 0.7
FIELDS x y z
SIZE 4 4 4
TYPE F F F
COUNT 1 1 1
WIDTH 750
HEIGHT 1
VIEWPOINT 0 0 0 1 0 0 0
POINTS 750
DATA ascii
-101.54678 55.224827 16.308975
-101.53067 55.236626 15.732611
-101.50163 55.216312 15.151135
-101.39087 55.247341 11.739409
-101.37085 55.248104 11.176083
-100.83279 45.971756 9.3536081
-100.78606 43.674366 18.22365
-100.6581 42.030491 18.256256
-100.48582 38.526283 18.225582
-100.31263 35.847839 18.302828
-100.05458 31.752895 18.294174
-99.813271 28.148218 18.348253
-99.487923 26.678257 1.809906
-99.602501 24.914001 18.37237
-99.409767 24.33688 5.915998
-99.283394 23.619329 3.0772908
-101.51505 55.213291 16.395489
-101.49349 55.205704 15.920232
-101.49043 55.274899 15.000274
-101.44426 54.622437 18.129324
-101.45855 54.728397 17.210911
-101.44446 54.736549 16.739786
-101.49887 54.888691 16.314995
-101.48955 54.906639 15.849826
-101.466 54.894417 15.378016
-101.41375 54.265476 18.027012
-101.43193 54.34108 17.57761
-101.49804 54.516834 17.161991
-101.50117 54.672493 15.331625
-101.42004 53.97514 17.947948
-101.43394 54.041462 17.497627
-101.45166 54.409756 13.435327
-101.43204 53.723137 17.409704
-101.31425 52.782154 18.062254
-101.28883 52.411808 17.952385
-101.3075 52.486851 17.516165
-101.28514 52.084553 17.854849
-101.28238 52.116051 17.406025
-101.28442 51.765266 17.761347
-101.27703 51.787525 17.311787
-101.27817 51.86356 16.42939
-101.28277 51.557739 16.355787
-101.2697 51.568165 15.910635
-101.26775 51.600712 15.474415
-101.25121 51.257851 15.402888
-101.19437 50.631165 17.915125
-101.18153 50.319378 17.844803
-101.1752 50.342499 17.404696
-101.15772 49.981094 17.764559
-101.15999 50.02047 17.332998
-101.13395 49.609524 18.114676
-101.13793 49.651814 17.684938
-101.16622 49.74128 17.274139
-101.09314 49.241543 18.008726
-101.10569 49.299774 17.588024
-101.19074 49.498257 17.219744
-101.08256 48.932854 17.923761
-101.10382 49.00716 17.511517
-101.05885 48.597946 17.829855
-101.02048 48.204113 18.149574
-101.0434 48.280071 17.742117
-101.03372 48.293911 17.312399
-101.05316 48.36306 16.905216
-101.01536 47.903416 18.064318
-101.00729 47.92004 17.636248
-101.03896 48.043308 16.819994
-101.04778 48.091496 16.40897
-101.0504 48.127831 15.995311
-100.93767 48.189545 12.270067
-101.00944 47.593662 17.971369
-101.00557 47.617905 17.548676
-100.99542 47.630173 17.123663
-101.03253 47.731277 16.733469
-101.0099 47.719719 16.303682
-101.01228 47.755192 15.892768
-100.99128 47.250832 17.857073
-100.98989 47.310722 17.023766
-101.00443 47.368988 16.620438
-100.99031 47.37344 16.199289
-100.99689 47.416538 15.79377
-101.00142 47.049892 16.514788
-100.98684 47.053577 16.09589
-100.82599 46.976109 8.8534498
-100.80659 46.968636 8.4650364
-100.83224 46.613632 9.5708799
-100.85852 46.720535 8.8160295
-100.85763 46.74778 8.4346066
-100.79025 46.67952 7.656599
-100.7893 46.706478 7.2776899
-100.77742 46.712944 6.8967428
-100.76398 46.716434 6.5161557
-100.75837 46.734539 6.1376319
-100.89678 45.791573 17.784502
-100.89255 45.814754 17.373892
-100.78098 46.14447 10.264039
-100.82749 46.660007 4.6154618
-100.81878 46.672256 4.2381616
-100.81793 46.699226 3.8615294
-100.85213 45.370842 18.061377
-100.86751 45.429405 17.666433
-100.86746 45.459927 17.261749
-100.79336 45.854839 10.214925
-100.80797 45.910286 9.8421516
-100.83768 45.032772 17.952559
-100.83908 45.065765 17.549841
-100.9029 45.210884 17.193953
-100.79595 44.616066 18.233265
-100.81367 44.708153 17.442905
-100.77681 44.275581 18.13279
-100.80251 44.351021 17.751904
-100.81178 44.426872 16.963242
-100.77304 43.968258 18.04846
-100.7892 44.084499 16.871868
-100.69205 44.278881 11.849281
-100.70504 44.32951 11.48304
-100.67839 44.336651 10.730535
-100.68181 44.370007 10.362852
-100.73646 44.494968 10.01486
-100.68285 44.695457 5.9798861
-100.69986 44.752968 5.6193242
-100.74073 43.61124 17.944605
-100.75299 43.690231 17.16478
-100.77517 43.757656 16.788836
-100.71184 43.233822 18.242588
-100.73454 43.301701 17.864901
-100.72792 43.346661 17.075636
-100.75478 43.421444 16.705389
-100.71571 42.966999 17.774214
-100.70875 43.010487 16.989532
-100.69537 42.597893 18.068111
-100.67552 42.591537 17.662722
-100.69154 42.646469 17.286539
-100.72948 42.738983 16.927473
-100.68541 42.272293 17.970163
-100.66041 42.257191 17.563423
-100.71414 42.376034 17.217279
-100.63913 41.883663 17.838203
-100.51327 42.784447 2.0260291
-100.60327 41.493031 18.10458
-100.61722 41.543579 17.731144
-100.5999 41.21867 17.637295
-100.62153 41.281387 17.273462
-100.63228 41.003754 17.203468
-100.61192 40.671833 17.100136
-100.51649 40.136486 18.052326
-100.53121 40.186596 17.687498
-100.50503 39.817196 17.935017
-100.50957 39.850601 17.564947
-100.49265 39.478008 18.198395
-100.48888 39.497967 17.822165
-100.49793 39.538399 17.457973
-100.51995 39.599567 17.105127
-100.46164 39.173042 17.706778
-100.48099 39.305119 16.258646
-100.43677 38.830044 17.965092
-100.46192 38.895126 17.616037
-100.45741 38.962753 16.519379
-100.47199 39.035141 15.810383
-100.3754 39.119404 12.265297
-100.38863 39.163933 11.931211
-100.39517 39.197655 11.594715
-100.46154 38.688915 16.440437
-100.4545 38.702095 16.077074
-100.45066 38.720207 15.718014
-100.36588 38.673752 10.139141
-100.33933 36.991875 17.730925
-100.30291 36.644222 17.988041
-100.31559 36.709473 17.285814
-100.28487 36.346844 17.897018
-100.31082 36.453564 16.857971
-100.28145 36.064537 17.808136
-100.28597 36.138454 16.759275
-100.21452 36.350872 11.711449
-100.18968 36.333954 11.378499
-100.20074 36.371067 11.063317
-100.17262 36.348991 10.732174
-100.19669 36.405632 10.424264
-100.23497 36.503948 9.8051424
-100.23833 36.529221 9.490263
-100.22935 36.535728 9.1718216
-100.23506 36.564461 8.8592176
-100.21757 36.557949 8.5399027
-100.15507 36.483055 8.2085333
-100.15073 36.496349 7.8959632
-100.12313 36.474228 7.5779634
-100.12122 36.491085 7.2676649
-100.12326 36.513927 6.9587774
-100.25699 35.723812 18.050941
-100.26523 35.758537 17.704603
-100.26066 35.79649 17.00219
-100.28498 35.876621 16.329281
-100.20294 36.111755 10.694888
-100.21077 36.143711 10.381655
-100.20621 36.157047 10.064278
-100.20008 36.167969 9.7473478
-100.17609 36.151978 9.425066
-100.16139 36.149853 9.1075115
-100.17237 36.186287 8.7995081
-100.16549 36.195816 8.4863157
-100.16801 36.219437 8.1767254
-100.14716 36.207813 7.8611703
-100.15759 36.243294 7.5549731
-100.16106 36.268269 7.2472253
-100.15758 36.282703 6.9382091
-100.14713 36.286568 6.6282086
-100.14613 36.304718 6.3207483
-100.13979 36.353912 5.3996253
-100.1329 36.363029 5.0924487
-100.141 36.39489 4.7873621
-100.1092 36.366154 4.4780159
-100.0924 36.360157 4.1709805
-100.07963 36.360252 3.8647265
-100.07088 36.366455 3.5590162
-100.06616 36.378777 3.2536111
-100.05998 36.38887 2.9481502
-100.06879 36.421818 2.6427641
-100.05967 36.427456 2.3369987
-100.04361 36.422497 2.0313857
-100.2295 35.402649 17.938696
-100.24971 35.521194 16.565741
-100.26587 35.56683 16.235273
-100.1837 35.800842 10.638529
-100.17504 35.808071 10.320744
-100.15935 35.804752 10.001443
-100.16388 35.831497 9.6910439
-100.14503 35.82333 9.3730164
-100.14102 35.837204 9.0614023
-100.13548 35.848736 8.7501478
-100.14485 35.882507 8.4443293
-100.14176 35.897614 8.1352072
-100.13715 35.910419 7.8263459
-100.13994 35.953861 7.213522
-100.13634 35.968067 6.9065833
-100.13676 35.988274 6.600996
-100.10815 35.964863 6.2900448
-100.07256 35.989197 5.068203
-100.10275 36.054104 4.7683964
-100.09837 36.066944 4.4641972
-100.09253 36.077564 4.1600242
-100.09073 36.094292 3.8562841
-100.08195 36.100475 3.5521452
-100.08275 36.121113 3.2485216
-100.08208 36.139545 2.9446678
-100.06891 36.13908 2.6405361
-100.04327 36.119705 2.336673
-100.0327 36.12315 2.0329301
-100.20367 35.068829 18.184685
-100.22341 35.119804 17.850027
-100.23011 35.19569 16.8169
-100.15283 35.456741 10.894437
-100.16741 35.498192 10.587503
-100.14765 35.488892 10.267277
-100.13723 35.493294 9.9522171
-100.14169 35.519627 9.6438675
-100.14462 35.543655 9.3356581
-100.11304 35.516521 9.0164757
-100.12941 35.560345 8.714447
-100.12225 35.569267 8.4053793
-100.1246 35.592251 8.0999212
-100.11442 35.596581 7.7915282
-100.11377 35.615025 7.4864488
-100.10057 35.614773 7.1788292
-100.10799 35.645168 6.8767323
-100.11395 35.673363 6.5744767
-100.10735 35.682838 6.2699246
-100.10482 35.698341 5.9666004
-100.08838 35.731525 5.0572286
-100.0855 35.746449 4.7550282
-100.07007 35.742565 4.451714
-100.06427 35.753075 4.1497183
-100.06255 35.769691 3.8481569
-100.05383 35.775806 3.5461969
-100.07137 35.82132 3.2453837
-100.05421 35.853222 2.3390839
-100.02711 35.831703 2.0373263
-100.18329 34.772209 18.089243
-100.21325 34.837349 17.76469
-100.20358 34.888443 16.725269
-100.13922 35.162922 10.847137
-100.15382 35.203911 10.542073
-100.1559 35.226524 10.232509
-100.16193 35.254883 9.9253216
-100.12234 35.216198 9.6020231
-100.13078 35.247959 9.2977228
-100.12113 35.253094 8.9878473
-100.10995 35.255894 8.6785078
-100.11383 35.280823 8.3747864
-100.11067 35.295345 8.0695343
-100.10046 35.299423 7.7630348
-100.08874 35.301212 7.4569979
-100.09773 35.333546 7.1568127
-100.08857 35.339046 6.8526831
-100.10018 35.375202 6.5535879
-100.08249 35.368015 6.2487779
-100.08001 35.383301 5.947535
-100.07214 35.447292 4.7455964
-100.05119 35.435047 4.443634
-100.06779 35.478603 4.1455317
-100.05506 35.47855 3.8448539
-100.06874 35.517796 3.5459168
-100.0316 35.556973 2.0447273
-100.18143 34.524868 17.662519
-100.23058 34.638153 17.013527
-100.21828 34.641754 16.664074
-100.19318 34.647781 15.972428
-100.20321 34.703751 15.31372
-100.12455 34.869087 10.799407
-100.12812 34.893578 10.491641
-100.12461 34.907715 10.181917
-100.11401 34.911449 9.8705149
-100.12953 34.95319 9.5698957
-100.11582 34.952271 9.2593594
-100.11166 34.96521 8.9532242
-100.09484 34.959618 8.6439095
-100.08204 34.95982 8.337018
-100.09 34.990314 8.0371189
-100.07974 34.994133 7.7325988
-100.06797 34.995682 7.4285436
-100.07704 35.027718 7.1303473
-100.06229 35.024799 6.8269486
-100.05334 35.160683 4.4373717
-100.07991 35.23708 3.8434513
-100.02929 35.273922 2.0518501
-100.17168 34.216984 17.910372
-100.20296 34.304119 17.247965
-100.12817 34.674068 9.5256824
-100.11986 34.680923 9.2187996
-100.11 34.685471 8.9124327
-100.10419 34.69582 8.6083794
-100.10245 34.712017 8.306407
-100.0824 34.701595 7.9998813
-100.06574 34.714615 7.3963561
-100.06358 34.730026 7.0972013
-99.885727 29.414268 17.099049
-99.670486 28.421801 12.531178
-99.657677 28.422735 12.243295
-99.675728 28.493633 11.417513
-99.653366 28.49868 10.85677
-99.636681 28.494352 10.576209
-99.630585 28.502865 10.301747
-99.695351 28.191406 12.767654
-99.683983 28.194246 12.480052
-99.676933 28.202185 12.196516
-99.66819 28.207989 11.913721
-99.663857 28.219007 11.634714
-99.682266 28.257393 11.368088
-99.674698 28.264366 11.090022
-99.665489 28.269281 10.81263
-99.666946 28.286997 10.541312
-99.654526 28.287868 10.265174
-99.658981 28.309095 9.9973402
-99.643394 28.305971 9.7224655
-99.65094 28.330828 9.4577856
-99.663185 28.361341 9.1955118
-99.642929 28.352358 8.9223251
-99.652168 28.379135 8.6604786
-99.622612 28.358696 8.3866053
-99.610168 28.358999 8.119586
-99.614929 28.380188 7.8586736
-99.605736 28.384344 7.5943518
-99.607559 28.401888 7.3338261
-99.595413 28.402351 7.0702763
-99.625648 28.454512 6.8176956
-99.591782 28.428375 6.5503449
-99.58152 28.431017 6.2893476
-99.638885 28.516363 6.0423379
-99.64463 28.538572 5.7846441
-99.636368 28.543619 5.5247393
-99.639252 28.5623 5.2670665
-99.640709 28.579226 5.0093479
-99.640747 28.594397 4.7516026
-99.60788 28.569136 4.4902749
-99.677223 27.92836 12.698788
-99.665482 27.930773 12.412751
-99.682434 27.96735 12.14353
-99.661224 27.95825 11.855771
-99.66272 27.976206 11.581197
-99.674858 28.006821 11.31296
-99.660873 28.006092 11.033461
-99.651382 28.010658 10.757577
-99.646431 28.020592 10.485083
-99.658432 28.0508 10.220953
-99.650352 28.056835 9.9493465
-99.646889 28.068359 9.6807785
-99.635666 28.070482 9.4103203
-99.629105 28.078144 9.1427784
-99.627235 28.091402 8.8779192
-99.623856 28.102789 8.6134157
-99.618973 28.112307 8.3492908
-99.612595 28.119963 8.0855656
-99.623512 28.148476 7.8277726
-99.614166 28.152462 7.5646539
-99.603333 28.154602 7.3019991
-99.609879 28.177734 7.0445671
-99.602402 28.183855 6.7841387
-99.59977 28.195803 6.5254712
-99.608292 28.221266 6.2696471
-99.602776 28.229671 6.0112314
-99.595825 28.2363 5.7530589
-99.59375 28.248833 5.4962101
-99.590248 28.259609 5.239471
-99.579002 28.260939 4.9819736
-99.591629 28.291315 4.7280006
-99.596519 28.312275 4.4729619
-99.574684 28.300642 4.2152591
-99.570419 28.31041 3.9597299
-99.564743 28.318441 3.7042549
-99.666313 27.680361 12.642218
-99.660423 27.689613 12.360848
-99.656898 27.749477 11.260484
-99.642685 27.748402 10.982486
-99.627922 27.808868 9.6373672
-99.622772 27.818146 9.3707819
-99.622337 27.832989 9.106945
-99.620377 27.845968 8.8434448
-99.616913 27.857092 8.5803041
-99.624504 27.881395 8.3215599
-99.611755 27.881317 8.0571079
-99.610092 27.894457 7.7969251
-99.600647 27.898228 7.535264
-99.596031 27.90774 7.2757344
-99.602585 27.930626 7.0196786
-99.595047 27.936563 6.7606277
-99.592384 27.94832 6.5033398
-99.576385 27.958897 5.988163
-99.575737 27.972992 5.7327819
-99.573662 27.985348 5.4774923
-99.57016 27.995964 5.2223139
-99.565239 28.004845 4.9672661
-99.571609 28.027348 4.7139692
-99.576569 28.048145 4.4604945
-99.567398 28.051853 4.2056093
-99.556816 28.053829 3.9509332
-99.570526 26.708574 11.322316
-99.582191 26.736912 11.061401
-99.560875 26.72724 10.786381
-99.563072 26.744547 10.523479
-99.563705 26.759987 10.260963
-99.556442 26.76627 9.9962521
-99.560272 26.785286 9.7371778
-99.562584 26.802488 9.4783878
-99.550644 26.803181 9.2152033
-99.549889 26.816736 8.9572153
-99.541237 26.821106 8.6973953
-99.531059 26.823648 8.4381161
-99.538559 26.846622 8.1854286
-99.525375 26.845575 7.9270387
-99.52993 26.865061 7.6747694
-99.526611 26.875368 7.4208589
-99.52182 26.883934 7.1672516
-99.515572 26.89076 6.9139671
-99.514305 26.903351 6.6625218
-99.510612 26.996832 4.9150915
-99.504402 27.003479 4.6659222
-99.563332 26.696579 7.1473598
-99.544029 26.6884 6.8916087
-99.549141 26.708342 6.6425176
-99.539864 26.711641 6.390635
-99.522652 26.705729 6.1378174
-99.529938 26.728109 5.890512
-99.509834 26.718779 5.6385255
-99.527283 26.75288 5.393518
-99.49781 26.732632 5.1412945
-99.49942 26.748367 4.8943348
-99.506134 26.770012 4.6481571
-99.469772 26.755463 4.1509237
-99.444191 26.808495 2.6730752
-99.438286 26.815407 2.4268932
-99.437485 26.828283 2.1806362
-99.402771 26.801548 1.9350146
-99.540367 26.573866 4.6325493
-99.583153 26.079288 10.128667
-99.527771 26.324896 4.6125393
-99.603722 25.019087 17.163511
-99.381371 24.406721 11.064526
-99.386345 24.425924 10.813371
-99.435074 24.291662 10.036578
-99.413841 24.282742 9.7795448
-99.417496 24.300093 9.5338154
-99.406334 24.301695 9.2833748
-99.400261 24.308624 9.0360107
-99.412659 24.335096 8.7961607
-99.396873 24.33161 8.5473299
-99.38623 24.333523 8.3013849
-99.394165 24.355141 8.0622501
-99.37381 24.346619 7.8152175
-99.398972 24.386499 7.5823293
-99.389091 24.389044 7.3399291
-99.387024 24.4646 5.9132829
-99.407646 24.499561 5.68085
-99.39299 24.496733 5.4423265
-99.404045 24.521425 5.2084498
-99.386551 24.515499 4.9705181
-99.381226 24.522593 4.7348304
-99.381287 24.535456 4.5000973
-99.431053 23.952118 12.015667
-99.435829 23.970997 11.761109
-99.432419 23.981264 11.503734
-99.420792 23.982859 11.243812
-99.433754 24.010086 10.99706
-99.418808 24.008057 10.738457
-99.41539 24.018015 10.486561
-99.430229 24.047033 10.243732
-99.410385 24.039646 9.9871969
-99.408829 24.051369 9.7396069
-99.405724 24.061399 9.4924641
-99.401062 24.069744 9.2457914
-99.381485 24.062344 8.994772
-99.387115 24.081392 8.7539387
-99.391266 24.098841 8.513298
-99.387207 24.107609 8.2707071
-99.284958 24.278383 3.0839615
-99.305244 24.32518 2.6201057
-99.30648 24.339064 2.3876176
-99.292679 24.336843 2.1551273
-99.277496 24.333136 1.9228288
-99.406616 23.702314 11.957652
-99.411171 23.720768 11.70449
-99.414085 23.737452 11.451769
-99.415367 23.752377 11.199512
-99.415016 23.765543 10.947741
-99.41967 23.783829 10.699484
-99.4161 23.793526 10.44867
-99.390968 23.780764 10.189892
-99.390816 23.793861 9.9432144
-99.300117 23.891981 6.3270497
-99.31945 24.012308 4.4701357
-99.318153 24.023382 4.2384567
-99.301743 24.01848 4.0055885
-99.288078 24.06609 2.8498688
-99.297653 24.088665 2.6189692
-99.402054 23.443747 12.420229
-99.342934 23.67177 7.0171804
-99.336563 23.677744 6.7811928
-99.342438 23.696415 6.5486856
-99.346901 23.713591 6.316206
-99.336227 23.714993 6.0809898
-99.344711 23.73632 5.8500972
-99.331192 23.73469 5.615459
-99.329987 23.745878 5.3835301
-99.327377 23.755583 5.15172
-99.269753 23.720154 4.6824274
-99.31115 23.775801 4.4571776
-99.309837 23.786795 4.226717
-99.293343 23.781885 3.9950693
-99.279709 23.829266 2.8454525
-99.275589 23.837271 2.6155982
-99.35434 23.343113 9.1240396
-99.347557 23.349031 8.8817472
-99.339241 23.353321 8.6399755
-99.349808 23.376911 8.4054842
-99.345291 23.384996 8.1667223
-99.339272 23.3915 7.928371
-99.3386 23.403448 7.6924415
-99.350159 23.427923 7.4606013
-99.339722 23.429766 7.223259
-99.327812 23.430044 6.9864058
-99.321304 23.435839 6.7517085
-99.333992 23.461369 6.5220518
-99.331497 23.471247 6.2893014
-99.320686 23.472511 6.0553818
-99.322235 23.486504 5.8244796
-99.315475 23.491888 5.5924449
-99.307297 23.495781 5.3606849
-99.297699 23.498186 5.1292186
-99.24662 23.469873 4.6637611
-99.26049 23.4965 4.4367604
-99.25914 23.507345 4.2080388
-99.284096 23.545496 3.9817855
-99.359634 22.954031 12.29225
-99.365021 23.013287 11.287039
-99.352188 23.013639 11.032326
-99.324272 22.998688 10.772273
-99.341599 23.029295 10.534417
-99.317039 23.017553 10.279098
-99.344734 23.058538 10.047522
-99.343948 23.070692 9.8046932
-99.355141 23.094921 9.5676394
-99.344482 23.09697 9.3229628
-99.34584 23.111139 9.0839338
-99.325241 23.102991 8.8379974
-99.33036 23.120869 8.6022415
-99.333992 23.137205 8.3666897
-99.336151 23.152 8.131362
-99.329979 23.158285 7.8942041
-99.322311 23.163006 7.6574798
-99.320038 23.173172 7.4231119
-99.330086 23.195852 7.1926799
-99.318016 23.195967 6.9570298
-99.311386 23.201582 6.7235365
-99.324036 23.226854 6.4950795
-99.307617 23.22241 6.2605882
-99.303596 23.230595 6.0294385
-99.312012 23.25148 5.8011308
-99.29129 23.242523 5.5678797
-99.303833 23.267603 5.340889
-99.26638 23.241425 5.1063876
-99.26918 23.256475 4.8786178
-99.284492 23.284365 4.652566
-99.270607 23.282274 4.4230466
-99.269241 23.29302 4.1952801
-99.259529 23.295176 3.966944
-99.24588 23.341755 2.8303938
-99.243279 23.363329 2.3758967
-99.357269 22.757948 11.738846
-99.360893 22.774874 11.490602
-99.348495 22.801983 10.74254
-99.35231 22.818819 10.499428
-99.331375 22.84934 9.522995
-99.334114 22.864817 9.2848291
-99.328499 22.871855 9.0444832
-99.328186 22.884167 8.8070564
-99.326363 22.894909 8.5699863
-99.325081 22.918644 8.0991564
-99.318771 22.924728 7.8631921
-99.317863 22.936224 7.6296511
-99.322403 22.953178 7.3982973
-99.311661 22.954674 7.1634421
-99.292519 22.947632 6.9273496
-99.306572 22.974104 6.7001662
-99.291451 22.971045 6.4665914
-99.302673 22.994617 6.2394567
-99.291626 22.995617 6.0080428
-99.300034 23.016304 5.7809434
-99.286148 23.014359 5.5501184
-99.270828 23.010931 5.3197455
-99.275024 23.027288 5.0929618
-99.284813 23.04932 4.8670983
-99.265282 23.041527 4.6375809
-99.258316 23.04649 4.4101458
-99.263931 23.064255 4.1842895
-99.254189 23.066362 3.9570849
-99.250053 23.074169 3.7306275
-99.251526 23.087692 3.504673
-99.230637 23.078381 3.277601
-99.236336 23.096216 3.0520117
-99.254639 23.126947 2.8265369
-99.25058 23.134829 2.6002579
-99.245148 23.141296 2.3739624
-99.224358 23.132038 2.1478517
-99.20919 23.128519 1.9219288
-99.318665 22.616831 9.4886246
-99.290962 22.713259 7.1391568
-99.285591 22.720066 6.907814
-99.271797 22.718401 6.675168
-99.270493 22.729216 6.4461746
-99.281731 22.752583 6.220336
-99.270599 22.753487 5.9902163
-99.258057 22.76495 5.5336733
-99.263664 22.782602 5.3080673
-99.26088 22.79179 5.0813713
-99.249687 22.792486 4.8538632
-99.237091 22.79174 4.6266875
-99.244148 22.810799 4.402204
-99.235786 22.814291 4.1761799
-99.240082 22.830551 3.9515805
-99.23597 22.838316 3.7263424
-99.22345 22.837572 3.5007443
-99.237656 22.86385 3.2767904
-99.236427 22.874521 3.051904
-99.217445 22.891026 2.377013
-99.210701 22.896101 2.1521139
-99.242973 22.684151 2.604928
-99.230652 22.683535 2.3808143
-99.194832 22.671038 1.9333056
-99.218475 21.215912 13.928571
-99.172401 20.453382 11.721672
-99.168144 20.485847 11.003595
-99.052933 20.398314 2.5730276
-99.055351 20.411388 2.3605893
-99.033989 20.413473 1.9357711
-99.009895 20.190121 1.9429607
-99.020943 19.958015 2.7912457
-98.97506 19.666761 3.8364744
-98.99823 19.491592 3.8382628
-98.989822 19.524887 3.0045192
-98.96077 19.263466 3.8355045
-98.955864 19.035 4.449307
-98.85733 18.313097 1.7588477
-98.852104 18.327513 1.3530411
-100.23652 35.145916 18.116753
-99.837631 28.991226 18.156244
-99.735001 27.582306 18.183128
-99.462746 25.379488 9.628993
-99.496216 25.43725 9.2843361
-99.513245 25.071135 9.2322035
-99.330032 24.699461 5.6932602
-99.338409 24.111441 2.9385579
-99.225937 23.619896 2.9150147
-99.228752 23.250637 2.8976212
-101.15691 50.239849 18.820076
-101.17983 50.060547 18.77541
-101.24935 49.953526 18.756556
-101.06372 48.771099 18.788771
-101.11074 48.638123 18.772284
-101.04051 46.920071 18.759178
-100.76546 43.991524 19.047924
-100.75404 43.232002 18.853426
-100.79689 43.107853 18.839502
-100.65133 42.346481 18.992735
-100.64819 42.165138 18.944874
-100.64904 41.992142 18.900553
-100.67423 41.857143 18.877764
-100.70083 41.729733 18.86322
-100.50594 39.149433 18.852392
-100.47207 38.632603 19.080282
-100.36842 37.338253 19.021099
-100.37341 37.183254 18.978359
-100.37641 37.029945 18.935415
-100.40022 36.90464 18.911575
-100.31832 36.632515 19.170567
-100.31693 36.481544 19.128202
-100.23836 35.725838 18.785639
-100.16839 34.456989 18.787771
-100.19342 34.345917 18.778711
-100.18682 34.202732 18.747564
-100.1906 34.075512 18.723383
-100.09705 33.272461 18.817791
-100.11951 33.151794 18.780308
-100.12189 33.010479 18.732874
-100.02299 32.339584 18.854372
-100.02901 32.212769 18.823137
-100.02383 32.072025 18.782507
-100.06094 31.97654 18.774021
-100.07866 31.863163 18.750963
-99.964149 31.334106 18.882139
-99.95462 31.191309 18.827692
-99.980507 31.087996 18.800966
-99.991074 30.973204 18.766973
-99.999596 30.858847 18.734724
-99.832336 29.303032 18.916521
-99.854767 29.196033 18.894548
-99.856133 29.071699 18.859238
-99.644646 26.261896 18.966808
-99.651154 26.153801 18.940239
-99.655312 26.048262 18.911602
-99.621094 25.913542 18.785397
-99.613754 25.794226 18.748436
-99.632553 25.585033 18.696455
-99.652756 25.486542 18.679007
-99.547409 24.717436 19.106833
-99.546974 24.623449 18.760784
-99.567673 24.426886 18.726448
-99.563736 24.315331 18.692888
-99.417786 24.614557 6.6441917
-99.430244 24.412766 6.3844333
-99.478088 23.56941 18.761635
-99.484505 23.466337 18.742344
-99.484268 23.358765 18.717066
-99.330208 21.265173 18.791924
