# .PCD v0.7 - Point Cloud Data file format
VERSION 0.7
FIELDS x y z
SIZE 4 4 4
TYPE F F F
COUNT 1 1 1
WIDTH 710
HEIGHT 1
VIEWPOINT 0 0 0 1 0 0 0
POINTS 710
DATA ascii
-103.06821 16.313477 16.326912
-103.07601 16.337948 15.993519
-103.06065 16.341761 15.649465
-103.06417 16.379416 14.986813
-103.01346 16.351444 14.631852
-103.02319 16.377069 14.31004
-103.02363 16.394341 13.985383
-103.02178 16.409481 13.661454
-102.98939 16.397291 13.325416
-102.99001 16.414431 13.0065
-102.98131 16.423162 12.685186
-102.94901 16.410709 12.355815
-102.9572 16.434347 12.045133
-102.9275 16.424015 11.720846
-102.93138 16.443644 11.411418
-102.91879 16.448444 11.097182
-102.91844 16.464146 10.788868
-102.9088 16.471437 10.4786
-102.89044 16.486641 9.8625088
-102.98618 15.982377 15.882559
-103.02339 16.149239 13.291931
-102.93975 16.124168 12.307485
-102.95731 16.312876 8.9455404
-102.97186 16.341248 8.6496038
-102.90699 16.314074 8.036355
-102.959 16.391029 7.4548745
-102.92691 16.377548 7.1521769
-102.94443 16.40839 6.8605533
-102.93052 16.411081 6.5633144
-102.90726 16.405359 6.2653255
-102.86727 16.384569 5.9656873
-102.84662 16.411032 5.0871973
-102.84333 16.423037 4.7957449
-102.84556 16.439989 4.5051765
-102.83107 16.441883 4.2132707
-102.79243 16.421999 3.9199984
-103.04282 15.726065 16.524832
-103.05267 15.751666 16.193645
-103.0601 15.775069 15.863141
-103.05114 15.784159 15.525768
-103.03969 15.790969 15.189464
-103.01874 15.789403 14.850632
-103.02351 15.810066 14.527288
-103.00473 15.810157 14.194224
-103.00482 15.826549 13.872512
-102.98838 15.828453 13.544933
-102.96245 15.82197 13.215231
-102.97707 15.850741 12.905646
-102.9465 15.840001 12.578065
-102.92796 15.839652 12.25778
-102.93597 15.862428 11.950098
-102.91669 15.876868 11.325114
-102.81306 16.086483 5.3612676
-102.8164 16.191965 3.3390372
-102.82426 16.2136 3.0508904
-102.82278 16.226906 2.7622643
-102.8045 16.225208 2.4733028
-102.79927 16.235149 2.1847589
-102.7847 16.236742 1.8962373
-102.77571 16.24332 1.6077763
-102.77229 16.25489 1.3191365
-102.75954 16.25811 1.0306721
-103.08067 15.488154 16.48535
-102.98502 15.569284 13.178209
-102.9285 15.56756 12.215062
-102.93556 15.725863 9.1797848
-102.94482 15.748831 8.884635
-102.95738 15.789491 8.294838
-102.90139 15.755447 7.9859366
-102.93979 15.803694 7.7007637
-102.94659 15.824347 7.4085221
-102.91425 15.81076 7.1087375
-102.91713 15.827917 6.8171611
-102.91062 15.836833 6.5243793
-102.88726 15.830945 6.2294035
-102.90674 15.862556 5.9422498
-102.82355 15.847461 4.7749557
-102.82603 15.864062 4.4874268
-102.83412 15.885589 4.2005463
-103.03458 15.307669 13.79139
-102.99625 15.290786 13.456183
-102.96262 15.277791 13.125797
-102.88365 15.421169 8.8443413
-102.87704 15.459231 7.960743
-103.03326 15.03607 13.743565
-102.9679 15.012042 13.083813
-102.92461 15.021304 12.135044
-102.90244 15.16501 8.82409
-102.8659 15.177085 7.9366593
-102.88271 12.568597 7.6686435
-102.86751 12.57044 7.3867602
-102.84244 12.564746 7.1038818
-102.79816 12.237442 2.7199948
-102.80402 12.254599 2.4505506
-102.8 12.264349 2.1808434
-102.78609 12.266682 1.9111549
-102.77831 12.273602 1.6415292
-102.76865 12.279108 1.3719316
-102.78106 12.301227 1.1015022
-102.79156 12.321937 0.83061892
-102.75229 12.305168 0.56210911
-102.83781 8.7717505 6.5344095
-102.86508 8.8004808 6.2785444
-102.84074 8.1223726 6.5297546
-102.82621 8.1248922 6.2689099
-102.82952 7.9138594 6.2696819
-103.03953 4.9443536 21.616858
-103.03909 4.7752619 22.666288
-103.05416 4.9527659 17.790358
-103.11574 17.202137 20.181295
-103.01814 16.636591 16.134369
-103.03912 16.671806 15.776532
-103.0192 16.677481 15.402226
-102.95685 16.711359 13.936383
-102.9346 16.675875 7.7217669
-102.93192 16.745586 6.3975029
-102.90525 16.744057 6.0643215
-103.00955 16.023924 14.193341
-103.00871 16.042347 13.838763
-102.96608 16.031313 13.470131
-102.97888 16.133539 11.738451
-102.9436 16.127024 11.384568
-102.93738 16.140938 11.041492
-102.90477 16.136103 10.692213
-102.86194 16.512577 3.1016879
-102.8524 16.523144 2.7763002
-102.83246 16.526182 2.4508946
-102.81021 16.527544 2.1258006
-102.99825 15.682243 13.771485
-103.0373 5.0349526 21.884274
-103.14295 16.942816 21.371754
-103.08404 16.924467 20.974216
-103.11761 16.954933 20.649532
-103.00694 16.54616 16.962454
-103.01988 16.563784 16.660507
-102.99834 16.563297 16.341585
-102.99776 16.573669 16.037174
-103.00242 16.586706 15.738037
-103.05655 16.471016 16.982954
-103.09343 16.501066 16.694244
-103.08009 16.504936 16.379215
-103.06383 16.507193 16.065458
-103.03667 16.503668 15.748727
-103.04681 16.51948 15.454504
-103.02204 16.517006 15.14453
-103.04308 16.538355 14.860221
-103.05354 16.55411 14.572428
-103.03699 16.555677 14.273654
-103.02598 16.560057 13.97986
-103.02882 16.571613 13.694557
-103.02919 16.581816 13.410006
-103.03539 16.595007 13.129792
-103.01431 16.593815 12.83979
-103.01566 16.60434 12.561134
-102.98961 16.600393 12.273234
-102.96944 16.599464 11.989781
-102.97202 16.610451 11.716852
-102.96391 16.615749 11.441464
-102.96194 16.624222 11.169858
-102.94077 16.62252 10.893111
-102.96819 16.646408 10.634272
-102.951 16.646704 10.36181
-102.94859 16.65476 10.09554
-102.92693 16.652578 9.824728
-102.90302 16.649157 9.5548611
-102.89404 16.653589 9.2907515
-102.9173 16.675072 9.0365334
-102.87827 16.663485 8.7667408
-102.88017 16.673561 8.5088539
-102.87135 16.677921 8.2492924
-102.86046 16.681139 7.9903021
-102.84985 16.693415 7.4777188
-103.04665 16.36166 16.962095
-103.02513 16.554726 11.182327
-102.99756 16.559305 10.634651
-103.0144 16.577608 10.373033
-103.00353 16.581305 10.103698
-102.99044 16.58378 9.8351145
-102.99228 16.59407 9.5722637
-102.98341 16.598677 9.3074799
-102.96377 16.597563 9.0410404
-102.96783 16.608904 8.7821159
-102.95253 16.609995 8.5192728
-102.95242 16.619068 8.2612553
-102.95026 16.627022 8.0036383
-102.92869 16.624672 7.7426772
-102.94849 16.64419 7.4914851
-102.91409 16.634975 7.2299767
-102.91246 16.643091 6.9759669
-102.90884 16.650122 6.7222905
-102.91196 16.660709 6.4704199
-102.86138 16.695757 4.7123551
-102.84887 16.69787 4.4628153
-102.82563 16.694233 4.2129602
-102.81807 16.698952 3.9648266
-102.79979 16.697924 3.7164171
-102.7972 16.705284 3.4692442
-102.78391 16.7069 3.2218337
-102.77753 16.712208 2.9749384
-102.77669 16.729206 2.4816611
-103.06368 16.265005 16.949356
-102.9656 16.524061 8.251152
-102.86356 16.614321 4.2063165
-102.82946 16.605061 3.9562657
-102.85516 16.627581 3.710427
-102.84368 16.630322 3.4625001
-102.83029 16.632034 3.214834
-102.83263 16.642124 2.9679148
-102.83308 16.651199 2.7209451
-102.81398 16.649841 2.4738252
-102.81944 16.661592 2.2269578
-102.80537 16.662905 1.9801521
-102.7982 16.667913 1.7333434
-102.80677 16.681341 1.4859992
-102.81342 16.693754 1.2383687
-102.78294 16.686277 0.99232614
-103.0655 16.161757 16.924007
-103.05689 16.275331 13.653817
-103.00876 16.291134 12.508502
-102.85878 16.439833 6.1842752
-102.85723 16.510906 4.1928635
-102.84946 16.515734 3.9448252
-102.8486 16.524206 3.6975019
-102.84583 16.53166 3.4502468
-102.84116 16.538099 3.2030787
-102.84341 16.548206 2.9562466
-102.82609 16.547926 2.7090793
-102.84219 16.565388 2.4624524
-102.8299 16.567768 2.2155597
-102.84219 16.58322 1.9684914
-102.81726 16.578878 1.7219244
-102.81692 16.587612 1.4748708
-102.81466 16.595337 1.227706
-102.81931 16.606749 0.9799813
-103.03463 16.04417 16.880505
-103.04694 16.061625 16.579405
-103.03254 16.06542 16.2658
-103.02326 16.071714 15.95783
-103.03533 16.088781 15.663832
-103.07714 16.120928 15.387318
-103.03539 16.110407 15.069791
-103.03957 16.123224 14.778192
-103.08209 16.155544 14.507163
-103.03069 16.160629 13.620141
-103.03168 16.201971 12.497115
-102.82394 16.394487 4.1775823
-102.83372 16.408606 3.9312196
-102.85043 16.426376 3.6852205
-102.84756 16.433838 3.4381411
-102.83395 16.435625 3.1908364
-102.84495 16.45039 2.9444914
-102.83636 16.454817 2.6976454
-102.83471 16.462906 2.4509957
-102.82231 16.465315 2.20437
-102.81686 16.471388 1.957804
-102.82717 16.485811 1.7108445
-102.8179 16.489874 1.4641757
-102.7979 16.488249 1.217955
-102.8113 16.504337 0.97010589
-103.04959 15.952013 16.866154
-103.0618 15.96941 16.565126
-103.06327 15.981297 16.260458
-103.0459 15.983554 15.948065
-103.0579 16.000586 15.654061
-103.04298 16.003897 15.348209
-103.0334 16.009817 15.04769
-103.03742 16.022558 14.756329
-103.03068 16.029751 14.461824
-103.03775 16.043888 14.176057
-103.04233 16.056688 13.890993
-103.00304 16.047079 13.58812
-103.01084 16.061369 13.30858
-102.99957 16.065872 13.022573
-103.01088 16.081829 12.747937
-102.99471 16.083694 12.463668
-102.9929 16.092825 12.18703
-102.97187 16.092062 11.904687
-102.97376 16.102966 11.632833
-102.9649 16.108305 11.358543
-102.95371 16.112394 11.085058
-102.95726 16.123989 10.818174
-102.93299 16.121243 10.543406
-102.9663 16.148041 10.288709
-102.97185 16.160534 10.026006
-102.98385 16.17631 9.7662745
-102.97652 16.182093 9.5018873
-102.9325 16.168905 9.2286148
-102.93808 16.18125 8.9704514
-102.93291 16.188013 8.7104187
-102.93433 16.198139 8.4530449
-102.95978 16.220659 8.2021751
-102.97453 16.237637 7.9492426
-102.88895 16.266897 5.9114766
-102.92094 16.292667 5.6660318
-102.80776 16.287842 4.1652417
-102.82632 16.306541 3.919795
-103.08482 15.87284 16.869583
-103.09326 15.921505 15.656861
-103.08102 15.947724 14.762685
-103.07433 15.954974 14.467941
-103.07323 15.964976 14.178062
-103.06959 15.97361 13.88905
-103.03026 15.964088 13.586103
-103.03806 15.978366 13.30648
-103.03511 15.987131 13.023938
-103.02135 15.990338 12.738749
-103.0219 16.00074 12.461326
-103.02007 16.009878 12.184606
-103.01589 16.017757 11.908615
-103.0009 16.020069 11.630247
-102.98354 16.021101 11.352825
-102.99783 16.038227 11.088243
-102.98436 16.041136 10.81534
-102.97715 16.04718 10.546093
-102.95912 16.047642 10.274841
-102.96459 16.060072 10.012389
-102.9507 16.062546 9.7452641
-102.96909 16.081522 9.4887753
-102.93359 16.072815 9.2181435
-102.93045 16.080667 8.9578543
-102.91653 16.082939 8.6958694
-102.91786 16.093006 8.4388351
-102.89101 16.088541 8.1760702
-102.91434 16.109861 7.9259424
-102.90076 16.112156 7.6682596
-102.90261 16.122366 7.4147592
-102.91997 16.140551 7.1649475
-102.90028 16.139599 6.9086709
-102.89611 16.146626 6.6561232
-102.88116 16.148052 6.4024968
-102.8906 16.162069 6.1534739
-102.91571 16.184189 5.907032
-102.90365 16.187042 5.6556048
-102.88876 16.215572 4.6594534
-102.89346 16.227049 4.4121208
-102.80773 16.191456 4.1582341
-102.83513 16.214708 3.913527
-103.10237 15.787265 16.865541
-103.04785 15.878002 13.582048
-103.01189 15.969329 10.547622
-102.99416 15.98907 9.7488337
-102.99538 15.999187 9.4871635
-102.97715 15.999348 9.2212048
-102.9602 16.009478 8.6984205
-102.93548 16.006176 8.434761
-102.95219 16.024023 8.1821852
-102.94942 16.031885 7.9257693
-102.94461 16.03866 7.6697817
-102.93775 16.044355 7.4142418
-102.93762 16.053474 7.1608653
-102.93549 16.061535 6.9078064
-102.92255 16.06402 6.6535635
-102.9164 16.069965 6.4012871
-102.91707 16.079395 6.1507387
-102.90695 16.08325 5.8991528
-102.87328 16.10195 4.89994
-102.88876 16.118929 4.6537004
-102.87575 16.121172 4.4050546
-102.82619 16.113411 3.9077306
-103.1183 15.703509 16.862652
-103.04755 15.784989 13.571716
-103.02184 15.802317 12.717917
-102.94362 15.915663 8.4296703
-102.91491 16.036304 4.6515207
-102.91079 16.043066 4.4035277
-102.81603 16.00313 4.149178
-102.82577 16.016977 3.9035859
-103.10877 15.607442 16.847881
-103.04586 15.691642 13.563236
-102.96978 15.683486 12.689158
-102.94131 15.783464 9.458478
-102.91584 15.807261 8.417943
-102.80589 15.902174 4.1460533
-102.81567 15.915915 3.9007194
-103.03625 15.592566 13.551891
-102.96839 15.588472 12.682001
-102.95718 15.696392 9.4582233
-102.99093 15.722521 9.2073641
-102.94057 15.724485 8.4198027
-102.85272 15.795237 5.1355391
-102.79575 15.801003 4.1438065
-102.82336 15.823745 3.8998666
-103.01935 15.487693 13.536265
-102.93433 15.475179 12.660432
-102.98249 15.612273 9.4598675
-102.98155 15.620954 9.1994181
-102.93106 15.622885 8.4126215
-102.81358 15.721753 3.897341
-103.01093 15.387187 13.522026
-102.93401 15.378764 12.650391
-102.91232 15.480582 9.4321299
-102.98949 15.528049 9.1939011
-102.91267 15.516896 8.4010019
-102.80339 15.619499 3.8924999
-103.01108 15.290853 13.51076
-102.94234 15.286529 12.643079
-102.91166 15.383576 9.4233484
-102.98017 15.426518 9.1829042
-102.91187 15.419685 8.3928967
-102.81105 15.526227 3.8880641
-103.01118 15.191859 13.502526
-102.93381 15.183524 12.631878
-102.9198 15.288856 9.4200697
-102.97966 15.327361 9.1773357
-102.89368 15.312008 8.3836031
-102.83073 15.394682 5.1168885
-102.79221 15.418449 3.8849981
-103.03053 14.987679 16.737986
-103.01002 14.988591 16.420736
-103.07548 15.030615 16.153513
-103.08182 15.044233 15.855633
-103.00245 15.08765 13.49104
-102.87519 15.16765 9.4024982
-102.90125 15.216475 8.3811255
-102.87383 15.317207 5.1195426
-102.79066 15.319084 3.8835297
-102.97373 14.944029 14.323242
-102.97189 14.953202 14.035924
-102.95078 14.953062 13.741916
-102.95214 14.963625 13.460241
-102.95942 14.976971 13.182957
-102.94984 14.991867 12.623404
-102.9753 15.0138 12.358391
-102.9305 15.001803 12.067252
-102.95132 15.021393 11.803361
-102.94427 15.027483 11.530353
-102.90057 15.08046 9.40378
-102.89161 15.112177 8.3735952
-102.87275 15.21714 5.116375
-103.02232 14.78431 16.715216
-103.00164 14.785246 16.398355
-102.99416 14.792326 16.091753
-102.96372 14.829699 14.600635
-102.95609 14.83619 14.308765
-102.96249 14.849286 14.025632
-102.94965 14.853146 13.735648
-102.9426 14.859685 13.450434
-102.93778 14.876994 12.889911
-102.92315 14.889345 12.332686
-102.92069 14.897759 12.058672
-102.90871 14.911015 11.512886
-102.89136 14.940055 10.442165
-102.8987 14.952826 10.181648
-102.9039 14.964518 9.9215374
-102.90694 14.975133 9.6618567
-102.89037 14.976239 9.3977098
-102.88909 14.984686 9.1391239
-102.87692 14.987825 8.8787441
-102.86259 14.98988 8.6190519
-102.88921 15.020659 8.1160545
-102.85094 15.010987 7.854063
-102.84758 15.027044 7.3494444
-102.86501 15.044329 7.1019344
-102.88047 15.060645 6.8544021
-102.92951 15.093308 6.6129427
-102.86234 15.112775 5.1146908
-102.8498 15.158336 3.6403949
-103.09229 14.717499 16.750908
-103.09614 14.730043 16.446997
-103.08093 14.733522 16.135193
-103.0465 14.727828 15.815997
-103.02389 14.748239 14.917662
-103.01913 14.756186 14.624414
-103.02001 14.766727 14.336089
-102.99332 14.764119 14.037016
-102.98059 14.768053 13.74687
-102.96526 14.770668 13.457789
-102.98943 14.791977 13.187914
-102.96906 14.792058 12.900644
-102.92918 14.782775 12.607606
-102.96312 14.808574 12.346469
-102.96932 14.821113 12.075502
-102.95611 14.824336 11.798684
-102.94907 14.830441 11.525925
-102.95686 14.843581 11.260047
-102.93656 14.843242 10.985759
-102.92254 14.845842 10.715355
-102.92353 14.855577 10.451407
-102.91363 14.860045 10.185298
-102.91888 14.871736 9.925189
-102.90453 14.873981 9.6604204
-102.87923 14.870913 9.39398
-102.88671 14.883547 9.1380234
-102.88332 14.890922 8.8801022
-102.86902 14.893006 8.6204929
-102.86138 14.898258 8.3637142
-102.85164 14.902458 8.1074963
-102.8663 14.918401 7.8577094
-102.85242 14.92054 7.6024208
-102.84533 14.92592 7.349535
-102.84506 14.934573 7.098815
-102.84738 14.953195 6.5998816
-102.85001 14.963183 6.3515358
-102.83185 14.989038 5.359354
-102.81568 14.989797 5.1113358
-102.8244 15.002651 4.86654
-102.82224 15.010196 4.6208949
-102.81815 15.016787 4.375421
-102.86607 15.065909 3.6440473
-102.99545 14.674973 13.749566
-102.98855 14.681604 13.46419
-103.04322 14.727038 12.928134
-103.02924 14.739789 12.369435
-103.01512 14.771136 11.277985
-103.00359 14.77503 11.006244
-102.98108 14.773643 10.732457
-102.97355 14.779329 10.465295
-102.98982 14.796311 10.20699
-102.96043 14.791477 9.9357758
-102.96363 14.80214 9.6758442
-102.89471 14.778314 9.3966751
-102.93729 14.807704 9.1502247
-102.93401 14.815147 8.8919649
-102.9198 14.817324 8.6320143
-102.86819 14.801536 8.3642874
-102.92027 14.835395 8.122407
-102.91739 14.842894 7.8682084
-102.90359 14.845117 7.612576
-102.90545 14.854828 7.3611259
-102.88752 14.854999 7.1065907
-102.88531 14.862699 6.8559351
-102.89001 14.873695 6.607142
-102.86596 14.870827 6.3542342
-102.8569 14.901105 5.3631411
-102.81388 14.888925 5.1120286
-102.8585 14.919115 4.8710685
-102.82948 14.913658 4.6227655
-102.81644 14.915916 4.376637
-102.85553 14.960581 3.6453125
-102.89471 14.677218 9.3880272
-102.97236 14.723193 9.1512413
-102.84877 14.805364 5.1103268
-102.87547 14.826852 4.8673596
-102.88231 14.83878 4.6223698
-102.88721 14.849773 4.3773766
-102.84538 14.855411 3.6401711
-102.96357 14.635633 8.6245346
-103.02705 12.537491 16.560183
-103.00462 12.550254 15.945711
-102.99459 12.599527 14.477819
-102.9606 12.595874 14.176165
-102.95654 12.665187 12.229602
-102.93604 12.666512 11.951007
-102.92178 12.670372 11.676692
-102.97232 12.431247 16.224686
-102.97189 12.441977 15.925174
-102.97925 12.466539 15.33768
-103.01241 12.490815 15.061973
-102.9503 12.475844 14.741503
-102.92786 12.518183 13.315095
-102.88099 12.653419 9.0499697
-102.85016 12.649746 8.7875109
-102.94317 12.734762 7.5486937
-102.88132 12.71777 7.2865849
-102.87172 12.722773 7.0360847
-102.83996 12.694904 4.8219004
-102.83768 12.702776 4.5784426
-102.83113 12.595798 4.8220768
-102.81049 12.595953 4.5771537
-102.77016 12.528252 3.3647294
-102.75916 12.549962 2.6410103
-102.74854 12.554263 2.399915
-102.84087 12.481917 2.8849521
-102.84145 12.490945 2.6432211
-102.8124 12.487569 2.4013543
-102.79985 12.491093 2.1599019
-102.79459 12.497663 1.9184966
-102.7966 12.507289 1.6768953
-102.81509 12.523845 1.4345424
-102.8593 12.404826 2.6460607
-102.84874 12.409196 2.4041786
-102.83623 12.412749 2.1624632
-102.84023 12.423182 1.9206586
-102.84228 12.432807 1.6787087
-102.92091 11.951547 13.307381
-102.93873 12.112581 9.0668402
-102.88995 12.10207 8.7997065
-102.90646 12.190309 6.5526218
-102.82731 12.175813 6.0483899
-102.79836 12.172839 5.7996659
-102.79765 12.116103 4.8320923
-102.81402 12.131562 4.591157
-102.80376 12.028774 4.8383765
-102.93823 11.700214 13.053764
-102.85395 11.809117 9.0610933
-102.77981 11.938872 4.6006646
-102.80218 11.834661 5.3395195
-102.79523 11.849147 4.8531504
-102.85933 11.639017 9.077219
-102.82499 11.757081 5.3485413
-102.79975 11.764208 4.8599753
-102.7795 11.764696 4.6158838
-102.81113 11.666036 5.3484893
-102.7749 11.677479 4.6171904
-102.86133 11.601177 5.3540697
-102.85548 11.515526 5.3556929
-102.86539 11.421699 5.8501077
-102.81138 11.417947 5.3554635
-102.95153 10.947672 9.6656847
-102.82586 11.027409 5.8863864
-102.79565 11.024198 5.638412
-102.87052 10.972576 5.9008231
-102.89308 10.919359 5.6692004
-102.95117 8.8398952 12.124851
-102.9659 8.8540792 11.858815
-102.88825 8.9616585 7.9284639
-102.86607 8.9627619 7.6721845
-102.93979 8.7943859 12.125802
-102.96351 8.811574 11.863014
-102.91433 8.8678207 9.7281675
-102.90485 8.9260139 7.9353843
-102.81484 8.9722643 5.6809397
-102.7922 8.9729614 5.4327755
-102.94249 8.7657776 11.860647
-102.83137 8.9388485 5.6854396
-102.80875 8.9395628 5.4370141
-102.9854 8.753643 11.614778
-102.88332 8.773653 9.9915676
-102.87919 8.7810993 9.7303524
-102.80882 8.8941298 5.6880813
-102.78626 8.8947983 5.4397373
-102.92651 8.832119 7.7077718
-102.91177 8.835598 7.4530559
-102.79661 8.8467159 5.9414506
-102.83261 8.8671865 5.6999536
-102.83839 8.8774023 5.4546394
-102.89618 8.7807226 7.9648252
-102.9023 8.7911377 7.7135577
-102.9156 8.8039513 7.4643831
-102.81498 8.8356819 5.4611526
-102.79417 8.7883463 5.7128859
-102.80954 8.8015785 5.4687891
-102.86269 8.4019184 8.0220337
-102.86034 8.4089451 7.7671304
-102.8386 8.4326534 6.7536764
-102.85357 8.4453621 6.5055523
-102.87843 8.3704567 8.026598
-102.85751 8.3712769 7.7675982
-102.8903 8.3899889 7.5203829
-102.89769 8.423337 6.5130372
-102.85865 8.3267269 8.0179157
-102.90285 8.3492384 7.772429
-102.89632 8.3856897 6.5078373
-102.87733 8.2947826 8.0131788
-102.88422 8.3049183 7.7597623
-102.88898 8.3143148 7.5066128
-102.8716 8.3318243 6.7458272
-102.90528 8.3508053 6.5000577
-102.87653 8.2559271 8.0072212
-102.86475 8.259902 7.7498951
-102.84784 8.2933512 6.4846916
-102.88445 8.2204199 8.0071735
-102.86334 8.2213373 7.7477684
-102.87447 8.2642946 6.4865823
-102.89661 8.2794743 6.239172
-102.88306 8.1825171 8.0046206
-102.87125 8.186532 7.7470417
-102.86359 8.2232685 6.4820352
-102.8669 8.2321682 6.2318354
-102.95547 8.072237 11.169608
-102.87168 8.1423397 7.9998927
-102.87847 8.1525116 7.74613
-102.87474 8.1827173 6.7323961
-102.8614 8.1860838 6.4787841
-102.88699 8.159009 6.4826965
-102.88093 8.1647587 6.2306714
-102.86581 8.0696306 8.0029831
-102.8913 8.085927 7.7528629
-102.86913 8.1098118 6.7346206
-102.8746 8.1193829 6.4837894
-102.88736 8.131361 6.2345467
-102.88108 8.0391541 8.0087519
-102.87524 8.076355 6.7375383
-102.88074 8.0859413 6.4865351
-102.88412 8.0948105 6.2357283
-102.86969 7.9989328 8.0056276
-102.86723 8.0060396 7.7495294
-102.88242 8.0425081 6.737546
-102.85976 8.0427961 6.4819403
-102.89342 7.9788055 7.7518921
-102.85233 7.9969573 6.7291694
-102.87652 8.0128469 6.4811177
-102.87043 8.0186911 6.2287507
-102.84214 7.9509339 6.9766426
-102.86837 7.9675746 6.728497
-102.86436 7.974195 6.4757633
-102.848 7.9199743 6.978065
-102.8461 7.9273391 6.7250695
-102.85146 7.9370818 6.473896
-102.88512 7.8685088 8.0097513
-102.85089 7.8973951 6.7308798
-102.84691 7.9040394 6.4780602
-102.86733 7.8404274 7.7575908
-102.8639 7.871314 6.7400908
-102.87878 7.8841853 6.4899635
-102.88293 7.8078876 8.0229034
-102.85866 7.8399749 6.7442975
-102.85479 7.8466434 6.4911323
-102.88639 7.8650303 6.243896
-102.84446 7.8059902 6.7437625
-102.84058 7.8126636 6.4905972
-102.86278 7.8279428 6.241971
-102.84767 7.7794266 6.7484174
-102.86263 7.7923193 6.4980335
-102.87453 7.7698927 6.508214
-102.85797 7.7392726 6.5140858
-102.85368 7.7059193 6.7742443
-102.87257 7.7278285 6.27108
-102.85542 7.6831069 6.7816815
-102.86508 7.7018299 6.2767744
