# .PCD v0.7 - Point Cloud Data file format
VERSION 0.7
FIELDS x y z
SIZE 4 4 4
TYPE F F F
COUNT 1 1 1
WIDTH 1558
HEIGHT 1
VIEWPOINT 0 0 0 1 0 0 0
POINTS 1558
DATA ascii
-102.13872 13.970628 3.5417347
-102.1338 13.979876 3.2687411
-102.11167 13.974801 2.9951971
-102.13381 14.006576 2.7234654
-102.13876 14.024042 2.4508765
-102.19646 12.842802 22.093908
-102.11979 12.97431 18.143349
-102.20712 13.060002 17.866507
-102.17538 13.083593 16.856754
-102.17668 13.455788 9.3258781
-102.17303 13.466747 9.0421963
-102.16738 13.476043 8.7589989
-102.15975 13.483681 8.4763098
-102.1556 13.521529 7.6386724
-102.16106 13.553268 7.0858369
-102.16478 13.569901 6.8104959
-102.14361 13.566208 6.5309815
-102.14354 13.579691 6.2562246
-102.14928 13.597894 5.9829316
-102.16086 13.620848 5.7108641
-102.13982 13.617112 5.4343061
-102.12459 13.618095 5.1593628
-102.1306 13.636444 4.88764
-102.13478 13.653279 4.6158719
-102.10628 13.643305 4.3410864
-102.11448 13.663415 4.0702991
-102.10543 13.669353 3.7982068
-102.11769 13.692791 3.5277884
-102.09726 13.689349 3.2554798
-102.09721 13.716008 2.7135224
-102.09444 13.727081 2.4424531
-102.09756 13.743011 2.1714025
-102.08343 13.74471 1.900237
-102.07518 13.751264 1.6291312
-102.08053 13.769048 1.3576342
-102.06862 13.772589 1.0864331
-102.07029 13.787361 0.81453323
-102.03934 13.775144 0.54426271
-102.12187 12.511617 22.30979
-102.13013 12.727718 18.072397
-102.20346 12.80159 17.787458
-102.18437 12.835288 16.790155
-102.19209 13.025758 13.061571
-102.19289 13.041143 12.763379
-102.16217 13.256954 7.886292
-102.16381 13.271943 7.6097846
-102.1405 13.266828 7.3284431
-102.14597 13.284828 7.054348
-102.13417 13.288885 6.7773333
-102.12817 13.297569 6.5022573
-102.11256 13.298472 6.2261763
-102.13364 13.328955 5.9569736
-102.12971 13.339239 5.6839285
-102.12392 13.34799 5.4111233
-102.13174 13.367724 5.140594
-102.09902 13.354636 4.8653975
-102.11864 13.383885 4.5968609
-102.12093 13.399108 4.3264599
-102.09039 13.387689 4.0534182
-102.089 13.399895 3.7833812
-102.08579 13.410606 3.5133836
-102.10401 13.438731 3.2446408
-102.05837 13.41493 2.972966
-102.07294 13.440085 2.704056
-102.07017 13.451139 2.4344709
-102.06557 13.460707 2.1648536
-102.07465 13.481427 1.8951496
-102.05091 13.475377 1.6256044
-102.05633 13.493128 1.3555897
-102.07539 13.522046 1.0846782
-102.05391 13.517847 0.81507099
-102.12569 12.26712 22.223419
-102.14991 12.493778 18.01347
-102.18663 12.570811 17.049095
-102.13203 13.033184 6.7529168
-102.11819 13.035574 6.4776092
-102.11795 13.048755 6.2055297
-102.11583 13.060417 5.9336495
-102.11185 13.070562 5.6619892
-102.0827 13.060579 5.3872914
-102.09828 13.086312 5.1194143
-102.10426 13.104362 4.8503814
-102.08508 13.102249 4.5788074
-102.08737 13.117321 4.3099704
-102.08006 13.124675 4.0404739
-102.07869 13.136786 3.7717421
-102.05991 13.134915 3.5020814
-102.07047 13.15658 3.2344196
-102.05582 13.157999 2.9655592
-102.06272 13.176735 2.6976445
-102.06001 13.187738 2.4293668
-102.05547 13.197273 2.1610575
-102.05689 13.211614 1.8926984
-102.05018 13.245831 1.0867103
-102.14376 12.243752 17.945047
-102.15121 12.29752 16.966471
-102.18103 12.820806 6.7436695
-102.17495 12.829315 6.4704041
-102.18254 12.848562 6.2001958
-102.18048 12.860182 5.9287472
-102.16875 12.864146 5.6563387
-102.16294 12.872752 5.3854394
-102.15526 12.879858 5.1148028
-102.1301 12.873115 4.8426104
-102.12651 12.883399 4.5735703
-102.12107 12.892206 4.3046823
-102.12944 12.911932 4.0372863
-102.1125 12.911597 3.768019
-102.10938 12.922195 3.5001106
-102.11224 12.937545 3.232661
-102.11328 12.951442 2.9651184
-102.08118 12.938995 2.6966083
-102.09422 12.96242 2.4295623
-102.08195 12.965718 2.161988
-102.14178 11.998293 17.884243
-102.1795 12.816441 1.6313992
-102.1618 12.81547 1.3641098
-102.16581 12.831625 1.09615
-102.15229 12.833952 0.82868153
-102.12125 12.822447 0.56224746
-102.21742 11.13823 16.731356
-102.23822 10.229675 21.287527
-102.23464 10.745925 10.125346
-102.24596 10.766744 9.8537197
-102.20786 10.752463 9.5675077
-102.21857 10.359262 13.191178
-102.19133 10.353662 12.888967
-102.1993 10.385569 12.318214
-102.22717 10.418035 12.045027
-102.26893 10.473108 11.495801
-102.17178 10.494112 9.5251455
-102.19921 10.603316 2.430891
-102.23984 9.108943 20.958151
-102.26297 8.8815861 21.259718
-102.32244 8.6890602 21.231024
-102.32653 8.7905397 13.81244
-102.32037 8.7996149 13.519844
-102.3118 8.8070669 13.228153
-102.30871 8.8179197 12.940942
-102.28746 8.8171358 12.647598
-102.27173 8.819767 12.358791
-102.27753 8.8360233 12.080903
-102.24918 8.8304462 11.79069
-102.2614 8.3889236 16.729134
-102.34777 8.219964 16.733198
-102.31331 8.7774801 3.9088757
-102.31277 8.7885332 3.6565917
-102.31037 8.7983952 3.404356
-102.30611 8.8070669 3.1521878
-102.31686 8.8252964 2.9007261
-102.31731 8.8369732 2.6487992
-102.3075 8.8420839 2.3966882
-102.31268 8.8567753 2.1448181
-102.29915 8.8595095 1.8928412
-102.28377 8.8610535 1.6410475
-102.27496 8.8668003 1.3892423
-102.28114 8.8821497 1.1368825
-102.27703 8.8909216 0.8846283
-102.26266 8.8931112 0.63276017
-102.32079 8.5860033 3.4055774
-102.32507 8.6000004 3.154505
-102.31903 8.6075029 2.9030337
-102.30268 8.6084967 2.651444
-102.31831 8.6296444 2.4007022
-102.29826 8.6282854 2.1493821
-102.29326 8.6364241 1.8983252
-102.28641 8.6433926 1.6472765
-102.29461 8.6598787 1.3958315
-102.28404 8.6645069 1.1446822
-102.28008 8.6733103 0.89321238
-102.25736 8.6702433 0.64259946
-102.37366 7.9390631 9.0226698
-102.37463 7.730515 9.019558
-102.38057 7.0005188 21.225254
-102.36706 7.5182276 9.0101891
-102.42488 6.8268108 21.222479
-102.40967 7.0145535 16.596237
-102.40514 7.0250278 16.286718
-102.39004 7.0293813 15.973847
-102.35648 7.0231061 15.653526
-102.40635 7.0642209 15.381977
-102.36729 7.0545835 15.064079
-102.37282 7.0702505 14.772642
-102.37583 7.0843945 14.48198
-102.39187 7.3266759 9.0066299
-102.38381 7.3550348 8.227025
-102.36578 7.3554678 7.965364
-102.41063 6.9502668 13.326554
-102.40945 6.9614687 13.044004
-102.41402 6.9758482 12.765804
-102.40802 6.9958048 12.207967
-102.38923 6.9966974 11.925225
-102.40095 7.0148625 11.656492
-102.38573 7.0176454 11.378711
-102.38476 7.0284581 11.108017
-102.38985 7.0426764 10.840948
-102.35955 7.0366397 10.562744
-102.36025 7.0482311 10.297017
-102.35047 7.0537744 10.02909
-102.34689 7.0628052 9.7645493
-102.35796 7.0801721 9.5057373
-102.34177 7.0818872 9.2397366
-102.33187 7.0871463 8.9769382
-102.33675 7.1008358 8.719429
-102.30581 7.0939107 8.4533272
-102.31506 7.1100264 8.1990004
-102.32234 7.1249762 7.9448843
-102.31915 7.1338711 7.6890216
-102.31397 7.1415815 7.4335809
-102.31532 7.1530223 7.1803889
-102.29765 7.1534605 6.9240494
-102.30362 7.1675014 6.6732674
-102.30766 7.1804099 6.4226465
-102.32692 7.2020912 6.1751285
-102.30142 7.1978726 5.9205904
-102.29971 7.2073822 5.6706567
-102.30468 7.2207432 5.4221644
-102.31636 7.2379799 5.1748743
-102.31756 7.2491298 4.926487
-102.29105 7.2441707 4.6753988
-102.36626 6.8918147 9.2291069
-102.37322 6.9066267 8.9715357
-102.40354 6.9346366 8.7212353
-102.34796 6.9246693 8.1922131
-102.35529 6.9395323 7.9384384
-102.38963 6.9803677 7.4372773
-102.38252 6.9869475 7.1821933
-102.36488 6.987484 6.9258523
-102.37094 7.0014935 6.6750708
-102.37508 7.0143805 6.4244499
-102.36011 7.0163369 6.1710854
-102.36897 7.0318794 5.9223933
-102.35873 7.0364771 5.6711702
-102.3078 7.0385413 4.9190259
-102.29851 7.043571 4.6706018
-102.3046 7.0574121 4.4242067
-102.30018 7.0652075 4.1770329
-102.44805 4.5981584 22.434706
-102.42384 4.770875 17.995754
-102.44473 4.8919744 10.55313
-102.42902 4.8951445 10.287026
-102.39948 4.9022083 9.7601757
-102.37706 4.9018688 9.4966755
-102.37843 4.9132195 9.2417679
-102.37771 4.9234891 8.9873219
-102.49464 4.3935394 18.279858
-102.42365 4.9651999 3.8208652
-102.41498 4.9709983 3.579494
-102.41336 4.9802909 3.3388357
-102.36142 4.9846644 2.6164753
-100.63821 55.53159 18.143675
-100.63573 55.565651 17.676176
-100.57975 55.482327 17.172424
-100.65522 55.27359 18.559284
-100.65336 55.426491 16.70466
-100.64556 55.448311 16.240477
-100.62399 55.439831 15.769326
-100.60066 55.427288 15.299517
-100.57961 55.419537 14.833511
-100.56893 55.434345 14.375766
-100.5606 55.454178 13.921057
-100.6828 55.037693 18.982683
-100.6693 55.4338 13.935102
-100.66341 55.458847 13.482704
-100.62337 55.408958 13.014188
-100.74159 50.876926 18.7775
-100.7774 50.63694 18.707401
-100.81955 50.411732 18.651224
-100.84375 48.407234 18.597937
-100.88477 48.199467 18.550312
-100.90824 47.958431 18.48877
-100.92915 47.708595 18.421892
-100.95401 47.457916 18.350647
-100.93152 47.107834 18.230536
-100.93346 47.174061 17.398048
-100.96566 47.388565 15.366032
-100.96073 47.470398 14.14961
-100.95871 47.496735 13.746894
-100.92885 47.530251 12.535172
-100.93382 47.569363 12.141322
-100.92799 47.588036 11.743477
-100.89763 47.560173 11.336267
-100.92982 46.792271 18.116091
-100.94469 46.851192 17.711662
-100.95334 46.898445 17.304167
-100.97372 46.967392 16.906466
-100.97044 47.053707 15.678121
-100.96584 47.075672 15.269958
-100.97312 47.119694 14.870685
-100.96961 47.143471 14.466353
-100.94617 47.129829 14.052383
-100.95748 47.181072 13.659536
-100.92655 47.212753 12.454432
-100.92206 47.234009 12.058506
-100.92513 47.269356 11.667149
-100.88973 47.232342 11.260218
-100.90795 47.29604 10.877411
-100.93599 46.492161 18.010509
-100.93254 46.517067 17.594889
-100.97235 46.621677 17.212332
-100.99248 46.689896 16.81642
-100.98374 46.704662 16.402063
-100.97775 46.724327 15.991616
-100.95633 46.715286 15.573299
-100.96499 46.761814 15.175982
-100.94 46.745827 14.7598
-100.93151 46.760277 14.355597
-100.93504 46.796932 13.959842
-100.90936 46.779182 13.549565
-100.90031 46.792213 13.150193
-100.89418 46.810555 12.753837
-100.87717 46.808498 12.353623
-100.9 46.880669 11.973552
-100.86581 46.846348 11.568366
-100.87156 46.886478 11.182364
-100.86181 46.897579 10.790756
-100.9239 46.154781 17.90089
-100.91553 46.170574 17.484348
-100.98063 46.534805 14.304576
-100.96558 46.537079 13.899865
-100.95802 46.553043 13.50108
-100.94875 46.565754 13.102979
-100.97018 46.635151 12.721693
-100.96222 46.650089 12.32668
-100.95724 46.670433 11.93441
-100.93203 46.65316 11.534438
-100.92838 46.675781 11.145451
-100.91846 46.686657 10.754959
-100.86251 46.69902 9.1990204
-100.98322 46.223305 14.230535
-100.98177 46.250515 13.835588
-100.97398 46.266006 13.438659
-100.98772 46.320915 13.054334
-100.90002 46.451233 9.1649179
-100.91944 46.516052 8.7905998
-100.96551 46.630329 8.4237623
-100.94482 46.649567 7.6579437
-100.91563 46.62405 7.2717662
-100.91782 46.656822 6.8936744
-100.89488 46.642811 6.5108123
-100.86096 46.608234 6.127017
-100.94986 45.87973 13.744069
-100.9418 45.894516 13.349842
-100.98335 45.999798 12.982495
-100.93688 46.233295 8.7504129
-100.93017 46.562874 4.2277966
-100.93879 46.607388 3.8518684
-100.92692 46.613796 3.474422
-100.92351 45.516064 13.656591
-100.91518 45.530178 13.264981
-101.01298 45.736759 12.928777
-100.92257 45.88829 8.7016239
-100.96315 46.302284 4.2120872
-100.97501 46.409195 3.086875
-100.9315 46.356956 2.7104273
-100.94205 44.967587 17.135719
-101.00434 45.403797 12.862375
-100.94102 45.602734 8.6692619
-100.95335 45.961742 4.1992197
-100.94782 45.97963 3.8262813
-100.95029 46.012222 3.4536839
-100.95599 46.050743 3.0807993
-100.93623 46.042488 2.7071168
-100.9583 45.316101 8.6413813
-100.9365 45.691494 3.0792139
-100.93603 45.718315 2.7082453
-100.93961 45.403133 2.7113831
-101.04925 42.659489 16.980211
-101.92145 18.097872 22.853113
-101.99977 18.170832 22.571804
-101.95265 17.915913 22.811773
-102.02452 17.983789 22.524729
-101.94818 17.708855 22.744289
-102.02623 17.780748 22.464146
-102.00332 17.944487 18.491739
-102.02654 17.975237 18.202902
-101.97635 17.979946 17.265318
-101.96374 17.523762 22.703201
-102.02889 17.586035 22.411272
-101.99813 18.094898 10.79042
-102.00182 18.120201 10.297629
-101.9893 18.122231 10.047717
-101.98264 18.128506 9.8012972
-101.97414 18.133373 9.5554886
-101.96382 18.136835 9.3103104
-101.95168 18.138901 9.0657864
-101.94554 18.145334 8.824337
-101.92979 18.144638 8.5810986
-101.93579 18.159924 8.3452663
-101.92437 18.162317 8.1053715
-101.91907 18.169186 7.8681235
-101.91205 18.174744 7.6313124
-101.89542 18.173157 7.3930688
-101.89288 18.181948 7.1590776
-101.88866 18.189466 6.9254103
-101.96665 17.339052 22.658012
-102.03825 17.405313 22.372784
-102.00259 17.559587 18.408884
-102.01602 17.623901 17.217453
-102.01775 17.884399 11.529059
-102.01466 17.893606 11.276532
-102.00269 17.907619 10.773435
-102.00156 17.918045 10.525897
-101.99855 17.927059 10.278906
-102.0092 17.945948 10.038126
-102.0103 17.957842 9.7948627
-101.994 17.957018 9.5467348
-101.99146 17.966154 9.3045464
-101.98711 17.973934 9.0628443
-102.01236 18.003254 8.8312511
-101.98095 17.991182 8.5832939
-101.97916 18.00069 8.3453169
-101.96776 18.003122 8.1055908
-101.97039 18.015781 7.8705745
-101.97923 18.032957 7.6377988
-101.97849 18.043081 7.4032474
-101.96019 18.0403 7.1653914
-101.97987 18.06535 6.9367933
-101.95023 18.054163 6.6982265
-101.95866 18.070904 6.4682684
-101.97343 18.092291 6.2398052
-101.9467 18.083128 6.004353
-101.95022 18.096195 5.7748117
-101.94412 18.102161 5.5441585
-101.94439 18.112797 5.314899
-101.95104 18.12813 5.0867915
-101.94007 18.13044 4.8567715
-101.93549 18.137451 4.6279387
-101.93732 18.149181 4.4000506
-101.92952 18.153786 4.1715035
-101.90408 18.145306 3.9419842
-101.90911 18.159386 3.7150664
-101.89651 18.160383 3.487211
-101.90639 18.178047 3.2606156
-101.90665 18.18858 3.033536
-101.8973 18.191967 2.8062506
-101.9024 18.206097 2.5792482
-101.88184 18.201141 2.3521094
-101.95513 17.15143 22.613333
-102.01382 17.208073 22.316473
-102.0438 17.244656 21.995457
-102.05445 17.313232 20.649508
-102.01039 17.382748 18.388414
-102.04034 17.417526 18.106518
-102.01678 17.441324 17.193802
-102.0257 17.634396 13.05623
-102.01945 17.641644 12.793118
-102.0111 17.647312 12.530831
-102.02347 17.667723 12.280104
-101.99581 17.659403 12.012327
-102.01949 17.687794 11.769619
-101.99538 17.681849 11.507076
-102.0153 17.70743 11.265095
-101.99487 17.703985 11.007472
-102.00335 17.721235 10.763149
-101.98675 17.720396 10.510209
-101.99926 17.740446 10.269784
-101.97108 17.731127 10.015467
-101.98772 17.754066 9.7786932
-101.99483 17.770077 9.5393705
-101.97665 17.767797 9.2926235
-101.98017 17.781132 9.0541677
-101.98194 17.793156 8.8160486
-101.96619 17.792469 8.5736485
-101.97233 17.807575 8.3386707
-101.96095 17.809948 8.0996199
-101.96365 17.822489 7.8652864
-101.97257 17.839523 7.6331992
-101.956 17.838013 7.3955441
-101.96952 17.858322 7.1657686
-101.9575 17.860041 6.9308062
-101.95175 17.866289 6.6979938
-101.96829 17.888735 6.4701929
-101.95123 17.886692 6.2363982
-101.9405 17.889221 6.0045519
-101.96015 17.913891 5.7782865
-101.93812 17.908121 5.5457401
-101.93047 17.912827 5.3160558
-101.92119 17.916315 5.0866694
-101.92635 17.930351 4.8594875
-101.94599 17.954975 4.6340079
-101.92383 17.94898 4.4043298
-101.93223 17.965364 4.1779299
-101.91489 17.96286 3.9496038
-101.89594 17.959156 3.7216818
-101.91564 17.983828 3.4962952
-101.93375 18.007347 3.2704763
-101.91002 18.000092 3.0430005
-101.90079 18.003496 2.8163209
-101.89802 18.011652 2.5898578
-101.91781 18.036436 2.3633404
-101.9038 18.036316 2.1367042
-101.89626 18.040956 1.9100745
-101.88712 18.04442 1.6834821
-101.95953 16.977362 22.589304
-102.01188 17.029083 22.286747
-102.02229 17.051796 21.948
-102.05586 17.090292 21.634426
-102.06011 17.108408 21.297728
-102.04789 17.114969 20.95052
-102.06591 17.142244 20.633848
-102.05409 17.148718 20.295158
-102.05946 17.166912 19.974926
-101.99426 17.191553 18.354116
-102.0312 17.230825 18.078121
-102.03065 17.24386 17.77672
-101.99918 17.235168 17.456133
-102.00034 17.249109 17.162203
-102.0275 17.281118 16.888918
-102.03088 17.296398 16.601536
-102.01657 17.467663 12.522213
-102.00617 17.471689 12.261261
-102.00899 17.485012 12.00817
-102.00103 17.501814 11.500411
-101.99795 17.510746 11.2492
-102.00066 17.523739 11.001798
-101.96274 17.507721 10.739497
-101.97711 17.528902 10.499532
-101.9819 17.543209 10.256868
-101.98488 17.556162 10.014606
-101.97038 17.556589 9.7672768
-101.96969 17.566822 9.5260515
-101.95934 17.570095 9.2827139
-101.97078 17.588921 9.047514
-101.97261 17.600824 8.8100729
-101.98059 17.617102 8.5753155
-101.97102 17.620752 8.3362865
-101.95969 17.623087 8.0978251
-101.93864 17.618401 7.857882
-101.96358 17.646721 7.6306224
-101.95501 17.650925 7.3955412
-101.95271 17.659603 7.1627479
-101.94073 17.661278 6.9285517
-101.93505 17.667458 6.6965098
-101.93571 17.678181 6.4663839
-101.95076 17.699272 6.2394032
-101.93208 17.695986 6.006772
-101.93584 17.708879 5.7786183
-101.92992 17.714766 5.5493436
-101.93043 17.725271 5.3214707
-101.92931 17.734589 5.0937223
-101.91851 17.736874 4.8651662
-101.92222 17.74966 4.6386681
-101.91625 17.755419 4.4113975
-101.91676 17.765858 4.1850104
-101.90759 17.769257 3.9580593
-101.92911 17.794973 3.7333961
-101.89528 17.800497 3.0539894
-101.90235 17.815702 2.8284216
-101.89557 17.830847 2.3766983
-102.01257 16.85236 22.252018
-102.00325 16.861361 21.895519
-101.98683 17.007397 18.320078
-102.01673 17.041426 18.039471
-102.03014 17.063955 17.749025
-101.97725 17.04048 17.413748
-102.00672 17.073868 17.140539
-102.02676 17.100632 16.862801
-102.0229 17.110712 16.571112
-102.03819 17.133974 16.294771
-102.00764 17.12528 15.990938
-102.0005 17.307844 11.736624
-101.99625 17.326902 11.234726
-101.97646 17.33474 10.732332
-101.96754 17.339249 10.483788
-101.96452 17.347868 10.238874
-101.9753 17.366194 10.000197
-101.97644 17.377659 9.7590294
-101.96005 17.376648 9.5129766
-101.96543 17.391016 9.2754698
-101.95325 17.392881 9.033288
-101.95508 17.40464 8.796608
-101.96308 17.42075 8.5626154
-101.96143 17.42996 8.3265886
-101.95007 17.432232 8.0888023
-101.93697 17.433203 7.8516054
-101.93806 17.444258 7.6189904
-101.92948 17.448372 7.3847604
-101.95119 17.474077 7.1582694
-101.94725 17.481445 6.9263983
-101.9336 17.481846 6.6932254
-101.93433 17.492491 6.4637017
-101.94948 17.513441 6.2373285
-101.94692 17.521698 6.0080647
-101.91854 17.511423 5.7751474
-101.93687 17.534605 5.5502853
-101.91324 17.527678 5.3195543
-101.91219 17.536924 5.0925851
-101.90952 17.544994 4.865757
-101.91334 17.557707 4.6399541
-101.90745 17.563435 4.4133759
-101.90805 17.573818 4.1876836
-102.00833 16.677315 22.202782
-102.01186 16.694963 21.858984
-101.99347 16.838806 18.288151
-102.00922 16.862881 17.997545
-102.00829 16.875414 17.697399
-101.95494 16.851864 17.362862
-101.99849 16.894644 17.100378
-102.02554 16.926022 16.828154
-102.0287 16.940874 16.541826
-102.01491 16.943956 16.24688
-102.0131 16.955164 15.962551
-102.00887 16.964588 15.679193
-102.00055 16.983213 15.119963
-101.99024 17.000057 14.568961
-101.96735 17.17487 10.220879
-101.97023 17.187532 9.9798594
-101.95554 17.187826 9.7337685
-101.95475 17.197813 9.4937916
-101.96006 17.21204 9.2568636
-101.94776 17.213846 9.0152626
-101.9257 17.208731 8.7719269
-101.94952 17.235857 8.5434256
-101.9398 17.239342 8.3058252
-101.92035 17.235907 8.066637
-101.93212 17.264677 7.6044717
-101.92345 17.268738 7.3708301
-101.92913 17.282906 7.1412978
-101.91707 17.284492 6.9084587
-101.94355 17.313343 6.6843548
-101.92717 17.321871 6.223412
-101.91648 17.324314 5.9935298
-101.91222 17.331289 5.7653632
-101.93058 17.354326 5.5410967
-101.99344 16.553507 21.814301
-101.97519 16.708456 17.947683
-102.0069 16.768555 17.082285
-102.02686 16.794769 16.8053
-102.05173 16.824223 16.533726
-102.0162 16.812405 16.224499
-102.0071 16.818468 15.935721
-102.01016 16.832722 15.657289
-101.99614 16.835203 15.37064
-102.00183 16.851051 15.098539
-101.98299 16.85001 14.814063
-101.97662 16.857399 14.539431
-101.96047 16.857983 14.261544
-101.957 16.867161 13.993087
-101.96637 16.885078 13.73361
-101.95853 16.891085 13.466746
-101.92744 17.073246 8.7568169
-101.97798 16.364668 21.754387
-102.07297 16.633238 17.093138
-101.93897 16.889528 8.9807854
-102.00784 16.20488 21.738977
-102.05374 16.724836 10.443123
-102.05859 16.738619 10.202124
-102.03783 16.734882 9.9530325
-102.04689 16.751438 9.715867
-102.03028 16.750416 9.4709873
-102.01977 16.753496 9.2294941
-102.02338 16.766201 8.9936533
-102.00922 16.766685 8.7533302
-102.00928 16.776863 8.518363
-102.01562 16.791311 8.2860203
-101.97997 16.776918 8.0431204
-101.99087 16.794416 7.8137574
-101.98392 16.799633 7.5805202
-101.98334 16.809185 7.3496437
-102.01345 16.839836 7.1263375
-101.96896 16.819103 6.8871021
-101.96328 16.825052 6.6572905
-101.95591 16.829811 6.4278421
-101.94305 16.869766 5.2934518
-101.93132 16.881056 4.8419943
-102.0109 16.029533 21.69677
-102.02682 16.738125 5.5241365
-102.02756 16.748358 5.2983403
-102.03485 16.763083 5.0737085
-101.99949 16.748512 4.8442855
-102.01173 16.766602 4.6209097
-101.9895 16.760994 4.3942504
-101.99029 16.771193 4.1702089
-101.97302 16.768953 3.9449975
-101.98703 16.788239 3.72226
-101.96653 16.783745 3.4975259
-101.9691 16.795143 3.2742603
-101.96184 16.799753 3.0506716
-101.95297 16.803249 2.8272073
-101.93428 16.799944 2.6038029
-101.93044 16.806896 2.3807204
-101.93321 16.818432 2.1575458
-101.92616 16.82317 1.9343952
-101.92368 16.840708 1.4875073
-102.01308 15.869828 21.31255
-101.9758 16.495871 6.184464
-101.94431 16.493938 5.7278109
-101.98376 16.732443 0.81312978
-102.03639 15.371348 17.157461
-102.13741 15.076229 21.598698
-102.1366 15.09015 21.259396
-102.10512 15.084918 20.897655
-102.09752 15.094254 20.561375
-102.07972 15.097088 20.220728
-102.05804 15.213811 17.144194
-102.10091 15.070978 17.145342
-102.11175 14.407649 17.041222
-102.05717 14.554358 5.2527256
-102.02249 14.542471 5.0285897
-102.14128 13.128119 21.54089
-102.13465 13.13852 21.198683
-102.12451 13.146793 20.85795
-102.08981 13.141253 20.500896
-102.10439 12.820209 17.088697
-102.18716 12.712649 17.125269
-102.19842 12.811793 14.918361
-102.18652 12.81647 14.645693
-102.1958 12.832611 14.387272
-102.16321 12.825776 14.107982
-102.15984 12.834815 13.847064
-102.14617 12.838127 13.582868
-102.11412 12.831267 13.311588
-102.11178 12.840594 13.05766
-102.11529 12.85306 12.808426
-102.09236 12.850924 12.548364
-102.13132 12.801627 10.619167
-102.19112 12.807303 7.6537657
-102.19209 12.817156 7.4307284
-102.18269 12.821281 7.206079
-102.18015 12.829137 6.983747
-102.16722 12.831248 6.7600107
-102.16982 12.841881 6.5401125
-102.16205 12.846774 6.3188462
-102.16122 12.855469 6.0994539
-102.15002 12.85841 5.8789005
-102.15446 12.869974 5.6613946
-102.13985 12.870978 5.4415383
-102.13223 12.875828 5.2232809
-102.13163 12.884546 5.0063791
-102.13806 12.897157 4.7905903
-102.10802 12.889492 4.5712843
-102.08498 12.885695 4.3534727
-102.07569 12.907455 3.7076216
-102.06709 12.920584 3.2779284
-102.16908 12.744746 5.2339511
-102.10466 12.745418 4.3621984
-102.08 12.740805 4.1450129
-102.11484 12.769004 3.93273
-102.0956 12.767361 3.7166116
-102.09221 12.774448 3.5018075
-102.09592 12.78546 3.2874525
-102.08924 12.790722 3.0727589
-102.08092 12.79507 2.8581889
-102.08846 12.808202 2.6439526
-102.07687 12.810728 2.4295044
-102.08113 12.82205 2.2150738
-102.07501 12.827611 2.000648
-102.08472 12.84198 1.7857494
-102.15545 12.340766 11.097959
-102.15376 12.584954 5.2371397
-102.10692 12.595503 4.3687019
-102.09975 12.609542 3.9385176
-102.09806 12.617589 3.7239017
-102.1035 12.629529 3.5098085
-102.09853 12.635766 3.2952697
-102.08315 12.636285 3.0805626
-102.08366 12.645515 2.866528
-102.07378 12.64903 2.6523581
-102.07537 12.667805 2.2242789
-102.07809 12.678257 2.0100405
-102.06984 12.691637 1.581483
-102.15366 12.408649 5.8931651
-102.11885 12.417061 5.2375851
-102.0984 12.441992 4.3739681
-102.10014 12.46085 3.945107
-102.16811 12.587432 1.802418
-102.17637 12.600936 1.5869663
-102.1479 12.594357 1.3729072
-102.17037 12.615661 1.1562345
-102.12112 12.59768 0.9437114
-102.14411 12.255428 5.8960447
-102.14009 12.262313 5.6783524
-102.14312 12.272947 5.4621668
-102.13572 12.277985 5.2449441
-102.13539 12.28679 5.029089
-102.12463 12.289985 4.8124042
-102.12095 12.296965 4.5969467
-102.09117 12.307736 3.951097
-102.13315 11.816537 12.789244
-102.14343 12.134345 5.2531161
-102.10611 12.150143 4.388917
-102.23347 11.09656 21.089039
-102.22739 11.257521 17.08857
-102.24725 11.410987 13.598486
-102.24187 11.26998 13.58893
-102.24728 11.313358 12.587345
-102.20951 10.975723 17.056587
-102.23078 11.475849 4.8497543
-102.22763 11.482846 4.6346369
-102.23094 10.845395 17.055597
-102.23707 10.936233 14.862509
-102.22521 10.941015 14.592218
-102.21324 10.782052 14.827986
-102.22554 10.83995 13.54026
-102.19563 10.856712 9.2026539
-102.24676 11.006637 6.1167417
-102.22701 11.005623 5.8969946
-102.23215 11.016866 5.6818366
-102.25623 8.7162848 16.858944
-102.26174 8.74051 16.303413
-102.30065 8.7126369 14.185333
-102.27413 8.8628998 10.04734
-102.29194 8.6519098 12.421213
-102.29474 8.7272615 10.51565
-102.31189 8.7435217 10.289708
-102.2832 8.7403917 10.048894
-102.27878 8.747447 9.8179731
-102.26005 8.7505798 6.2731166
-102.2507 8.7549286 6.0567088
-102.24493 8.7690535 5.6277885
-102.36361 8.1905203 15.252504
-102.25763 8.2570267 12.393022
-102.29964 8.2836208 12.16834
-102.27946 8.2848158 11.917827
-102.35826 8.1738691 12.434113
-102.33193 8.17272 12.178485
-102.35493 8.1914301 11.946109
-102.35143 8.2086639 11.464556
-102.36547 8.2327805 10.995846
-102.2571 8.2069054 10.487725
-102.25661 8.2156878 10.256239
-102.27174 8.2307911 10.031355
-102.36255 8.0538568 12.436067
-102.33626 8.0527334 12.180435
-102.36799 8.0747833 11.951735
-102.37336 8.0954428 11.473529
-102.36412 8.1008911 11.231907
-102.32648 8.094842 10.981038
-102.26138 8.0955153 10.258168
-102.26776 8.1069517 10.030263
-102.33924 7.9238439 12.430917
-102.33017 7.9295449 12.183038
-102.32745 7.9377007 11.939711
-102.32407 7.9546423 11.458799
-102.33221 7.9669437 11.224532
-102.37328 7.9923377 11.004151
-102.30022 7.9809971 10.508736
-102.25587 7.9720759 10.261392
-102.26233 7.9834366 10.033569
-102.26682 7.9939628 9.8061657
-102.36433 8.1101513 7.8164711
-102.34976 8.1126404 7.5929642
-102.25034 8.1218967 6.2705317
-102.25938 8.1337528 6.057539
-102.26668 8.1448851 5.8446145
-102.3398 7.8035154 12.438509
-102.34808 7.8160009 12.198151
-102.32824 7.8173456 11.947296
-102.28156 7.8170452 11.448787
-102.35082 7.8533883 11.238991
-102.32203 7.8509269 10.991616
-102.26643 7.8465695 10.503545
-102.28168 7.8700767 10.047175
-102.35265 7.9749827 8.0413694
-102.34908 7.9818954 7.8196845
-102.36179 7.9953098 7.6026354
-102.34542 7.9970226 7.3796659
-102.25202 8.0165186 5.8493314
-102.33259 7.6799817 12.44018
-102.31505 7.6823025 12.18861
-102.28651 7.6802444 11.934391
-102.37719 7.7247386 11.731827
-102.33555 7.7174358 11.475413
-102.30898 7.7159481 11.227311
-102.34148 7.7375669 11.003839
-102.27719 7.7385826 10.280658
-102.26618 7.7428966 10.046618
-102.33024 7.8359733 8.261919
-102.33763 7.8472257 8.0423374
-102.33411 7.8541112 7.8208213
-102.31963 7.8566031 7.5976453
-102.33056 7.8691759 7.3811412
-102.33057 7.8773775 7.1628432
-102.33427 7.895174 6.7289925
-102.3196 7.5529861 12.433301
-102.31067 7.5586462 12.185657
-102.30811 7.5667057 11.942568
-102.2876 7.5766673 11.455094
-102.33965 7.6057534 11.238436
-102.3372 7.6136351 11.001288
-102.34422 7.718761 8.2650709
-102.32449 7.7192712 8.0385923
-102.33005 7.7297034 7.8194308
-102.30648 7.7286167 7.5942388
-102.34476 7.7519097 7.3839488
-102.34482 7.7600975 7.1655645
-102.31564 7.7566881 6.9419727
-102.33948 7.77423 6.7297831
-102.30305 7.5807457 8.2515287
-102.31044 7.5918589 8.0322838
-102.32507 7.6057768 7.815475
-102.29237 7.6011586 7.5882702
-102.32156 7.620718 7.3761325
-102.33073 7.6324286 7.1599317
-102.31066 7.6326475 6.9383554
-102.33453 7.6500802 6.7262483
-102.31995 7.6524 6.5073009
-102.30428 7.0662584 12.421111
-102.30156 7.0829725 11.934535
-102.28696 7.092545 8.2444324
-102.28539 7.0998878 8.0231647
-102.3002 7.1133757 7.8066869
-102.47345 4.8572755 22.540531
-102.44996 4.9098573 20.808155
-102.44714 4.9204593 20.477154
-102.4483 4.9321265 20.153502
-102.40436 4.9835768 18.257034
-102.421 4.9991126 17.970407
-102.42506 5.0408196 16.812191
-102.38615 4.8369474 18.540728
-102.41964 5.1084242 11.123868
-102.42651 5.1189122 10.889556
-102.45643 4.7294259 18.588079
-102.45431 5.121192 7.4831119
-102.44762 5.1345644 7.0425577
-102.43676 5.138804 6.8219781
-102.41462 5.1394043 6.6001763
-102.41874 5.1483788 6.3840342
-102.41161 5.1537318 6.1665344
-102.40265 5.1584663 5.9494314
-102.37297 5.1565251 5.7299581
-102.36974 5.1630492 5.5151806
-102.36469 5.168972 5.3006802
-102.37675 5.1803904 5.0887384
-102.34917 5.1790175 4.8725748
-102.48246 4.6132288 18.612028
-100.93883 44.987122 13.73338
-101.07626 43.647709 17.558287
-101.06886 44.070602 11.658469
-101.11075 43.089058 17.443495
-101.08304 43.081184 16.932659
-101.06116 43.189613 14.956964
-100.99316 43.327156 11.551721
-101.0757 42.428074 17.282721
-101.90566 18.251131 17.70594
-101.90061 18.267632 17.327244
-101.89575 18.344463 15.844613
-101.99685 18.362434 10.18222
-101.9967 18.380966 9.8432426
-101.97884 18.385359 9.5007448
-101.96626 18.393869 9.1609278
-101.9436 18.394297 8.8199606
-101.91084 18.386606 8.4781275
-101.88341 18.383072 8.1389751
-101.88451 18.402224 7.8069029
-101.87558 18.413336 7.4736176
-101.98821 17.533884 18.286713
-101.97932 18.438633 1.8726521
-101.96085 18.442041 1.5458336
-102.02602 17.198748 18.201899
-102.09669 15.598773 22.56056
-102.04178 15.224499 22.428503
-102.02063 15.440991 18.144297
-102.05817 14.898185 22.343536
-102.07052 15.135358 18.093466
-102.07471 14.571728 22.255184
-102.12795 14.834212 18.043333
-102.0831 14.241125 22.159653
-102.16049 14.313937 21.811094
-102.10895 14.482088 17.949953
-102.14311 14.562965 16.875156
-102.08311 13.903965 22.058033
-102.15301 13.970891 21.705933
-102.14674 13.987642 21.305725
-102.15337 14.033182 20.528229
-102.15169 14.052402 20.141277
-102.13925 14.064347 19.751087
-102.13096 14.078853 19.366758
-102.11859 14.14903 17.871853
-102.16305 14.197791 17.530176
-102.15889 14.214148 17.16498
-102.10566 14.1977 16.77774
-102.12543 14.394188 13.306266
-102.11262 13.581979 21.975723
-102.13837 13.619572 21.595432
-102.14614 13.645368 21.206343
-102.17274 13.683198 20.832541
-102.13674 13.680264 20.422329
-102.17918 13.728063 20.064302
-102.15126 13.72999 19.666235
-102.14996 13.749046 19.287565
-102.09756 13.79289 17.776939
-102.12634 13.830847 17.428814
-102.14463 13.861843 17.077175
-102.11378 13.860518 16.703039
-102.14951 13.902704 16.364454
-102.1515 13.922661 16.011305
-102.13914 13.951482 15.304133
-102.14046 13.970651 14.957235
-102.11544 13.972347 14.601055
-102.12697 13.99803 14.26262
-102.12794 14.016661 13.921532
-102.11833 14.02819 13.578068
-102.12191 14.048346 13.241609
-102.09898 14.050861 12.896934
-102.10528 14.072642 12.564895
-102.10103 14.087348 12.2306
-102.09421 14.10026 11.897031
-102.08014 14.31172 7.6986041
-102.06355 14.317208 7.3795028
-102.07746 14.343163 7.0667071
-102.06444 14.350959 6.7498636
-102.04909 14.357146 6.4335198
-102.04789 14.372836 6.1200237
-102.04441 14.38696 5.8067307
-102.03866 14.399518 5.4936652
-102.02238 14.404933 5.1799493
-102.0451 14.436702 4.8707566
-102.09182 13.225209 21.856386
-102.10217 13.252704 21.467945
-102.16379 13.393956 19.578981
-102.10715 13.455458 17.696018
-102.09705 13.468069 17.329115
-102.10708 13.493509 16.97522
-102.0832 13.496949 16.606714
-102.1107 13.533431 16.266041
-102.11208 13.552933 15.91467
-102.11845 13.575546 15.567787
-102.1299 13.601339 15.225181
-102.12286 13.615054 14.876311
-102.10513 13.621706 14.525064
-102.11625 13.646985 14.188104
-102.1009 13.654961 13.842111
-102.09076 13.666213 13.500307
-102.10187 13.691209 13.168536
-102.0864 13.698794 12.828402
-102.10837 13.730719 12.503588
-102.10374 13.745207 12.170635
-102.07236 13.742115 11.830325
-102.08678 13.768885 11.506948
-102.09065 13.788692 11.181327
-102.05847 13.801914 10.522114
-102.05488 13.816611 10.19835
-102.11114 13.173059 16.54232
-102.14621 13.214059 16.206446
-102.13157 13.223331 15.848681
-102.11398 13.230589 15.492128
-102.10134 13.240876 15.140343
-102.10168 13.259315 14.796551
-102.10719 13.280957 14.456939
-102.09409 13.290595 14.111469
-102.08619 13.303452 13.770243
-102.09158 13.324721 13.436152
-102.08633 13.339077 13.099652
-102.07039 13.346474 12.761024
-102.06789 13.362409 12.429125
-102.07283 13.434956 11.121498
-102.06433 13.463727 10.47241
-102.13624 13.119842 11.419297
-102.1349 12.286703 20.837114
-102.15948 13.113776 5.4098072
-102.14273 13.119315 5.1001062
-102.1321 13.128713 4.7916651
-102.12761 13.141991 4.4842467
-102.12084 13.153808 4.1769843
-102.11182 13.164163 3.8699014
-102.07527 13.156929 3.5616529
-102.07015 13.16973 3.2556293
-102.07961 13.191856 2.9502449
-102.06999 13.201771 2.6442215
-102.25921 11.364021 21.106588
-102.25914 11.403352 20.339354
-102.22852 9.4072914 21.078012
-102.25896 9.4418554 20.715914
-102.26278 9.4623623 20.340155
-102.27441 9.0129719 16.629507
-102.3443 9.0818577 15.976432
-102.31216 9.0980911 15.284071
-102.32473 9.1207352 14.954154
-102.29288 9.1204453 14.607283
-102.28303 9.1313515 14.272206
-102.32055 9.166563 13.958283
-102.26312 9.1527433 13.608438
-102.26999 9.1719732 13.286024
-102.24883 9.1766415 12.954914
-102.31641 8.7199011 16.608875
-102.33188 9.0972576 8.8882341
-102.30869 9.0998783 8.5786066
-102.29858 9.1236324 7.9707532
-102.31254 8.4069166 16.57081
-102.34755 8.5198727 14.563836
-102.35017 8.5522671 13.907219
-102.35149 8.5683413 13.581755
-102.31614 8.5660505 13.244282
-102.33738 8.5918674 12.930032
-102.29633 8.5865297 12.594918
-102.31223 8.6095295 12.281927
-102.30841 8.6226053 11.963595
-102.30193 8.6342773 11.646006
-102.31004 8.6531811 11.334571
-102.30696 8.6664152 11.020989
-102.29266 8.6739454 10.70554
-102.29308 8.6888008 10.395823
-102.27361 8.6935921 10.081936
-102.26025 8.7013893 9.7712259
-102.28794 8.7298069 9.4722071
-102.26088 8.7305746 9.1605244
-102.2575 8.7432318 8.8558731
-102.28671 8.7723103 8.5594387
-102.26972 8.7780027 8.253624
-102.2415 8.7779455 7.9467726
-102.34342 8.109808 16.541271
-102.32103 8.2545414 13.210826
-102.25678 8.26793 12.230349
-102.34364 8.4559422 9.1568537
-102.29649 8.4467907 8.8422108
-102.32645 8.4899673 8.2446699
-102.28058 8.481246 7.9346437
-102.29345 8.543601 6.7427497
-102.36371 7.8018217 16.491537
-102.30431 7.9288673 13.155668
-102.32866 8.1447172 8.8144436
-102.27014 8.1444502 8.1996899
-102.27693 8.1618147 7.9016657
-102.24167 8.2831974 4.9408507
-102.2896 7.5403314 14.387121
-102.33806 7.5785122 14.080551
-102.38397 7.6154556 13.773877
-102.29664 7.6048827 13.096661
-102.28074 7.802393 8.7615776
-102.39874 7.2252917 15.364193
-102.40477 7.2439342 15.034348
-102.39092 7.2533627 14.698114
-102.34005 7.2456613 14.349004
-102.35429 7.2677627 14.029118
-102.34009 7.2766914 13.69976
-102.34018 7.2921023 13.378
-102.28889 7.2988849 12.721371
-102.28188 7.3406935 11.775768
-102.28293 7.3560457 11.464805
-102.45408 5.0931463 21.921982
-102.42747 5.1361337 20.762943
-102.41893 5.1502256 20.384634
-102.40663 5.1626458 20.007805
-102.39503 5.2738571 11.023957
-102.38162 5.2826476 10.715614
-100.92361 45.934315 18.860422
-100.95322 45.789288 18.833105
-100.9511 45.599468 18.781822
-101.00045 45.487484 18.766052
-101.02879 45.345726 18.732809
-101.00459 45.826508 10.004502
-101.05384 45.196465 18.693031
-100.9751 45.145164 14.339458
-100.95556 44.929462 14.283605
-100.9788 44.776215 14.25361
-101.00101 44.622238 14.226847
-100.98057 43.952393 18.71797
-101.02052 43.819344 18.700275
-101.06059 43.685829 18.682625
-101.07735 43.523338 18.650179
-101.09202 43.36137 18.619122
-101.1114 43.207073 18.591803
-101.06305 44.06694 2.8264766
-101.13041 43.053833 18.563129
-101.03057 43.835487 2.8309448
-100.99239 43.841717 1.798986
-101.0774 43.657589 3.8644667
-101.06777 43.66407 3.5209081
-101.06219 43.67627 3.1776056
-100.99722 43.604305 2.8335903
-101.0928 43.377544 5.9188204
-101.09361 43.398689 5.5763316
-101.08111 43.401131 5.2324328
-101.07844 43.417374 4.8900347
-101.07983 43.439316 4.5481372
-101.06792 43.442528 4.2052569
-101.06007 43.451439 3.8629301
-101.05048 43.457905 3.520679
-101.04496 43.470089 3.1786847
-101.09575 43.143017 6.9407735
-101.10185 43.171406 6.5993891
-101.07985 43.180367 5.9119825
-101.08653 43.209526 5.5714769
-101.06828 43.203793 5.2280283
-101.0773 43.23621 4.8880315
-101.07299 43.249958 4.5466752
-101.06115 43.253136 4.2049255
-101.04758 43.253876 3.8633997
-101.00948 43.239891 3.1809697
-101.10489 42.862198 8.9991636
-101.11584 42.897179 8.6573286
-101.1077 42.90564 8.3109913
-101.10355 42.919617 7.966454
-101.09576 42.948154 7.2794499
-101.09795 42.97081 6.9379792
-101.09838 42.99102 6.5965228
-101.09707 43.008793 6.2551069
-101.07659 42.999844 5.9111924
-101.07761 43.020813 5.5709653
-101.04784 42.998821 5.2272782
-101.06866 43.047367 4.8897796
-101.05867 43.05294 4.5490475
-101.04696 43.056084 4.2085128
-101.03934 43.064926 3.868535
-101.00092 43.030689 3.5274053
-101.00149 43.050945 3.1883574
-101.12412 42.659077 10.036776
-101.10905 42.677467 9.3401737
-101.11617 42.706795 8.9975424
-101.09834 42.701653 8.648735
-101.0903 42.709972 8.3036013
-101.08629 42.723804 7.9602714
-101.09795 42.759266 7.6210976
-101.09042 42.768177 7.2780967
-101.07532 42.766556 6.9343114
-101.0701 42.77858 6.5931244
-101.06313 42.788155 6.252152
-101.04859 42.787205 5.910562
-101.05563 42.816154 5.5724983
-101.05511 42.834614 5.2335219
-101.06453 42.866867 4.8957119
-101.04306 42.856194 4.5549989
-101.04319 42.87553 4.2165246
-101.03577 42.88435 3.8775895
-101.03245 42.898884 3.5389776
-101.00992 42.886639 3.1998074
-101.10162 42.612331 7.2833514
-101.09833 42.626785 6.9425831
-101.08745 42.630741 6.600966
-101.09234 42.656425 6.2625837
-101.07214 42.647427 5.9206443
-101.07939 42.676357 5.5831966
-101.06155 42.670555 5.2427654
-101.04404 42.684029 4.5654655
-101.05023 42.711456 4.2283792
-101.02547 42.695969 3.889292
-101.01068 42.694279 3.5513077
-101.01755 42.722641 3.2142608
-101.01685 42.740505 2.8767376
-101.00443 42.760944 2.20122
-101.10815 42.52375 5.9269028
-101.11558 42.552654 5.5898948
-101.10956 42.56303 5.2512741
-101.10403 42.592728 4.5755258
-101.09159 42.612843 3.8998637
-101.0652 42.595009 3.5613625
-101.06052 42.607174 3.2241576
-101.04241 42.600742 2.8867404
-101.04015 42.616238 2.5496306
-101.04201 42.637459 2.2122548
-101.13 42.243927 5.2416644
-101.01579 42.272751 1.8829653
-101.16982 41.424095 17.834925
-101.15755 41.845177 9.9700365
-101.14959 41.891407 8.9436989
-101.12518 42.064629 5.2314868
-101.15845 41.676395 9.9449806
-101.13834 41.70639 8.9181938
-101.12964 40.88982 17.298162
-101.13355 40.687286 17.99861
-101.14339 40.741753 17.260601
-101.13119 40.557915 17.199213
-101.18235 38.484222 17.064434
-101.17162 38.510536 16.344542
-101.23891 38.409039 16.702393
-101.27648 38.475311 16.369741
-101.26499 38.480892 16.008947
-101.25134 38.483669 15.649254
-101.22962 38.476315 15.287372
-101.21168 38.473495 14.930066
-101.92292 18.129166 16.859346
-101.90364 18.129612 16.544735
-101.9338 17.981569 18.415106
-102.00406 18.034386 18.144341
-101.96523 18.047792 17.183411
-102.02599 17.940546 18.470366
-102.01022 18.165663 12.308105
-101.99281 18.176004 11.761396
-101.993 18.186295 11.494016
-101.9828 18.190435 11.224201
-101.95393 18.183546 10.949251
-101.9558 18.194645 10.687046
-101.93074 18.189861 10.416945
-101.92834 18.198351 10.156075
-101.90725 18.195778 9.890502
-101.89234 18.196787 9.6284218
-102.00166 18.183903 9.1472692
-101.98916 18.186235 8.8886633
-101.99171 18.20698 8.3820753
-101.96474 18.200661 8.1232061
-101.96106 18.208019 7.8711534
-101.94697 18.209204 7.6176538
-101.93938 18.214186 7.3665709
-101.92136 18.212978 7.1142545
-101.94387 18.23568 6.8707085
-101.905 18.222076 6.6162434
-101.90672 18.232445 6.3700724
-101.99454 18.205061 5.8891397
-101.97651 18.213039 5.3959455
-101.9861 18.227987 5.1524377
-101.96814 18.226643 4.9060988
-101.97404 18.239389 4.6627846
-101.95238 18.235806 4.4171982
-101.93744 18.236183 4.1728158
-101.92066 18.235451 3.9288137
-101.91064 18.238707 3.6857057
-101.93315 18.261265 3.4444711
-101.91089 18.25724 3.2012002
-101.8954 18.257219 2.9586179
-101.87809 18.256107 2.7163353
-102.0168 17.537012 18.73518
-101.98846 18.16357 1.7454995
-101.9104 18.126637 1.5051641
-101.8994 18.129301 1.2632648
-101.98938 18.085495 1.2599643
-101.91628 18.051609 1.020699
-101.91148 17.952414 1.0232587
-101.9178 17.764185 1.0209434
-102.05923 17.100266 18.689306
-101.90866 17.471607 1.0053079
-101.97176 17.412226 0.99871951
-102.05089 16.709044 18.929493
-102.01973 17.352903 0.75155431
-102.02527 16.60095 18.895294
-102.01358 16.499962 18.873804
-101.99991 16.398172 18.854532
-101.9928 16.300203 18.841957
-101.98992 16.2068 18.838848
-101.9927 16.116131 18.843515
-101.99803 15.823179 19.163008
-102.11095 15.282074 19.099846
-102.08163 15.176349 19.064398
-102.07326 15.084182 19.045862
-102.0479 14.984072 19.018581
-102.18136 13.961351 22.786123
-102.17593 13.755264 22.74029
-102.0621 13.848294 18.572989
-102.17285 13.650848 22.717924
-102.0644 13.747698 18.558447
-102.18999 13.559236 22.713985
-102.08096 13.656743 18.554539
-102.16278 13.449485 22.67292
-102.08122 13.559768 18.539406
-102.17198 13.35552 22.662243
-102.1049 13.473018 18.539976
-102.12147 13.222547 22.973919
-102.19317 13.267263 22.667162
-102.10306 13.375196 18.528517
-102.11691 13.125949 22.963623
-102.11366 13.28513 18.530451
-102.13279 13.844189 3.3384879
-102.18945 13.078444 22.654428
-102.11483 13.192942 18.528721
-102.08183 13.725898 3.3392308
-102.13125 13.757234 3.1051958
-102.11226 12.939381 22.950815
-102.1768 12.980343 22.638382
-102.10917 13.097382 18.520433
-102.14921 13.661415 3.3435843
-102.13515 13.663445 3.1069343
-102.18572 12.891151 22.6401
-102.11868 13.008342 18.522144
-102.14907 13.659993 0.74543726
-102.16594 12.788789 22.617191
-102.113 12.911907 18.513054
-102.17647 12.698324 22.616108
-102.10703 12.814884 18.501717
-102.16318 13.427566 2.1655385
-102.15997 13.451578 1.4570273
-102.15817 13.459261 1.2205958
-102.15449 13.466094 0.98407209
-102.12165 13.459674 0.74918824
-102.12837 12.592874 22.604652
-102.18674 13.122963 8.6430302
-102.17017 13.133457 8.1453028
-102.17223 13.152041 7.6557183
-102.17474 13.161943 7.4123883
-102.17525 13.170939 7.1693544
-102.16129 13.182214 6.6826544
-102.15585 13.188491 6.4407134
-102.16653 13.201905 6.202002
-102.16624 13.210427 5.9619975
-102.15493 13.214035 5.7209783
-102.1689 13.228869 5.4838958
-102.13557 13.222618 5.2413359
-102.16387 13.243823 5.0065565
-102.14484 13.243906 4.7668576
-102.15119 13.255297 4.530129
-102.13743 13.257695 4.2919364
-102.13998 13.267373 4.0554085
-102.12242 13.26804 3.8178005
-102.13031 13.280092 3.5820189
-102.14543 13.295391 3.3465254
-102.12221 13.293483 3.1095834
-102.11533 13.298903 2.8735259
-102.1157 13.307571 2.6377237
-102.13243 13.323602 2.4019699
-102.1108 13.322377 2.1660602
-102.10554 13.328511 1.9302349
-102.11662 13.342019 1.6939889
-102.08026 13.334132 1.4589989
-102.1058 13.354177 1.221804
-102.10211 13.361043 0.98545218
-102.09654 13.367062 0.74902636
-102.18908 12.537766 22.293648
-102.18134 12.681152 18.258039
-102.1831 12.71571 17.32971
-102.18674 13.042263 8.3929405
-102.17739 13.047124 8.1441851
-102.17494 13.054974 7.8980341
-102.17294 13.071853 7.4088922
-102.1554 13.072975 7.162231
-102.14486 13.077136 6.917913
-102.15037 13.088346 6.6772985
-102.13584 13.090693 6.433845
-102.12838 13.096129 6.1923637
-102.1552 13.116697 5.9566312
-102.11664 13.108339 5.7118564
-102.12148 13.119151 5.4738607
-102.1244 13.129103 5.23597
-102.13451 13.142229 4.9991951
-102.13361 13.150469 4.7614832
-102.12171 13.153805 4.5231128
-102.09878 13.152221 4.2843642
-102.10128 13.161927 4.0480933
-102.11102 13.174848 3.8124211
-102.10976 13.182866 3.5761638
-102.11573 13.194108 3.3403668
-102.10157 13.196364 3.1038992
-102.10378 13.205921 2.8681369
-102.10412 13.214638 2.6323314
-102.10257 13.222515 2.3965011
-102.09914 13.229551 2.1606636
-102.10296 13.239834 1.9246968
-102.09577 13.245189 1.6888119
-102.05935 13.237428 1.4539173
-102.07576 13.253371 1.2172004
-102.09026 13.268479 0.98004347
-102.18497 12.433876 22.267958
-102.18238 12.58071 18.240097
-102.16754 12.608551 17.302481
-102.16835 13.025678 5.9489961
-102.1708 13.044312 5.4708905
-102.15645 13.055477 4.9925628
-102.15549 13.063777 4.7547665
-102.15262 13.071221 4.5171304
-102.17522 13.089903 4.2818604
-102.14117 13.083549 4.0424142
-102.13261 13.088434 3.8053708
-102.13127 13.096512 3.5690286
-102.12804 13.103746 3.3327644
-102.10466 13.102034 3.0960093
-102.1068 13.111633 2.8603354
-102.10706 13.120398 2.624619
-102.09631 13.124264 2.3888464
-102.10194 13.135419 2.1531308
-102.08743 13.137608 1.9175376
-102.0893 13.147094 1.6816883
-102.07103 13.147603 1.4463462
-102.08739 13.163563 1.2096267
-102.16339 12.475692 18.215637
-102.18291 12.506816 17.606464
-102.18017 12.516976 17.298424
-102.16963 13.01903 3.5664513
-102.17553 13.030347 3.3303065
-102.17039 13.036799 3.0937917
-102.17251 13.04645 2.8575957
-102.1636 13.051227 2.6212397
-102.1528 13.055164 2.3850338
-102.16755 13.070399 2.1488259
-102.15298 13.072666 1.9127126
-102.13653 13.074095 1.6768035
-102.12733 13.078735 1.440798
-102.1499 12.376014 18.198816
-102.15833 12.413695 17.277411
-102.15546 12.139329 22.216963
-102.16517 12.290887 18.206276
-102.14165 12.315173 17.265152
-102.15327 12.046372 22.214556
-102.15548 12.194339 18.199638
-102.14808 12.225203 17.268711
-102.1445 11.950352 22.205378
-102.14648 12.097826 18.192204
-102.15799 12.125194 17.578989
-102.12286 12.121976 17.25198
-102.14408 11.858094 22.200874
-102.13818 12.002006 18.183466
-102.13665 11.909451 18.180176
-102.13576 11.815291 18.176958
-102.22414 11.187407 21.554258
-102.26895 11.21713 21.239405
-102.23382 11.216187 20.86813
-102.25638 11.237146 20.543884
-102.22901 11.238854 20.187237
-102.22905 11.25091 19.85434
-102.25301 11.11541 21.584902
-102.26447 11.283226 17.03887
-102.23373 11.026981 21.582323
-102.24617 11.19374 17.038342
-102.22429 10.941023 21.583179
-102.23775 11.107283 17.040224
-102.22694 10.856167 21.585192
-102.23265 11.019926 17.037445
-102.22272 10.768718 21.57934
-102.22787 10.932936 17.03265
-102.23084 10.689612 21.587803
-102.21265 10.845159 17.025642
-102.21542 11.099932 9.9099007
-102.22008 10.610055 21.587158
-102.25494 11.018986 10.434855
-102.20646 10.531839 21.588341
-102.19022 10.685855 17.028198
-102.19209 10.454309 21.590609
-102.1925 10.383862 21.604845
-102.24628 10.808012 9.9494019
-102.21651 10.511933 16.183037
-102.18357 10.509874 15.871861
-102.19102 10.69842 10.449651
-102.23573 10.723907 10.209517
-102.22443 10.728333 9.9526958
-102.19985 10.41762 16.780436
-102.23949 10.442223 16.504173
-102.28259 10.526661 14.501949
-102.18386 10.518515 13.622781
-102.19948 10.551879 12.815434
-102.19586 10.630278 10.460886
-102.2048 10.642233 10.209389
-102.22957 10.660074 9.9637718
-102.24245 10.214695 21.338476
-102.18913 10.461796 13.362102
-102.17994 10.467514 13.08673
-102.17143 10.482381 12.546029
-102.25137 10.520816 12.31182
-102.20338 10.589561 9.71278
-102.18043 10.554847 8.4740133
-102.19977 10.570207 8.2329531
-102.20349 10.646099 3.9321885
-102.19457 10.650462 3.6960177
-102.21175 10.66468 3.4613795
-102.20833 10.671107 3.2257926
-102.20297 10.676802 2.9903097
-102.1957 10.681763 2.7549489
-102.22391 10.700171 2.5200527
-102.24084 10.714319 2.2846224
-102.23976 9.2862053 21.441393
-102.28173 9.2415371 21.473866
-102.33479 9.2708826 21.163988
-102.32221 9.2779846 20.809242
-102.29792 9.280982 20.450516
-102.2934 9.2905207 20.110138
-102.26141 9.2906237 19.754837
-102.3412 9.2005548 21.516577
-102.25991 8.974288 16.878357
-102.24232 8.9786901 16.567736
-102.34514 8.9596624 16.626883
-102.32487 8.9631224 16.316639
-102.30991 8.968256 16.012327
-102.28342 8.9694242 15.704859
-102.28795 8.9808941 15.416341
-102.26399 8.9827185 15.115838
-102.24565 8.9863319 14.820932
-102.25031 8.9975986 14.539681
-102.23495 9.0020504 14.251143
-102.29301 8.9884796 13.723573
-102.296 8.99891 13.449078
-102.29642 9.0084124 13.175344
