# .PCD v0.7 - Point Cloud Data file format
VERSION 0.7
FIELDS x y z
SIZE 4 4 4
TYPE F F F
COUNT 1 1 1
WIDTH 949
HEIGHT 1
VIEWPOINT 0 0 0 1 0 0 0
POINTS 949
DATA ascii
-100.3917 37.143646 18.261974
-100.51174 36.796436 18.175987
-100.45421 36.470379 13.676796
-101.24947 17.942583 17.842039
-101.24868 17.979546 17.15444
-101.24151 17.990952 16.810047
-101.22647 18.012629 16.12854
-101.23161 18.036118 15.799071
-101.21505 18.037451 15.45896
-101.20267 18.042894 15.123791
-101.18803 18.045889 14.789728
-101.18421 18.059793 14.463894
-101.17822 18.071373 14.138905
-101.15031 18.060478 13.804651
-101.13335 18.060627 13.478395
-101.13409 18.078735 13.162887
-101.12948 18.076094 7.6651492
-101.14806 18.111237 7.3768959
-101.13036 18.109207 7.0807905
-101.11773 18.112326 6.7867708
-101.08946 18.09935 6.4905491
-101.08013 18.105749 6.1989884
-101.06209 18.103161 5.9066238
-101.05611 18.112932 5.6170106
-101.04144 18.113724 5.3266392
-101.03193 18.119797 5.0376267
-101.02761 18.131178 4.7497358
-101.01459 18.133581 4.4612403
-101.0137 18.148476 4.1743937
-101.52419 10.058064 18.749018
-101.52884 9.1772175 18.518118
-101.55283 8.9730272 18.477573
-101.53328 8.7413015 18.404457
-101.56589 8.5412731 18.364389
-101.60678 8.343194 18.327871
-101.63979 8.1397734 18.285669
-101.72413 7.5517316 22.693314
-101.68842 7.3225594 22.608461
-101.66918 7.1094832 22.543087
-101.68538 6.9203348 22.518747
-101.66919 6.7155156 22.474379
-101.67547 6.5246387 22.444286
-101.66809 6.3280973 22.398569
-101.71039 6.1588049 22.392778
-101.70055 5.9578938 22.334515
-101.68723 5.751328 22.265509
-101.69021 5.5552683 22.203022
-101.71552 5.3727016 22.155155
-101.51138 5.866333 3.1087234
-101.54102 5.8924766 2.8743896
-101.59167 5.5542426 2.3907876
-101.65832 5.1859045 7.6179481
-101.65448 5.214335 6.8901687
-101.65226 5.2232623 6.64886
-101.64191 5.257937 5.6898727
-101.63902 5.2663832 5.4515247
-101.62546 5.2692389 5.2122469
-101.61916 5.285758 4.7380934
-101.62647 5.2994676 4.5027342
-101.60548 5.2983451 4.2648416
-101.61797 5.3147402 4.0304799
-101.61096 5.3209147 3.7946339
-101.59329 5.3214765 3.5584214
-101.58264 5.3257008 3.3231039
-101.59669 5.3429046 3.0892453
-101.58241 5.345202 2.8541801
-101.59284 5.3605046 2.6200869
-101.58378 5.3655372 2.385488
-101.59943 5.383604 2.1511993
-101.58675 5.3867235 1.9166472
-101.58109 5.3935523 1.6821567
-101.58247 5.4040971 1.447484
-101.55551 5.3996649 1.2135605
-101.57976 5.4223261 0.97776043
-101.56685 5.4253302 0.74321336
-101.54331 5.4226971 0.50931734
-101.79901 4.6326971 18.258732
-101.61406 5.1690845 3.0809381
-101.5991 5.2003298 2.1441736
-101.60413 5.2127042 1.910077
-101.58074 5.2102737 1.6761787
-101.57328 5.2161374 1.4422359
-101.58173 5.2303081 1.2077435
-101.57063 5.2342849 0.97372967
-101.55773 5.2373157 0.73979431
-101.53417 5.2347703 0.50651276
-99.698891 55.607372 18.008543
-99.696419 55.640022 17.546129
-99.781685 55.061302 18.82707
-99.5149 55.482796 3.3351386
-99.587639 55.480225 2.4761631
-99.570213 55.475338 2.0466864
-99.523254 55.402882 1.6185602
-100.25463 43.561779 19.002951
-100.23357 43.225384 18.895369
-100.28542 42.729675 18.769089
-100.21692 41.696491 18.854805
-100.24768 41.44614 18.785181
-100.2947 41.220524 18.722313
-100.3336 40.986958 18.658604
-100.31817 39.761154 18.648445
-100.44164 38.558968 17.879368
-100.20951 39.23571 2.3278387
-100.19808 39.239101 2.003516
-100.41469 38.213253 18.134882
-100.42141 38.24847 17.77388
-100.39666 37.90361 18.024651
-100.40804 37.945713 17.669586
-100.39254 37.945957 17.296104
-100.3715 37.586071 17.912102
-100.38255 37.627262 17.559198
-100.42203 37.712177 17.229397
-100.45795 37.491875 17.17725
-100.4324 37.705753 13.341718
-100.30215 37.701481 10.29868
-100.42846 37.401161 13.62523
-100.41817 37.407478 13.282758
-100.40822 37.095001 13.562409
-100.37679 37.068783 13.210445
-100.37783 36.772896 13.490983
-100.37251 36.786137 13.15555
-101.17642 18.179579 12.545622
-101.1666 18.183271 12.288509
-101.16222 18.191006 12.035834
-101.16337 18.202858 11.787376
-101.14015 18.196163 11.529302
-101.13747 18.204966 11.282298
-101.11784 18.20084 11.029457
-101.11139 18.206642 10.78392
-101.09551 18.205214 10.535995
-101.07776 18.202284 10.288945
-101.05718 18.228378 9.3338356
-101.11485 18.230509 5.8983822
-101.10201 18.230635 5.6726522
-101.11912 18.253643 5.4521632
-101.10313 18.251322 5.2269893
-101.07767 18.241714 5.0012665
-101.08224 18.255081 4.7799711
-101.06946 18.255138 4.5569625
-101.07095 18.266121 4.3358421
-101.063 18.269844 4.114069
-101.03767 18.260208 3.8913293
-101.03455 18.267618 3.6706865
-101.022 18.267754 3.449703
-101.01583 18.272795 3.2293184
-101.00814 18.276657 3.0090444
-100.98309 18.267132 2.7885861
-100.98028 18.274736 2.5688274
-101.2731 17.573351 18.88765
-100.99902 18.137917 1.6867892
-100.97268 18.127613 1.4680487
-100.97654 18.140463 1.2479045
-101.07961 17.477467 1.0555761
-101.08139 17.303925 0.85352534
-101.38346 14.859109 19.049809
-101.36193 14.678561 19.00074
-101.32635 14.47831 19.2463
-101.35356 14.508084 18.962202
-101.35201 14.342386 18.928967
-101.34228 14.171695 18.890324
-101.35265 14.015025 18.86833
-101.34113 13.847669 18.828611
-101.34776 13.69603 18.806116
-101.41724 13.571788 19.141012
-101.35176 13.546549 18.784655
-101.34245 13.377184 19.057495
-101.35482 13.397067 18.764515
-101.37212 13.253756 18.755724
-101.4696 13.129929 19.417496
-101.39808 13.114951 18.749777
-101.41333 12.944583 19.337503
-101.41239 12.969495 18.728292
-101.51717 12.697323 23.038837
-101.44607 12.835785 18.724983
-101.43497 12.67554 18.690701
-101.51961 12.389839 22.98163
-101.45821 12.534725 18.68722
-101.51556 12.235171 22.94994
-101.45158 12.379007 18.660032
-101.51677 12.086993 22.924225
-101.51556 11.93964 22.900513
-101.51012 11.789521 22.881084
-101.50746 11.964974 18.652924
-101.50942 11.641113 22.870481
-101.4892 11.482616 22.839565
-101.50013 11.328519 23.197357
-101.5137 11.350291 22.854233
-101.51875 11.529546 18.639025
-101.50964 11.206529 22.842749
-101.51488 11.385042 18.630241
-101.50391 11.062639 22.833149
-101.517 11.2442 18.629026
-101.51068 10.924009 22.837097
-101.55489 10.960288 22.52821
-101.52537 11.105997 18.633907
-101.49731 10.777213 22.81992
-101.56201 10.823226 22.530857
-101.51164 10.958332 18.620337
-101.49813 10.642066 22.813007
-101.57665 10.694366 22.537125
-101.51315 10.822175 18.615202
-101.55671 10.553871 22.50754
-101.50665 10.686458 18.601084
-101.55153 10.420259 22.489273
-101.59293 10.453844 22.181597
-101.50836 10.554612 18.590942
-101.55058 10.282866 22.468784
-101.59194 10.316205 22.161304
-101.52094 10.423303 18.584307
-101.55311 10.450536 18.312443
-101.5546 10.144205 22.442316
-101.58198 10.170871 22.122128
-101.59898 10.192535 21.796453
-101.52986 10.287532 18.566027
-101.55542 10.004096 22.404305
-101.56168 10.020932 22.065033
-101.58524 10.04558 21.746197
-101.56555 10.063412 21.061466
-101.57154 10.07939 20.739962
-101.54442 10.092639 20.076485
-101.53425 10.149725 18.53702
-101.57365 10.180141 18.271097
-101.54703 10.202658 17.384069
-101.54184 9.8597956 22.353111
-101.56855 9.8859701 22.033556
-101.58487 9.907218 21.708532
-101.60477 9.9299402 21.390896
-101.60711 9.9444332 21.061777
-101.57733 9.9439631 20.709284
-101.57859 9.9704647 20.07036
-101.53816 10.013712 18.507832
-101.56237 10.036914 18.23089
-101.57631 10.055224 17.949087
-101.56304 10.083737 17.082344
-101.54364 9.7267284 22.324772
-101.56321 9.7495251 21.998964
-101.58631 9.7737522 21.680569
-101.60603 9.7962828 21.363127
-101.59394 9.8041611 21.021738
-101.58529 9.8134146 20.688097
-101.58623 9.8397207 20.049446
-101.56154 9.9022074 18.205221
-101.57531 9.9203596 17.923628
-101.57108 9.9300747 17.631973
-101.3164 10.335837 4.4909544
-101.54187 9.5925856 22.300234
-101.54734 9.6089354 21.96175
-101.57725 9.6360922 21.650051
-101.58263 9.6520452 21.320271
-101.59158 9.6694345 20.997992
-101.56841 9.6721296 20.652229
-101.59064 9.7080135 20.032345
-101.51047 10.025963 11.192948
-101.58853 9.5074968 21.640053
-101.5655 9.5107355 21.285139
-101.55994 9.5215759 20.950735
-101.57253 9.5661564 19.998585
-101.52803 9.8039732 13.581919
-101.52956 9.8146648 13.335485
-101.52059 9.8204203 13.085642
-101.51759 9.8288584 12.840809
-101.52068 9.8400412 12.60077
-101.51128 9.8927708 11.182304
-101.48374 9.9258242 10.034019
-101.48878 9.9640093 9.1480169
-101.48538 9.9712563 8.9276991
-101.45295 10.076142 5.9398246
-101.42957 10.090094 5.3140349
-101.58357 9.3752918 21.616951
-101.58166 9.3879118 21.281137
-101.58324 9.4018936 20.952963
-101.58128 9.4141283 20.626102
-101.58871 9.4431267 19.994574
-101.49405 9.5086861 17.242712
-101.50215 9.6100807 14.820395
-101.52324 9.6300373 14.575226
-101.54208 9.6488972 14.330522
-101.53426 9.6555243 14.072898
-101.52401 9.6609478 13.816259
-101.51955 9.6689253 13.564944
-101.53746 9.6870623 13.327214
-101.5119 9.685216 13.06914
-101.52541 9.70119 12.832696
-101.52847 9.7123098 12.592735
-101.51265 9.7146845 12.345607
-101.51974 9.7275133 12.110993
-101.51633 9.7354479 11.873175
-101.51079 9.7423353 11.63609
-101.52009 9.7560015 11.406948
-101.51889 9.7647686 11.174749
-101.51566 9.7725344 10.943189
-101.50312 9.7850809 10.482074
-101.50244 9.7938566 10.255744
-101.50389 9.8125639 9.8078003
-101.48008 9.810441 9.5772619
-101.49772 9.8275385 9.361928
-101.48744 9.8316059 9.1384344
-101.49272 9.8428774 8.9209661
-101.48744 9.849185 8.7012434
-101.47031 9.901535 7.1951623
-101.46841 9.9091396 6.9833713
-101.46133 9.931138 6.351748
-101.4007 9.9442415 5.3038273
-101.34006 9.9894657 3.4562933
-101.50654 9.3397474 18.393633
-101.52339 9.3821077 17.535532
-101.49245 9.3796635 17.230021
-101.53699 9.4329567 16.426754
-101.51622 9.4874907 14.818444
-101.52121 9.5000381 14.564023
-101.54815 9.5224218 14.324017
-101.52401 9.521637 14.057533
-101.51367 9.5269938 13.801127
-101.52557 9.5423374 13.558672
-101.5105 9.5453796 13.304083
-101.51789 9.5585318 13.063024
-101.51479 9.5668421 12.818505
-101.52613 9.5816555 12.582778
-101.51026 9.5840054 12.33581
-101.52573 9.6005688 12.105188
-101.51388 9.6046076 11.863696
-101.52522 9.6191721 11.634118
-101.52607 9.6288862 11.401381
-101.51636 9.6337032 11.165753
-101.51309 9.6414089 10.934356
-101.49924 9.6441965 10.700274
-101.50049 9.6538572 10.473567
-101.49117 9.6586084 10.24422
-101.50119 9.6811361 9.7997866
-101.47733 9.6790266 9.569416
-101.48627 9.6919851 9.3513956
-101.49339 9.7215443 8.6966581
-101.48627 9.726923 8.4775515
-101.4685 9.7273283 8.256568
-101.47533 9.7390909 8.0433531
-101.4804 9.7500124 7.8303885
-101.47645 9.7652159 7.4031887
-101.4744 9.7811794 6.9794564
-101.47078 9.7879124 6.7680869
-101.45652 9.7896528 6.555325
-101.44965 9.8031425 6.1361709
-101.36175 9.7950821 5.2944541
-101.35031 9.8713331 3.2506366
-101.51094 9.2134724 18.389256
-101.52708 9.232275 18.107908
-101.54037 9.2497149 17.827387
-101.53554 9.2590199 17.536823
-101.48919 9.2498302 17.220551
-101.52473 9.2767496 16.964596
-101.55006 9.2990541 16.703781
-101.53372 9.3027725 16.417727
-101.53812 9.3155766 16.148243
-101.52405 9.3200645 15.869653
-101.52892 9.3641882 14.819725
-101.50968 9.3658314 14.55143
-101.52848 9.3844051 14.30711
-101.52055 9.3909216 14.049873
-101.52657 9.4036112 13.802405
-101.51385 9.4077988 13.547011
-101.51524 9.4182463 13.301126
-101.50607 9.4238644 13.051835
-101.50292 9.4321098 12.807555
-101.50589 9.4430418 12.56807
-101.50669 9.4529295 12.329252
-101.51376 9.4655819 12.094957
-101.50185 9.4695892 11.853704
-101.51318 9.4840469 11.62437
-101.49699 9.4859791 11.384692
-101.51276 9.5023394 11.160001
-101.49238 9.5022335 10.921909
-101.48702 9.5088863 10.691501
-101.51406 9.5302267 10.474833
-101.48752 9.5271263 10.239121
-101.51079 9.54667 10.02306
-101.49756 9.5495253 9.7950182
-101.48235 9.5514193 9.5677452
-101.48261 9.5603304 9.3469591
-101.481 9.5683413 9.1266479
-101.48629 9.5794697 8.9095135
-101.48099 9.5857058 8.6901255
-101.49142 9.5991259 8.4762974
-101.47366 9.5995598 8.2553959
-101.48936 9.6153297 8.04461
-101.47678 9.6180716 7.827127
-101.47127 9.6240177 7.6124244
-101.47285 9.6332064 7.4002662
-101.45491 9.633357 7.1844029
-101.45296 9.6575556 6.5530834
-101.52789 9.1062412 18.10623
-101.53364 9.1202497 17.820257
-101.52112 9.1261377 17.524384
-101.54904 9.1607609 16.979126
-101.55117 9.1727133 16.702469
-101.53487 9.1764402 16.416487
-101.55508 9.1961308 16.157244
-101.52528 9.193675 15.868559
-101.51422 9.2304602 14.809527
-101.51925 9.2428713 14.555337
-101.5056 9.2469015 14.292826
-101.52213 9.2642479 14.049311
-101.50359 9.2659187 13.788744
-101.50727 9.2773952 13.542289
-101.50868 9.2877808 13.296559
-101.49952 9.2933722 13.047425
-101.51305 9.3090229 12.811456
-101.491 9.3086948 12.559981
-101.50019 9.3222685 12.325318
-101.51572 9.3386211 12.095021
-101.5123 9.3464241 11.857602
-101.49826 9.3493929 11.617245
-101.50759 9.3627911 11.388588
-101.49784 9.3675528 11.153363
-101.49456 9.3751631 10.922373
-101.49783 9.3856716 10.695393
-101.49052 9.3913517 10.465666
-101.4812 9.3960667 10.236645
-101.48721 9.4076529 10.014552
-101.47394 9.4104757 9.7868395
-101.47611 9.4202347 9.5657644
-101.48513 9.4330568 9.3479958
-101.46607 9.4330997 9.1222334
-101.48892 9.4521217 8.9107161
-101.48366 9.4583435 8.691412
-101.48536 9.4676905 8.4751539
-101.4676 9.4681406 8.2544184
-101.45682 9.4717216 8.036767
-101.47967 9.4906025 7.8287473
-101.4742 9.4965391 7.6141286
-101.47584 9.5056934 7.4020548
-101.44011 9.4977236 7.1822643
-101.45607 9.5133648 6.9749932
-101.51202 8.9748735 18.094336
-101.52539 8.9920778 17.814108
-101.51289 8.9979277 17.518375
-101.49733 9.0023117 17.223978
-101.59436 9.0881205 16.182486
-101.58065 9.0927496 15.903511
-101.56416 9.0960426 15.625773
-101.52889 9.0909872 15.339589
-101.51485 9.0951214 15.069356
-101.54665 9.1192827 14.82853
-101.56001 9.1352768 14.578735
-101.55473 9.1429873 14.32046
-101.53062 9.1423063 14.054197
-101.54503 9.158514 13.811202
-101.53245 9.162734 13.555801
-101.52573 9.1694584 13.305677
-101.53333 9.1824312 13.064776
-101.51367 9.1832676 12.812258
-101.51679 9.1941137 12.572852
-101.50933 9.2001963 12.330194
-101.50809 9.208971 12.092222
-101.52164 9.2242584 11.862478
-101.51617 9.2310286 11.625793
-101.47449 9.2215881 11.375485
-101.49888 9.2415361 11.154719
-101.48708 9.2452841 10.920377
-101.4818 9.2518797 10.690211
-101.48312 9.2613735 10.463996
-101.48248 9.2699366 10.238322
-101.47987 9.2775745 10.01321
-101.48402 9.2881927 9.7916985
-101.48629 9.2979183 9.5706234
-101.49541 9.3106861 9.3528547
-101.47641 9.3107643 9.1270876
-101.47302 9.3178196 8.9075203
-101.46778 9.3239956 8.6884661
-101.47833 9.3372564 8.4749765
-101.46944 9.3417063 8.2568369
-101.46757 9.3492889 8.0416155
-101.47278 9.3600416 7.8290744
-101.45846 9.3619232 7.6124463
-101.46014 9.3710155 7.4006276
-101.45116 9.3752451 7.1871047
-101.44042 9.3786402 6.9740729
-101.44583 9.3893366 6.7652202
-101.44057 9.3951654 6.554801
-101.40031 9.4256163 5.3043766
-101.51809 8.8645592 17.806747
-101.51328 8.8736801 17.516615
-101.53472 9.1311703 11.168925
-101.54024 9.1425772 10.941201
-101.51889 9.1596804 10.251536
-101.52512 9.1712008 10.029278
-101.52074 9.1779556 9.8044128
-101.52314 9.187686 9.583087
-101.50147 9.2037315 8.9165392
-101.48051 9.2112856 8.4761047
-101.4805 9.2196875 8.2604809
-101.4787 9.2272482 8.0452576
-101.45361 9.2491264 7.1887326
-101.43941 9.2591219 6.7651796
-101.36506 9.3059864 4.6872692
-101.40494 9.4590101 1.2285495
-101.51167 8.7369547 17.796528
-101.45123 9.2730761 3.2663748
-101.44638 9.2866659 2.858897
-101.42596 9.2931643 2.4516163
-101.44063 9.307725 2.2480118
-101.41727 9.304986 2.0447049
-101.4196 9.3139381 1.8410382
-101.42031 9.3221569 1.6372408
-101.40121 9.3213444 1.4341681
-101.3896 9.3239422 1.2308372
-101.39452 9.3341036 1.0264082
-101.59724 8.239665 21.56562
-101.70669 7.3485684 20.646748
-101.57005 6.7599125 9.8036547
-101.59105 6.7757344 9.5887842
-101.60053 6.7951174 9.1510983
-101.51269 6.7794604 5.3189979
-101.49586 6.7804193 5.1115108
-101.5052 6.7912583 4.907702
-101.50357 6.7979341 4.7029004
-101.48163 6.7968993 4.4964933
-101.52322 6.8199434 4.2962427
-101.51656 6.8246861 4.0917482
-101.51756 6.8323255 3.8881035
-101.52622 6.842876 3.6850631
-101.5239 6.8492417 3.4814715
-101.53857 6.8620849 3.2787089
-101.54227 6.8707418 3.0754261
-101.68018 5.0920582 15.256938
-101.68354 5.1022973 14.995854
-101.62282 5.1603007 9.2487335
-101.61306 5.1647458 9.0257206
-101.61047 5.1714883 8.8060484
-101.58758 5.1715517 8.581708
-101.58107 5.1769319 8.3632536
-101.57264 5.1816435 8.1453524
-101.57153 5.1887221 7.9303627
-101.51994 5.2493906 2.138921
-101.55327 5.26759 1.9350405
-101.57541 5.2820735 1.7307497
-101.53898 5.276967 1.5280466
-101.5293 5.2808099 1.3246337
-101.53689 5.2904406 1.1202605
-101.50491 5.2868028 0.91805333
-101.78534 4.4952364 19.015787
-99.705109 55.786427 17.431852
-99.699646 55.827614 16.855396
-100.42803 38.498356 18.116327
-100.37833 37.166599 13.649799
-100.47005 36.491688 18.070127
-100.45974 36.776379 13.586214
-100.52497 36.067959 17.966709
-100.53831 35.590668 17.840597
-100.55802 35.128098 17.725615
-100.57343 35.178654 17.28665
-100.5639 35.195137 16.835991
-100.4981 35.449329 11.601486
-100.44488 35.681274 6.9685984
-100.53873 34.618633 17.598183
-100.52549 34.629997 17.147173
-100.5325 34.668465 16.709354
-100.55083 34.750854 15.841057
-100.53931 34.763988 15.399297
-100.50684 34.945511 11.956025
-100.5034 34.968616 11.532372
-100.50356 34.996529 11.111097
-100.47239 34.981762 10.681042
-100.47394 35.011406 10.262629
-100.46748 35.030075 9.8427935
-100.48219 35.077553 9.4296494
-100.46553 35.082211 9.0088902
-100.44669 35.083801 8.5888033
-100.43737 35.098339 8.1720333
-100.43176 35.117889 7.756876
-100.42402 35.13446 7.3419704
-100.41999 35.15609 6.9283957
-100.39624 35.150654 6.5120869
-100.41143 35.198555 6.1025805
-100.40691 35.219406 5.6902304
-100.39439 35.229263 5.277247
-100.363 35.348186 2.8087766
-100.50989 34.101891 17.468817
-100.49615 34.112354 17.021286
-100.51667 33.639561 17.361073
-101.25005 18.053133 18.200163
-101.12946 18.430164 9.4004192
-101.10889 18.43128 9.0647583
-101.11645 18.45532 8.7371731
-101.10651 18.465006 8.4063063
-101.06379 18.447763 8.0694218
-101.05692 18.459829 7.7415609
-101.01721 18.44491 7.4082518
-101.01371 18.414886 1.2802206
-101.49201 11.351336 18.464764
-101.50411 11.040285 18.415838
-101.49035 10.71617 18.352158
-101.4993 10.406051 18.298363
-101.524 10.103226 18.251467
-101.56866 9.812727 18.219261
-101.38284 10.089684 4.0663328
-101.58849 8.0608711 22.392086
-101.69711 7.5278363 21.970341
-101.71504 7.5543652 21.598259
-101.68196 7.209487 21.883579
-101.70713 7.2391906 21.517694
-101.6778 6.8906574 21.795076
-101.68681 6.9128375 21.419832
-101.68598 6.5801859 21.717318
-101.69444 6.6021323 21.342892
-101.6624 6.2811246 21.252687
-101.69026 6.3113322 20.895819
-101.67347 6.3568339 19.781763
-101.64651 6.710341 12.139621
-101.64417 6.7385979 11.526781
-101.63145 6.7618403 10.916709
-101.62606 6.7881455 10.31463
-101.62401 6.8014956 10.015732
-101.66452 5.9994049 20.823631
-101.66138 6.0332947 20.084791
-101.66806 6.0707636 19.365658
-101.62035 6.3370161 13.336464
-101.62656 6.3547025 13.026436
-101.6301 6.3711228 12.71705
-101.61359 6.3785586 12.402153
-101.58562 6.3808031 12.085278
-101.62477 6.4128308 11.793011
-101.60896 6.4203258 11.483624
-101.60805 6.4343839 11.180696
-101.59577 6.4432979 10.875733
-101.59855 6.4588642 10.576779
-101.61649 6.481163 10.283355
-101.57888 6.4785228 9.975626
-101.59188 6.4984961 9.6831522
-101.58469 6.5093622 9.3864393
-101.59286 6.5270686 9.0946789
-101.5897 6.5396419 8.8011465
-101.56626 6.5430245 8.5041275
-101.55826 6.5533018 8.2117939
-101.57475 6.5745869 7.9254785
-101.55302 6.5785756 7.6322751
-101.55584 6.5936165 7.3447943
-101.55634 6.6075711 7.057591
-101.56353 6.6245246 6.7721667
-101.55038 6.632226 6.4841075
-101.56199 6.6511321 6.2004852
-101.54422 6.656662 5.9132261
-101.53318 6.6652145 5.6276641
-101.5289 6.6768141 5.3435616
-101.54951 6.699748 5.0626006
-101.54071 6.7092476 4.7787843
-101.52964 6.7176871 4.4952736
-101.53445 6.7333708 4.2134895
-101.51888 6.739707 3.9304826
-101.53735 6.7616363 3.6499476
-101.53545 6.7742176 3.3682334
-101.54038 6.7899361 3.0869367
-101.54309 6.8046288 2.8055537
-101.54356 6.818294 2.5241058
-101.5418 6.8309317 2.2426143
-101.60876 6.0323725 13.299687
-101.61485 6.0498257 12.990481
-101.60956 6.0622525 12.678746
-101.59283 6.0696135 12.36476
-101.59084 6.0833068 12.057817
-101.59498 6.099596 11.754522
-101.57896 6.1070075 11.446137
-101.56908 6.1170235 11.141458
-101.56542 6.1296887 10.840257
-101.56806 6.1450467 10.54231
-101.5682 6.1592464 10.244888
-101.56584 6.1722913 9.9480171
-101.5699 6.1881003 9.6540556
-101.57152 6.2027841 9.3605242
-101.56177 6.2124066 9.0652838
-101.55851 6.2248368 8.7727728
-101.55283 6.2361498 8.4807653
-101.54475 6.2463484 8.1892862
-101.55225 6.2633967 7.9020023
-101.54842 6.2753849 7.6132159
-101.55123 6.2902861 7.3265066
-101.53367 6.2961025 7.0369482
-101.52277 6.3048363 6.7495136
-101.54574 6.3285956 6.468143
-101.53927 6.3392391 6.1826854
-101.52144 6.3447795 5.896378
-101.51944 6.3573461 5.6129007
-101.51516 6.3688712 5.3296642
-101.52678 6.387485 5.0486083
-101.50887 6.3928704 4.7648745
-101.50689 6.4053602 4.4831915
-101.49355 6.4127398 4.2009649
-101.50528 6.4313526 3.9209232
-101.49656 6.4407716 3.6396832
-101.47648 6.4450655 3.3582258
-101.49972 6.468853 3.078934
-101.47517 6.4711037 2.7978938
-101.47573 6.4846654 2.5178392
-101.47406 6.49722 2.2377415
-101.47927 6.5128889 1.9576236
-101.48299 6.5412192 1.396885
-101.46328 6.5456157 1.1168276
-101.47776 6.5655284 0.83561862
-101.59467 5.7144265 13.576485
-101.57776 5.7512083 12.638426
-101.58496 5.7831926 12.028498
-101.57143 5.7917495 11.720106
-101.5717 5.8203301 11.117141
-101.56798 5.8328652 10.816609
-101.5617 5.8442349 10.516747
-101.55288 5.8544431 10.217581
-101.55044 5.867332 9.9215527
-101.56337 5.8867908 9.6307669
-101.5381 5.8897223 9.3312531
-101.54616 5.9069757 9.041358
-101.54284 5.9192686 8.7496967
-101.5371 5.9304657 8.4585419
-101.53796 5.9444733 8.1698227
-101.54547 5.9613252 7.8833075
-101.53257 5.9692788 7.5935555
-101.53538 5.984014 7.3077035
-101.53586 5.9977026 7.0221314
-101.52495 6.0063949 6.7353849
-101.52077 6.0179868 6.4505277
-101.5052 6.0245686 6.1647139
-101.50549 6.0380468 5.8818803
-101.51261 6.0544858 5.6003981
-101.50835 6.0659261 5.3179398
-101.50182 6.076345 5.0357456
-101.50214 6.0897479 4.7547088
-101.48195 6.0941224 4.4722366
-101.48689 6.1095176 4.1923609
-101.48958 6.123919 3.9124885
-101.4809 6.1332979 3.6321173
-101.46997 6.1416717 3.3519666
-101.46949 6.181004 2.5139267
-101.46791 6.1934862 2.234612
-101.45496 6.2009249 1.9552748
-101.46721 6.2195415 1.6758525
-101.45895 6.2290583 1.3964499
-101.44845 6.2375841 1.1170897
-101.45398 6.2532501 0.83709717
-101.68723 5.3197727 16.495337
-101.67106 5.3287067 16.155445
-101.68561 5.3501878 15.832802
-101.58577 5.4721498 12.312085
-101.52469 5.6811752 7.2949367
-101.48579 5.8100829 4.1888518
-101.6484 5.4074435 7.8860545
-101.63566 5.4155669 7.5966425
-101.61142 5.4188414 7.3061781
-101.61211 5.4324765 7.0212097
-101.61047 5.4451032 6.7365446
-101.59736 5.4528975 6.4508104
-101.58192 5.4596696 6.1655974
-101.57329 5.4692636 5.8821487
-101.56235 5.4778557 5.5990934
-101.55827 5.4893031 5.3175015
-101.53357 5.4920406 5.0342512
-101.54329 5.5092449 4.7551317
-101.53238 5.5177407 4.4743972
-101.5284 5.5291371 4.1946931
-101.52216 5.5395641 3.9151661
-101.51366 5.5490222 3.6358378
-101.49372 5.5536146 3.3562901
-101.49311 5.5794044 2.7997897
-101.47082 5.6089749 1.9652604
-100.43512 38.893925 19.135134
-100.42855 38.735664 19.092737
-100.44111 38.430134 19.002838
-100.45009 38.276985 18.954395
-100.45837 38.122402 18.909172
-100.47107 37.974567 18.869688
-100.38535 37.523029 19.078634
-100.42845 36.786156 18.893536
-100.43868 36.648575 18.860552
-100.47471 36.557796 18.843645
-100.40761 36.784264 14.269904
-100.46942 36.877365 13.972085
-100.3717 36.587345 14.20867
-100.4284 36.257072 18.650642
-100.43077 36.507008 14.201002
-100.46037 36.14901 18.631849
-100.47192 36.020721 18.60309
-100.51822 35.93417 18.599247
-100.5332 35.804333 18.567377
-100.55089 35.670708 18.537558
-100.56804 35.535465 18.510109
-100.57632 35.395199 18.479156
-100.58203 35.25573 18.450174
-100.58971 34.976086 18.397024
-100.59779 34.843647 18.375877
-100.58453 34.557129 18.314747
-100.56214 34.658855 15.914099
-100.58243 34.422241 18.287731
-100.59834 34.494564 17.263187
-100.56892 34.273537 18.251623
-100.60857 34.33601 17.932659
-100.55 34.358356 16.195713
-100.58945 34.157379 18.232939
-100.60499 34.192608 17.897465
-100.60015 34.204964 17.55011
-100.58948 34.015278 18.190777
-100.60485 34.050194 17.856009
-100.59981 34.062275 17.509365
-100.53259 33.789917 18.447697
-100.56789 33.846928 18.126556
-100.60114 33.9016 17.805481
-100.57751 33.893112 17.447195
-100.57863 33.711384 18.081663
-100.58732 33.73888 17.744318
-100.58158 33.75032 17.39942
-100.54031 33.505348 18.351665
-100.57517 33.561687 18.031914
-100.58358 33.588882 17.695354
-100.54078 33.559654 17.326408
-100.54591 33.369076 18.314192
-100.56235 33.40514 17.98217
-100.53346 33.409313 17.282551
-100.57148 33.274635 17.953375
-100.56112 33.281288 17.605581
-100.53611 33.271812 17.250725
-100.54337 33.124763 17.562138
-100.53662 33.135132 17.220572
-100.51051 32.783951 10.199945
-100.48811 32.506596 9.8592033
-100.71248 26.297985 6.6913733
-100.77184 26.361265 6.4419603
-100.72622 26.183935 6.949357
-100.75745 26.222641 6.6948485
-100.75704 26.233992 6.4343171
-100.78748 26.134153 6.6952844
-101.18517 18.134138 17.709885
-101.17458 18.13962 17.39679
-101.19767 18.176678 16.807707
-101.17873 18.176849 16.498034
-101.1646 18.179773 16.194338
-101.15539 18.185532 15.896423
-101.14352 18.189596 15.599653
-101.14445 18.201235 15.312775
-101.25614 18.061033 18.361914
-101.20463 18.198967 13.924503
-101.19106 18.201353 13.642707
-101.19093 18.211725 13.369575
-101.1726 18.21109 13.089778
-101.16785 18.218533 12.818377
-101.16884 18.229359 12.551358
-101.15959 18.233957 12.281552
-101.13198 18.227428 12.005838
-101.15054 18.248644 11.751215
-101.12654 18.244146 11.480724
-101.10029 18.238216 11.21135
-101.09625 18.245626 10.952307
-101.08192 18.256496 10.436254
-101.15916 18.235388 9.6910219
-101.14288 18.235136 9.4354258
-101.12917 18.245859 8.9338417
-101.12353 18.251886 8.6850863
-101.11594 18.256699 8.4368639
-101.11478 18.265362 8.19133
-101.09498 18.262695 7.9421029
-101.09 18.268972 7.6975694
-101.05795 18.258783 7.4478478
-101.05759 18.26779 7.2062736
-101.0638 18.280766 6.9667196
-101.04291 18.277233 6.7224665
-101.05391 18.293072 6.4850464
-101.02931 18.287222 6.2418628
-101.01132 18.285357 6.0007768
-101.00844 18.292667 5.7628241
-101.09638 18.2679 5.2924213
-101.11364 18.287483 5.0575547
-101.09512 18.285299 4.8187742
-101.08331 18.287178 4.581337
-101.08676 18.298328 4.3457532
-101.07993 18.303207 4.1095238
-101.06282 18.301798 3.8729267
-101.05246 18.304495 3.6372249
-101.04034 18.306107 3.4017708
-101.035 18.311846 3.1668997
-101.01086 18.306076 2.9316781
-101.00202 18.309658 2.6972177
-100.98292 18.306944 2.4628475
-100.97912 18.313601 2.2287509
-101.25975 17.756058 18.610353
-101.01824 18.171881 1.5195466
-101.00741 18.174335 1.2854124
-101.01189 18.186119 1.0504167
-101.55553 10.375342 18.788626
-101.55746 10.304277 18.801878
-101.56691 10.237575 18.820744
-101.55853 10.167236 18.829329
-101.55028 10.098218 18.837503
-101.53429 10.027569 18.839825
-101.57967 9.9806147 18.886497
-101.57734 9.9172096 18.901346
-101.60852 9.5050907 18.63859
-101.53559 8.9956179 18.935984
-101.5349 8.9335213 18.930235
-101.57171 8.9564953 18.638058
-101.5351 8.8718672 18.922119
-101.58118 8.8377972 18.624891
-101.59608 8.7859516 18.627726
-101.59888 8.7327747 18.629524
-101.58385 8.6752338 18.623322
-101.59367 8.6257267 18.632246
-101.5777 8.5690212 18.626276
-101.57425 8.5202026 18.635302
-101.56803 8.4736395 18.647717
-101.56294 8.4264431 18.657639
-101.54536 8.3716955 18.653288
-101.55403 8.3227081 18.66296
-101.54294 8.173234 18.672503
-101.62976 8.0334415 19.090015
-101.64032 7.858295 18.564367
-101.57747 7.7995434 18.565025
-101.70604 7.6643987 22.790901
-101.69965 7.6274514 22.797657
-101.70955 7.5926294 22.816755
-101.70448 7.5532594 22.823555
-101.69967 7.5164371 22.828278
-101.70688 7.4823365 22.834095
-101.69566 7.4383492 22.817675
-101.71251 7.4023347 22.828253
-101.70375 7.3600903 22.824326
-101.71763 7.327014 22.838224
-101.6927 7.2837811 22.82155
-101.7035 7.2536163 22.837936
-101.69708 7.2181559 22.845093
-101.67658 7.1761527 22.838779
-101.68981 7.1414542 22.853973
-101.68987 7.1014967 22.854912
-101.66637 7.0553665 22.837513
-101.70775 7.0336165 22.878239
-101.67672 6.993175 22.868647
-101.68124 6.9653616 22.891224
-101.70285 6.9425554 22.924156
-101.74856 6.968359 22.59211
-101.65112 6.8965511 22.893209
-101.67992 6.8782082 22.931187
-101.67516 6.8513646 22.948856
-101.69997 6.8362484 22.991035
-101.74629 6.8621883 22.658384
-101.71651 6.8211055 23.026173
-101.73266 6.8375893 22.669104
-101.72721 6.8163719 22.685349
-101.70036 6.7873869 22.682123
-101.69657 6.7650938 22.69623
-101.70876 6.7487473 22.721676
-101.69013 6.7230344 22.72353
-101.69328 6.7034526 22.744436
-101.69077 6.681273 22.757687
-101.68741 6.6534061 22.757868
-101.70423 6.6270881 22.764626
-101.69064 6.5902567 22.748106
-101.71706 6.5703073 22.77409
