# .PCD v0.7 - Point Cloud Data file format
VERSION 0.7
FIELDS x y z
SIZE 4 4 4
TYPE F F F
COUNT 1 1 1
WIDTH 947
HEIGHT 1
VIEWPOINT 0 0 0 1 0 0 0
POINTS 947
DATA ascii
-99.397186 18.243073 18.228502
-98.765854 18.370434 18.767822
-99.249382 18.239002 18.420454
-99.253723 18.256357 18.132177
-99.255615 18.27158 17.844873
-99.242058 18.274078 17.547709
-99.199776 18.253006 17.230436
-99.279671 18.331381 17.015572
-99.258881 18.327547 16.721703
-99.248878 18.332363 16.439547
-99.208405 18.324835 15.868819
-99.204803 18.334471 15.600261
-99.192253 18.336649 15.327836
-99.191063 18.348028 15.066081
-99.18779 18.357576 14.805201
-99.456139 18.246944 17.957209
-99.423706 18.234335 17.642214
-99.401627 18.229898 17.339705
-99.449554 18.281868 17.096844
-99.442535 18.289324 16.812212
-99.433121 18.294703 16.528713
-99.393738 18.288368 15.955281
-99.383957 18.293028 15.680448
-99.371918 18.295723 15.406729
-99.357628 18.296463 15.134155
-99.36853 18.31757 14.881483
-99.343033 18.308947 14.606382
-99.329109 18.309612 14.341726
-99.313049 18.308428 14.078181
-99.294884 18.305403 13.815777
-99.295601 18.317692 13.567415
-99.294403 18.32832 13.319778
-99.277191 18.325762 13.064625
-99.25798 18.321459 12.810564
-99.250977 18.327055 12.565571
-99.242096 18.331022 12.321403
-99.217056 18.321644 12.070458
-99.211578 18.328226 11.831909
-99.10524 18.368147 9.0689917
-99.092728 18.378242 8.6288662
-99.096397 18.401587 8.198103
-98.816803 18.46768 1.7560629
-98.830009 18.488424 1.5522336
-98.811371 18.482166 1.349738
-98.791389 18.474764 1.1474961
-99.466667 18.307663 12.897827
-99.460289 18.313753 12.651153
-99.441849 18.321058 12.160287
-99.422615 18.316437 11.912411
-99.415916 18.321928 11.672894
-99.407417 18.325871 11.434132
-99.404381 18.3342 11.199636
-99.377762 18.323204 10.955556
-99.371193 18.328501 10.722602
-99.362915 18.332325 10.49033
-99.367607 18.346701 10.265081
-99.333862 18.329557 10.02484
-99.327843 18.335033 9.7978191
-99.327576 18.345169 9.5743103
-99.296051 18.329605 9.3399467
-99.292519 18.336948 9.1177015
-99.279961 18.336821 8.8932905
-99.288185 18.353724 8.6772871
-99.287415 18.363197 8.4589891
-99.262634 18.352861 8.2338543
-99.118454 18.360937 5.4512548
-99.110619 18.364017 5.2430024
-99.116661 18.378609 5.0372915
-99.098373 18.372957 4.8284535
-99.086327 18.372465 4.6210704
-99.072884 18.370789 4.4140387
-99.081024 18.387075 4.209692
-99.057144 18.376659 4.0024643
-99.062531 18.390636 3.7982047
-99.051216 18.390667 3.5928149
-99.038528 18.389532 3.3876822
-99.039803 18.400059 3.183497
-99.024376 18.39661 2.9787512
-99.022911 18.40484 2.7746353
-99.027756 18.418348 2.5705664
-99.02356 18.424292 2.3663208
-99.844475 18.19796 18.192411
-99.83992 18.20768 17.896072
-99.832825 18.215233 17.600895
-99.84446 18.250441 17.040228
-99.850136 18.267744 16.763788
-99.83329 18.267 16.473009
-99.807198 18.258747 16.178579
-99.792221 18.259203 15.895491
-99.77581 18.270535 15.347375
-99.354958 18.341295 6.1117654
-99.333092 18.351923 5.4786143
-99.325478 18.355148 5.2686272
-99.308769 18.350855 5.0578198
-99.313644 18.36433 4.8506045
-99.29409 18.357641 4.6405344
-99.303848 18.375113 4.4344282
-99.281464 18.366043 4.2250738
-100.04439 18.202116 17.722517
-99.966522 18.240423 15.436095
-99.979836 18.262901 15.178569
-99.956329 18.256096 14.898589
-99.944481 18.258408 14.629032
-99.930435 18.258871 14.360565
-99.921265 18.263094 14.097588
-99.917061 18.271166 13.839892
-99.910828 18.277527 13.583059
-99.902565 18.282183 13.327113
-99.899445 18.290846 13.076136
-99.652672 18.310362 8.0999365
-99.649261 18.327103 7.6627107
-99.649063 18.336641 7.4456697
-99.63974 18.338747 7.2269459
-99.61364 18.327196 7.0049186
-99.616508 18.339123 6.7909765
-99.617905 18.349827 6.5772147
-99.602524 18.346863 6.360374
-99.5933 18.348873 6.1456432
-100.25031 18.165756 18.131737
-100.27776 18.247236 12.471736
-100.17578 18.27186 10.038963
-100.16983 18.277311 9.8057852
-100.14713 18.269451 9.5675573
-100.15282 18.284 9.341259
-100.14178 18.285252 9.1099529
-100.12907 18.285114 8.8793135
-100.12225 18.289618 8.6518488
-100.12142 18.298811 8.4273272
-100.10375 18.294598 8.1985512
-100.0997 18.301151 7.9749928
-100.08642 18.300327 7.7497082
-100.06388 18.292088 7.5229731
-100.03973 18.282507 7.2970414
-100.04468 18.296068 7.0795112
-100.03274 18.296135 6.8585205
-100.03465 18.307217 6.6414933
-100.02734 18.310919 6.4230213
-100.00308 18.301044 6.201829
-100.00818 18.314594 5.9872394
-99.996338 18.314577 5.7699642
-99.99073 18.319521 5.5544152
-99.975891 18.317049 5.3379393
-99.951813 18.307138 5.1208129
-99.965027 18.327103 4.9095054
-99.945747 18.32099 4.6942258
-99.948303 18.332376 4.4820404
-99.933861 18.330103 4.2683272
-99.925743 18.332888 4.0556779
-99.908394 18.328236 3.8426521
-99.897377 18.328657 3.6305487
-99.8927 18.334169 3.4191229
-99.894371 18.34479 3.2081296
-99.886818 18.347977 2.9968252
-99.877838 18.35 2.7856495
-99.859642 18.34458 2.574544
-99.855583 18.350559 2.3637478
-99.834534 18.34281 2.1531541
-100.64973 18.145882 17.182211
-100.69041 18.189695 16.925768
-100.68784 18.200197 16.639505
-100.64832 18.182177 16.329723
-100.6408 18.18861 16.045938
-100.63091 18.1931 15.763249
-100.60467 18.184864 15.472329
-100.62517 18.212557 15.215103
-100.59423 18.200462 14.926613
-100.59631 18.213741 14.661896
-100.57493 18.208784 14.384854
-100.5727 18.218534 14.121969
-100.49921 18.239344 12.306787
-100.49529 18.247086 12.058667
-100.49683 18.259018 11.814844
-100.47437 18.252163 11.561142
-100.46476 18.255255 11.315353
-100.43098 18.239408 11.060389
-100.43251 18.25104 10.822946
-100.4248 18.255396 10.582857
-100.4153 18.258287 10.343469
-100.41153 18.265602 10.107796
-100.21461 18.296925 5.7975235
-100.2014 18.295927 5.5789542
-100.19445 18.29987 5.3620391
-100.186 18.302601 5.1454182
-100.19164 18.3165 4.9311709
-100.18802 18.323029 4.7159591
-100.16732 18.315964 4.4992013
-100.16074 18.320103 4.2845211
-100.14489 18.316841 4.0693607
-100.13537 18.318607 3.8551919
-100.12439 18.319193 3.6412601
-100.11195 18.3186 3.4275818
-100.11368 18.329302 3.2148452
-100.09833 18.326363 3.0015488
-100.08934 18.328495 2.7887163
-100.07891 18.32946 2.5760283
-100.07483 18.33551 2.363488
-100.06931 18.340403 2.1509502
-100.91535 18.129807 17.922729
-100.9111 18.165085 17.042364
-100.9024 18.171049 16.749382
-100.89122 18.174988 16.457575
-100.85668 18.160992 16.152473
-100.86845 18.182177 15.882376
-100.84292 18.17478 15.589535
-100.84312 18.186914 15.316568
-100.81984 18.180994 15.030898
-100.82974 18.200342 14.768838
-100.80186 18.19066 14.485549
-100.78596 18.190044 14.212275
-100.78223 18.198656 13.948572
-100.76196 18.194473 13.677464
-100.74674 18.194069 13.411615
-100.75122 18.208714 13.158761
-100.75375 18.221777 12.906527
-100.73967 18.221985 12.647312
-100.7309 18.226196 12.392823
-100.72754 18.234491 12.142841
-100.72965 18.246941 11.897147
-100.69282 18.229244 11.634595
-100.6911 18.238592 11.390492
-100.68009 18.240681 11.143694
-100.66721 18.241247 10.89771
-100.57434 18.251343 8.9876394
-100.5682 18.256601 8.7566328
-100.55273 18.254547 8.5237494
-100.55093 18.263083 8.2962265
-100.54749 18.270311 8.0691013
-100.50394 18.246187 7.8316426
-100.51263 18.262793 7.6099296
-100.51976 18.278158 7.3883314
-100.42758 18.283154 5.6063066
-100.41297 18.281202 5.3863702
-100.42027 18.296453 5.1702542
-100.41044 18.298222 4.9520369
-100.31631 18.318205 2.792345
-100.99174 18.177492 13.770471
-100.97708 18.177734 13.502794
-100.98218 18.192926 13.248102
-100.97797 18.200951 12.990132
-100.97176 18.207355 12.732962
-100.9414 18.195255 12.465423
-100.9385 18.204025 12.213821
-100.92625 18.20557 11.959365
-100.94924 18.234003 11.723244
-100.91824 18.221054 11.463394
-100.91515 18.229395 11.218114
-100.8952 18.224743 10.966996
-100.88085 18.22431 10.720034
-100.84954 18.210781 10.467776
-100.87682 18.242189 10.240667
-100.8418 18.22567 9.9901886
-100.83529 18.230995 9.7522688
-100.81178 18.223181 9.5094767
-100.80173 18.225666 9.2729683
-100.81291 18.244461 9.0448322
-100.79179 18.2383 8.8069086
-100.79195 18.248522 8.5770607
-100.77508 18.245535 8.3429499
-100.7565 18.24118 8.1095734
-100.68098 18.251606 6.5194559
-100.67842 18.269047 6.0762672
-100.66702 18.269848 5.8536429
-100.66187 18.275499 5.6327372
-100.63953 18.267729 5.4096947
-100.65482 18.289255 5.1928773
-100.6294 18.279028 4.9706922
-100.61813 18.279808 4.7510662
-100.54449 18.298325 3.0100155
-100.5276 18.29454 2.7934499
-100.50134 18.283403 2.5771289
-100.52866 18.314341 2.3612216
-100.50732 18.307041 2.1452246
-101.34115 18.125586 16.675674
-101.32883 18.128979 16.38158
-101.30473 18.160175 15.249444
-101.28748 18.159267 14.965704
-101.28226 18.167284 14.691928
-101.26759 18.168095 14.414809
-101.23617 18.156181 14.130405
-101.22421 18.158808 13.859871
-101.23927 18.181709 13.60657
-101.21575 18.175426 13.333839
-101.21943 18.189579 13.077917
-101.21374 18.196581 12.818818
-100.88679 18.248142 5.8756781
-100.86728 18.252619 5.429482
-100.86699 18.262127 5.208611
-100.86181 18.277542 4.7672834
-100.77989 18.281586 3.2281132
-100.76439 18.279148 3.0095072
-100.76318 18.287806 2.7915199
-100.75256 18.289152 2.5734313
-100.74834 18.295469 2.3554876
-101.60995 18.087587 17.692015
-101.59948 18.106144 17.094099
-101.61143 18.127941 16.811563
-101.59992 18.132261 16.515266
-101.58589 18.134583 16.220184
-101.55517 18.124382 15.916999
-101.54322 18.127985 15.629201
-101.53603 18.135 15.347083
-101.52651 18.140171 15.066001
-101.52911 18.154255 14.794714
-101.47684 18.139296 14.225065
-101.48732 18.158957 13.965017
-101.48111 18.166077 13.697421
-101.46541 18.166012 13.426751
-101.45491 18.169741 13.16105
-101.44971 18.177341 12.900103
-101.44245 18.183327 12.639969
-101.42186 18.190483 12.122242
-101.41604 18.197298 11.868181
-101.25175 18.21291 8.6686068
-101.24303 18.21666 8.4331799
-101.2326 18.219065 8.1983109
-101.22048 18.220131 7.9640198
-101.20667 18.219862 7.7303271
-101.19115 18.218267 7.4972525
-101.18179 18.221294 7.2667036
-101.18642 18.234945 7.040247
-101.16595 18.229445 6.8087988
-101.15168 18.228621 6.5796771
-101.15148 18.238499 6.3541875
-101.1497 18.247145 6.1289139
-101.79628 18.127451 15.465182
-101.77303 18.122828 15.17312
-101.79077 18.148306 14.908605
-101.77007 18.145334 14.623128
-101.747 18.140499 14.338925
-101.74357 18.150053 14.068407
-101.70855 18.136156 13.782561
-101.71544 18.153151 13.52204
-101.68664 18.166994 12.725513
-101.69279 18.183125 12.471566
-101.65948 18.169874 12.200337
-101.6541 18.17728 11.944405
-101.62411 18.1663 11.679018
-101.62985 18.181835 11.431479
-101.61098 18.178961 11.174699
-101.59012 18.174526 10.9189
-101.58254 18.179926 10.670247
-101.5578 18.172438 10.416319
-101.56178 18.186333 10.175056
-101.54092 18.181606 9.9257431
-101.51817 18.175398 9.6773634
-101.52443 18.19084 9.4405451
-101.4903 18.175962 9.1911945
-101.49303 18.18866 8.9554272
-101.48628 18.194202 8.7176065
-101.45446 18.180866 8.4733791
-101.48318 18.212954 8.248045
-101.45566 18.202744 8.007431
-101.44984 18.208796 7.7739272
-101.42667 18.201748 7.536921
-101.44099 18.222902 7.3101573
-101.43016 18.225065 7.0779572
-101.38622 18.202198 6.8393946
-101.41139 18.231464 6.6167088
-101.38773 18.22382 6.384439
-101.38607 18.232775 6.1572719
-101.36703 18.228542 5.9275937
-101.37798 18.246986 5.703649
-101.19013 18.264393 2.1235344
-101.74232 18.15653 9.4946184
-101.68504 18.189331 7.8202858
-101.6699 18.188641 7.5833778
-101.65304 18.186621 7.3471007
-101.65024 18.195053 7.115078
-101.63 18.190418 6.87995
-101.63176 18.202202 6.6504021
-101.60818 18.194979 6.4164143
-101.60667 18.20425 6.1875272
-101.59561 18.206345 5.9574981
-101.59087 18.213135 5.7291732
-101.57657 18.212736 5.4999156
-101.55271 18.20512 5.2700019
-101.55904 18.220154 5.0448365
-101.54787 18.222027 4.8177662
-101.55103 18.234661 4.5927358
-101.56059 18.252104 4.3684764
-101.51281 18.226332 4.1393228
-101.51922 18.241375 3.9153893
-101.49218 18.231174 3.6893258
-101.50343 18.249863 3.4659426
-101.47327 18.237253 3.2406573
-101.4814 18.25358 3.0172155
-101.45608 18.244602 2.7929323
-101.43718 18.240463 2.5692098
-101.43268 18.247213 2.3457839
-101.41068 18.240702 2.122575
-101.7493 18.211412 4.1568122
-101.73981 18.214668 3.9297848
-101.73673 18.222702 3.7034929
-101.72408 18.22356 3.4768586
-101.71783 18.22921 3.2508206
-101.71802 18.239662 3.0251348
-101.66862 18.212944 2.7984669
-101.67366 18.227016 2.5732942
-101.66912 18.233908 2.3479524
-101.64702 18.227606 2.1228259
-100.14442 18.419069 1.0037732
-99.280472 18.337688 18.67551
-99.299828 18.253546 18.665443
-99.539078 18.32662 18.531115
-99.503777 18.243622 18.530048
-99.677101 18.243422 17.154919
-99.844154 18.211496 18.147875
-99.824501 18.211414 17.83128
-99.852882 18.241137 17.552053
-99.805595 18.223558 17.222824
-99.830681 18.274267 16.367994
-99.838982 18.290939 16.087904
-99.807373 18.282505 15.785267
-99.788055 18.281649 15.493407
-99.788803 18.293268 15.216409
-99.779556 18.298519 14.93586
-99.76786 18.30213 14.656382
-99.955811 18.287962 15.579031
-99.709717 18.342476 10.271475
-99.69838 18.345034 10.025727
-99.676979 18.341152 9.777916
-99.65361 18.335949 9.5310431
-99.668961 18.355291 9.2983532
-99.645302 18.359291 8.8185616
-100.00788 18.278364 14.221694
-100.01292 18.292349 13.95567
-100.00798 18.300016 13.68631
-100.00074 18.306175 13.417838
-99.983429 18.305944 13.146402
-99.971642 18.309088 12.87987
-99.965485 18.315672 12.618028
-99.965042 18.325766 12.360658
-99.930824 18.3146 12.089759
-99.926071 18.32184 11.834135
-99.903297 18.317694 11.572472
-99.894333 18.322147 11.31853
-99.875298 18.320196 11.062156
-99.878265 18.332026 10.816202
-99.85511 18.327349 10.561573
-99.837967 18.326384 10.310956
-99.843086 18.339407 10.069918
-99.607552 18.367781 5.5941777
-99.601578 18.37302 5.368608
-99.585564 18.371807 5.1422215
-99.584625 18.38022 4.9183483
-99.561005 18.383066 4.4693789
-99.563492 18.393635 4.2469354
-99.547546 18.392363 4.0231791
-99.552734 18.413595 3.5793402
-99.531876 18.409115 3.3563764
-99.526733 18.432596 2.6913946
-99.497192 18.35478 1.8092179
-100.30251 18.26222 14.639579
-100.27236 18.254555 14.349189
-100.2784 18.26914 14.080867
-100.27439 18.277439 13.809196
-100.26028 18.279394 13.534442
-100.158 18.308704 11.164683
-100.14565 18.310984 10.909956
-100.13123 18.311909 10.656064
-100.12286 18.316545 10.406013
-100.10437 18.3148 10.153779
-100.10825 18.32699 9.9108953
-100.06947 18.312426 9.6547823
-100.07764 18.327198 9.4158382
-100.0594 18.325373 9.1695061
-100.04742 18.327419 8.9264793
-100.04998 18.338549 8.68892
-100.00952 18.322617 8.440177
-100.02486 18.341694 8.2082329
-99.988846 18.32844 7.9635162
-100.0006 18.345196 7.7322264
-99.985725 18.345156 7.4951305
-99.960732 18.338692 7.256784
-99.950539 18.34152 7.0228539
-99.938568 18.343193 6.7894239
-99.924835 18.343712 6.5565124
-99.917686 18.348364 6.3256774
-99.925529 18.362467 6.0981326
-99.90657 18.359592 5.8665452
-99.894249 18.360888 5.6368313
-99.880203 18.361067 5.4075565
-99.872841 18.365454 5.1798463
-99.830193 18.347429 4.9483571
-99.853043 18.370949 4.7253494
-99.832207 18.366716 4.4977517
-99.83493 18.377432 4.2729621
-99.819153 18.376375 4.0468521
-99.810127 18.379597 3.8217177
-99.824715 18.397846 3.5983124
-99.803955 18.393572 3.3729901
-99.78997 18.393595 3.1484344
-99.782753 18.397928 2.9244008
-99.757042 18.39044 2.700196
-99.780235 18.414194 2.4768603
-99.73439 18.39381 2.2531867
-99.703758 18.383131 2.0301661
-100.5157 18.159079 18.251112
-100.51073 18.168289 17.94029
-100.53975 18.198072 17.655928
-100.49962 18.185617 17.327274
-100.52335 18.211967 17.044601
-100.5446 18.236725 16.762478
-100.51084 18.227768 16.447706
-100.42621 18.254635 14.419607
-100.42503 18.264774 14.145814
-100.1852 18.318466 8.9601612
-100.17979 18.324614 8.7190228
-100.18075 18.334707 8.4807215
-100.13856 18.317764 8.2316809
-100.14408 18.33062 7.9967222
-100.12292 18.326738 7.7558522
-100.12483 18.337265 7.521667
-100.1 18.33099 7.2821221
-100.08166 18.328741 7.0451951
-100.09488 18.346275 6.8157811
-100.07297 18.341715 6.5798683
-100.05762 18.341244 6.3462024
-100.04052 18.339628 6.1130915
-100.0468 18.352709 5.8846526
-100.0346 18.354128 5.653728
-100.01227 18.349131 5.4220481
-100.01342 18.358917 5.1943173
-99.98764 18.351688 4.963655
-99.985397 18.359293 4.7364573
-99.9562 18.349842 4.5068841
-99.950577 18.355272 4.2802911
-99.943275 18.359629 4.053896
-99.942734 18.368254 3.8283019
-99.923653 18.365122 3.6017706
-99.936653 18.382318 3.3773081
-99.922684 18.382402 3.151619
-99.898613 18.376059 2.9259784
-99.889771 18.379368 2.7011132
-99.887703 18.386984 2.4764555
-99.867104 18.382811 2.2518353
-99.861732 18.388317 2.0273447
-99.770393 18.339039 1.8048704
-100.66506 18.16798 18.030678
-100.65051 18.171293 17.714659
-100.64785 18.181692 17.409977
-100.62006 18.176716 17.091717
-100.67167 18.219843 16.828119
-100.67596 18.234138 16.536009
-100.64744 18.228363 16.226135
-100.64642 18.239218 15.936191
-100.61238 18.22983 15.629166
-100.61379 18.241951 15.345954
-100.59738 18.243093 15.054911
-100.58611 18.247274 14.769373
-100.5686 18.26923 13.935654
-100.47478 18.284998 12.038521
-100.48548 18.30179 11.785678
-100.46202 18.297462 11.520014
-100.42831 18.28672 11.252231
-100.42466 18.29447 10.998335
-100.42706 18.305904 10.748166
-100.395 18.295967 10.486594
-100.22209 18.303288 7.5374908
-100.22083 18.32107 7.068459
-100.20918 18.32303 6.8327098
-100.21248 18.334303 6.6007247
-100.20565 18.33922 6.3673916
-100.19706 18.34301 6.134439
-100.16994 18.33515 5.8991551
-100.16624 18.341942 5.6684723
-100.1524 18.342356 5.436861
-100.15367 18.352224 5.2079163
-100.16165 18.366302 4.9801173
-100.12581 18.35281 4.7476268
-100.11353 18.354105 4.5185299
-100.09955 18.354309 4.2897868
-100.09231 18.358742 4.0620866
-100.08338 18.362101 3.8346016
-100.07278 18.364384 3.6073492
-100.05205 18.36026 3.3799365
-100.07189 18.38175 3.1545813
-100.04781 18.375488 2.927634
-100.04742 18.38419 2.7016094
-100.01155 18.37044 2.4753091
-100.03317 18.393072 2.2495151
-100.00243 18.382542 2.0238798
-99.88562 18.317392 1.8007911
-100.78337 18.144754 18.095108
-100.77668 18.152853 17.783163
-100.7894 18.172543 17.487371
-100.72485 18.145441 17.143408
-100.79941 18.202297 16.893433
-100.78914 18.207769 16.590757
-100.77613 18.211472 16.289297
-100.74522 18.204197 15.979904
-100.75724 18.222855 15.699186
-100.72089 18.212042 15.392548
-100.72789 18.227457 15.113714
-100.73249 18.241333 14.835633
-100.71146 18.239515 14.545733
-100.70344 18.245523 14.265359
-100.693 18.249969 13.985982
-100.65665 18.238512 13.695747
-100.64135 18.239798 13.418691
-100.63157 18.244373 13.146518
-100.667 18.276525 12.897612
-100.63691 18.268526 12.619602
-100.66819 18.298037 12.371376
-100.62557 18.282198 12.091921
-100.52294 18.269522 10.773528
-100.52356 18.279789 10.523129
-100.53033 18.293798 10.276169
-100.51883 18.296495 10.023977
-100.50531 18.297892 9.7725372
-100.49799 18.303064 9.524518
-100.47228 18.296814 9.2720041
-100.46103 18.299448 9.0254326
-100.44785 18.300837 8.7795315
-100.43273 18.300983 8.5343246
-100.16988 18.374268 2.4740686
-100.14076 18.364866 2.2470345
-100.15227 18.381071 2.0199604
-100.02682 18.310835 1.7957743
-100.9303 18.152481 17.874659
-100.92886 18.163631 17.567558
-100.88726 18.150513 17.237072
-100.92509 18.185059 16.961538
-100.93796 18.204491 16.672028
-100.90284 18.194895 16.355251
-100.89521 18.201756 16.058548
-100.8773 18.202299 15.758454
-100.87971 18.215014 15.472979
-100.87193 18.221472 15.184019
-100.85389 18.221619 14.891841
-100.84879 18.229506 14.609313
-100.84125 18.235825 14.327747
-100.81564 18.231087 14.039092
-100.8032 18.234247 13.759701
-100.78049 18.231077 13.477478
-100.77906 18.240753 13.207896
-100.79122 18.258636 12.946537
-100.76147 18.250923 12.667472
-100.77721 18.270855 12.411073
-100.75085 18.265051 12.137669
-100.73022 18.262655 11.868873
-100.72346 18.268652 11.607777
-100.69033 18.258465 11.337767
-100.68734 18.266632 11.081637
-100.68227 18.273476 10.826164
-100.68329 18.283993 10.574351
-100.59344 18.296595 8.8159637
-100.58688 18.302053 8.5717907
-100.57011 18.30118 8.3259382
-100.54312 18.293945 8.07868
-100.53085 18.295746 7.8364506
-100.50002 18.286039 7.5908918
-100.52576 18.311258 7.359468
-100.43324 18.327366 5.4685488
-100.40945 18.321642 5.23386
-100.40923 18.330559 5.002871
-100.31286 18.360252 2.7037549
-100.31082 18.367928 2.4754312
-100.29863 18.36923 2.2471218
-100.15914 18.299498 1.7936674
-101.03761 18.112803 18.243649
-101.01979 18.138035 17.309862
-101.01556 18.204323 15.538814
-101.00829 18.211077 15.248677
-100.98299 18.206867 14.951038
-100.97836 18.215014 14.667402
-100.98687 18.231009 14.392966
-100.96957 18.231335 14.107076
-100.96551 18.239567 13.830284
-100.92755 18.227211 13.538854
-100.93451 18.241945 13.271782
-100.9313 18.250462 13.001608
-100.90992 18.247873 12.724962
-100.90216 18.253473 12.456588
-100.88416 18.252777 12.185596
-100.87997 18.260397 11.922439
-100.86555 18.261734 11.656714
-100.85703 18.266588 11.395154
-100.82204 18.25526 11.124949
-100.83358 18.272207 10.87444
-100.81054 18.268017 10.612355
-100.80169 18.272423 10.357097
-100.76623 18.260515 10.094121
-100.76145 18.267288 9.8433132
-100.78759 18.292929 9.6036873
-100.77068 18.292189 9.3512058
-100.73524 18.280045 9.0945835
-100.74741 18.297016 8.853488
-100.73283 18.297562 8.605649
-100.63947 18.286959 7.3793979
-100.63855 18.295643 7.1414294
-100.63583 18.303185 6.9037805
-100.58931 18.283688 6.6583519
-100.58293 18.288904 6.4218283
-100.60844 18.313787 6.1914864
-100.57325 18.301155 5.9512954
-100.56997 18.30821 5.7171507
-100.48956 18.321449 4.0857701
-100.4893 18.330242 3.8554707
-100.48734 18.337967 3.6252279
-100.45821 18.328781 3.3938313
-100.46131 18.33964 3.1643391
-100.45422 18.344151 2.9345469
-100.4624 18.358177 2.705178
-100.30855 18.297705 1.789854
-100.94579 18.257353 10.652774
-100.93726 18.261934 10.396346
-100.90208 18.250252 10.1322
-100.90583 18.262182 9.8829451
-100.89938 18.267864 9.6314754
-100.88269 18.267254 9.3780661
-100.88053 18.27545 9.1304197
-100.87643 18.282423 8.8832684
-100.8538 18.278036 8.632019
-100.8375 18.277466 8.3838692
-100.8276 18.28076 8.1385841
-100.80744 18.27774 7.8918266
-100.81882 18.29398 7.6537042
-100.77813 18.278303 7.4044046
-100.77744 18.287081 7.1652336
-100.79171 18.305019 6.9297981
-100.68806 18.295826 5.4962239
-100.67294 18.295502 5.2604709
-100.69836 18.320169 5.0302768
-100.67126 18.312416 4.7941155
-100.67628 18.32448 4.5620112
-100.65414 18.319742 4.3276377
-100.64721 18.324392 4.0951471
-100.559 18.331976 2.4747233
-100.56381 18.343842 2.2442634
-100.56692 18.35465 2.0136344
-101.31097 18.105484 18.086369
-101.3112 18.11751 17.776016
-101.30861 18.127739 17.466755
-101.26553 18.113811 17.134516
-101.33281 18.165339 16.87537
-101.30678 18.161312 16.559875
-101.32365 18.182705 16.273457
-101.26662 18.182163 15.365897
-101.27325 18.197075 15.083165
-101.26964 18.205795 14.796996
-101.22446 18.189552 14.49118
-101.23146 18.204433 14.215416
-100.87124 18.287243 6.2243242
-100.8616 18.290392 5.98598
-100.85016 18.292412 5.7480474
-100.85384 18.303684 5.5129256
-100.76067 18.317888 3.6337178
-100.73478 18.319679 3.168119
-100.73626 18.32946 2.9362032
-100.702 18.317154 2.703655
-100.71336 18.341892 2.2402995
-100.58183 18.278152 1.7795088
-101.47576 18.164579 16.642838
-101.46268 18.168236 16.336592
-101.28796 18.21418 12.321022
-101.28757 18.234154 11.79186
-101.25571 18.225052 11.516994
-101.25411 18.234039 11.25598
-101.25855 18.246603 10.998669
-101.22002 18.233273 10.726974
-101.20385 18.233313 10.465319
-101.19377 18.236965 10.207355
-101.18163 18.239315 9.9501286
-101.16605 18.258652 9.1930027
-101.61532 18.100548 17.934017
-101.59128 18.098366 17.607496
-101.54908 18.085365 17.272913
-101.60236 18.128412 17.001881
-101.62289 18.152113 16.712149
-101.60261 18.151676 16.400084
-101.61024 18.167591 16.107462
-101.56128 18.14999 15.78464
-101.57133 18.167131 15.498586
-101.53999 18.159718 15.191883
-101.54497 18.173672 14.907699
-101.49787 18.178286 14.036218
-101.46921 18.171934 13.744188
-101.45389 18.17342 13.461129
-101.46807 18.192364 13.194016
-101.46404 18.200411 12.920103
-101.45773 18.207022 12.647008
-101.46523 18.221807 12.381697
-101.43018 18.211142 12.099985
-101.42602 18.228951 11.569769
-101.40847 18.228518 11.300985
-101.2552 18.253023 8.2159643
-101.22715 18.245525 7.9635019
-101.22231 18.25198 7.7178588
-101.22397 18.262337 7.4745355
-101.20693 18.261362 7.2279243
-101.21329 18.274498 6.9870815
-101.17561 18.260958 6.738307
-101.17825 18.271793 6.4982333
-101.1537 18.266123 6.2540207
-101.13576 18.264418 6.0119028
-101.1414 18.277 5.7741866
-101.13678 18.283329 5.5353665
-100.95654 18.308737 1.9948992
-101.7615 18.085222 18.007647
-101.74547 18.087908 17.684811
-101.74156 18.097563 17.37302
-101.71963 18.09654 17.052898
-101.77106 18.138393 16.78089
-101.76656 18.147387 16.476763
-101.75933 18.154676 16.173727
-101.72621 18.146646 15.858527
-101.72126 18.155058 15.562358
-101.7137 18.161837 15.267222
-101.6879 18.15778 14.964763
-101.67512 18.161283 14.671944
-101.65189 18.158533 14.376215
-101.67353 18.182165 14.105529
-101.66117 18.185656 13.819729
-101.61311 18.178572 13.243894
-101.60941 18.186932 12.968766
-101.60342 18.193853 12.694451
-101.59512 18.199347 12.420978
-101.56837 18.193811 12.141596
-101.58794 18.215708 11.883263
-101.56475 18.212149 11.609077
-101.54744 18.212008 11.339141
-101.51154 18.200731 11.064059
-101.51437 18.212435 10.805171
-101.51511 18.222853 10.546803
-101.50555 18.227074 10.286169
-101.47736 18.220123 10.020823
-101.48842 18.236549 9.7697601
-101.45602 18.226963 9.5061998
-101.44645 18.230957 9.2511873
-101.41818 18.223719 8.9920597
-101.4129 18.230183 8.7408495
-101.41401 18.240444 8.492383
-101.39644 18.239462 8.240037
-101.37689 18.237246 7.9884319
-101.21375 18.287216 4.1124482
-101.1966 18.285929 3.8747244
-101.18622 18.288727 3.6378934
-101.1826 18.29563 3.4017122
-101.17723 18.301453 3.1656225
-101.15302 18.295803 2.9291863
-101.16119 18.30987 2.6937892
-101.14201 18.307257 2.4580286
-101.1296 18.308771 2.2225718
-101.11545 18.309212 1.9872965
-101.77847 18.157061 13.865422
-101.7879 18.173365 13.59109
-101.77103 18.174124 13.306214
-101.72799 18.190742 12.198375
-101.72362 18.198496 11.928731
-101.72518 18.209694 11.663058
-101.6919 18.200209 11.385438
-101.68087 18.203821 11.118283
-101.66766 18.206078 10.851953
-101.64404 18.202099 10.58358
-101.64299 18.211447 10.324666
-101.60678 18.199858 10.055426
-101.59323 18.20167 9.7953558
-101.58591 18.207132 9.5386162
-101.56823 18.206375 9.2800379
-101.56518 18.214279 9.027051
-101.55177 18.215975 8.7722683
-101.55312 18.226418 8.5226135
-101.53574 18.225653 8.2690754
-101.52478 18.228672 8.018321
-101.51187 18.230484 7.768158
-101.49702 18.231094 7.5186052
-101.49711 18.240616 7.2732601
-101.47842 18.238855 7.0248194
-101.47475 18.246056 6.7802835
-101.46073 18.247025 6.5345659
-101.44483 18.246832 6.2893891
-101.42706 18.245481 6.0447721
-101.44143 18.263416 5.805819
-101.41997 18.259794 5.5620356
-101.40517 18.260151 5.3199687
-101.38003 18.254246 5.0773549
-101.38716 18.267761 4.8390951
-101.37543 18.269899 4.5991421
-101.38753 18.286388 4.3617878
-101.37222 18.286333 4.1222873
-101.33621 18.282911 3.6444576
-101.33263 18.289894 3.4069698
-101.3287 18.305803 2.932513
-101.74596 18.196909 9.840867
-101.739 18.202593 9.582778
-101.70497 18.192194 9.3179035
-101.71056 18.205225 9.0661173
-101.6904 18.222162 8.3064432
-101.67973 18.225376 8.0543222
-101.67551 18.232395 7.8047495
-101.66936 18.238234 7.555614
-101.64439 18.232819 7.3033566
-101.63438 18.236282 7.0553279
-101.614 18.233517 6.80618
-101.62563 18.249828 6.5638475
-101.60995 18.249807 6.3172011
-101.57537 18.238459 6.0683956
-101.58995 18.256472 5.8281474
-101.57716 18.258097 5.5842471
-101.56253 18.258589 5.3407907
-101.55459 18.263063 5.0988092
-101.52774 18.256182 4.8552856
-101.52469 18.263546 4.6149526
-101.51983 18.269814 4.3747916
-101.50462 18.269846 4.1341572
-101.47904 18.263628 3.8933282
-101.48589 18.276896 3.6550379
-101.44816 18.263319 3.4146283
-101.48569 18.295055 3.1778522
-101.47006 18.294775 2.9389389
-101.42697 18.277908 2.6999009
-101.44203 18.296118 2.4620881
-101.43819 18.302921 2.2239802
-101.4069 18.293131 1.9862384
-102.38665 17.989811 22.867876
-102.15077 18.060396 17.292536
-102.16521 18.103668 16.383968
-102.16465 18.11479 16.082973
-102.15363 18.119757 15.778609
-102.13209 18.118513 15.471143
-102.13919 18.133795 15.181823
-102.11228 18.129232 14.876799
-102.11429 18.14138 14.58935
-102.55203 18.056162 21.188597
-102.55042 18.06852 20.837778
-102.53813 18.074642 20.482899
-102.55176 18.095398 20.150951
-102.00823 18.207092 8.6396246
-101.75341 18.270241 2.9548011
-101.74469 18.274157 2.7138848
-101.72558 18.271858 2.4730542
-101.72184 18.27874 2.232502
-101.69055 18.269133 1.9923046
-102.47991 18.077736 16.856493
-102.47558 18.086899 16.547241
-102.13126 18.190712 8.4125204
-102.27113 18.1742 8.4419909
-102.26143 18.178217 8.1848335
-102.26665 18.190907 7.9321833
-102.25426 18.202858 7.4240842
-102.01827 18.250954 2.474896
-102.00591 18.252855 2.2318439
-101.99172 18.253672 1.9889727
-102.46503 18.092709 8.4791803
-102.44932 18.122068 7.455111
-102.44042 18.12645 7.2002072
