# .PCD v0.7 - Point Cloud Data file format
VERSION 0.7
FIELDS x y z
SIZE 4 4 4
TYPE F F F
COUNT 1 1 1
WIDTH 502
HEIGHT 1
VIEWPOINT 0 0 0 1 0 0 0
POINTS 502
DATA ascii
-83.625038 56.769287 10.585414
-83.898376 56.748493 10.05806
-83.865364 56.784218 9.0173283
-83.856117 56.864349 8.5050735
-84.48642 56.689774 10.066328
-84.405731 56.78548 7.4681659
-84.394371 56.842426 6.9536333
-84.874794 56.663116 12.710346
-84.802086 56.682632 10.597604
-84.787971 56.71756 10.076978
-84.702461 56.774548 7.4712524
-85.316246 56.449955 17.537268
-85.282013 56.483318 16.450544
-85.263969 56.492569 15.908564
-85.245316 56.496891 15.367562
-85.589432 56.425156 16.993437
-85.573494 56.449043 16.452724
-85.556923 56.468021 15.912777
-85.884773 56.407692 17.00396
-85.695053 56.541866 11.122167
-85.880676 56.64761 7.4790277
-85.863396 56.655594 6.9587789
-86.49514 56.36211 17.596243
-86.47731 56.372509 17.048368
-86.220703 56.547054 9.0552797
-86.185242 56.677505 7.4998379
-86.771332 56.347565 17.072206
-86.523788 56.56498 9.0773726
-87.086853 56.340015 17.648727
-87.062973 56.312771 17.089884
-86.849014 56.494583 10.13753
-87.378342 56.302883 17.669584
-87.364418 56.333202 17.1252
-87.113297 56.499332 9.1051903
-87.105423 56.560894 8.5869589
-87.086914 56.55912 8.0621729
-87.052635 56.571342 7.0168929
-87.675705 56.281563 17.700432
-87.660339 56.302666 17.153076
-87.633965 56.261433 16.592281
-87.622086 56.301239 16.054136
-87.606003 56.317028 15.512018
-87.589127 56.327938 14.970745
-87.571457 56.333984 14.430362
-87.558105 56.364155 13.896792
-87.972946 56.241146 17.719667
-87.959488 56.272018 17.174446
-87.93647 56.250198 16.617996
-87.90889 56.306358 15.53655
-87.893867 56.327168 14.996813
-87.867554 56.285362 14.44551
-88.271179 56.201611 17.729948
-88.261467 56.251678 17.189333
-88.247314 56.277817 16.644308
-88.578949 56.200527 17.742292
-88.565765 56.231724 17.196056
-88.549866 56.248459 16.648138
-88.882668 56.169704 17.745548
-88.863945 56.172478 17.191479
-88.848061 56.189259 16.643391
-89.189049 56.145554 17.755508
-89.461388 56.140091 16.661526
-89.766304 56.103188 16.67078
-92.845337 55.983902 4.897603
-94.802979 55.552929 17.996616
-94.534706 55.816074 8.1466465
-94.515007 55.812695 7.6096764
-95.448418 55.492893 18.044659
-95.757957 55.414536 18.053188
-96.093102 55.400925 18.067881
-96.42543 55.365364 18.080242
-96.752556 55.31876 18.092873
-96.627632 55.429977 13.614502
-97.093575 55.307503 18.112534
-96.968582 55.420689 13.62601
-97.086296 55.621037 5.46738
-97.772102 55.539875 6.0159326
-98.42202 55.509159 4.9471889
-98.352104 55.595577 2.2380855
-82.977516 56.829327 10.007189
-82.96949 56.845718 9.6633835
-83.090385 56.880943 9.6151752
-83.069489 56.89436 8.9255238
-83.061134 56.911034 8.5837021
-83.046227 56.89566 8.2377148
-83.042671 56.935452 7.900774
-83.02858 56.923771 7.5571356
-83.196312 56.8843 9.5816975
-83.164757 56.96595 8.2127304
-83.25547 56.837284 8.5093346
-83.413315 56.834694 9.8578434
-83.408211 56.869282 9.5159321
-83.394119 56.919891 8.8304806
-83.376991 56.897205 8.4810858
-83.369453 56.919846 8.1397877
-83.353149 56.900742 7.79319
-83.340332 56.89801 7.4499249
-83.784416 56.661629 17.837408
-83.520065 56.818058 9.8170614
-83.495392 56.883183 8.7856884
-83.479767 56.869888 8.4377623
-83.469711 56.882576 8.0948601
-83.456993 56.882587 7.7508898
-83.443665 56.879597 7.4073873
-83.642265 56.832157 9.7617388
-83.602791 56.902077 8.3834009
-83.760696 56.818653 9.6915865
-83.71579 56.877159 8.3107481
-83.844894 56.884712 8.5996552
-83.826874 56.870293 8.2506895
-83.820908 56.91087 7.9107151
-83.807983 56.919464 7.5666542
-84.305519 56.62051 18.030039
-84.294212 56.645432 17.648428
-83.945557 56.863945 8.5733881
-83.929359 56.859035 8.2256365
-83.916794 56.87043 7.8812103
-83.905731 56.888523 7.5383439
-84.087372 56.750648 9.9548569
-84.242645 56.816345 8.579669
-84.236938 56.859898 8.2381239
-84.534325 56.681316 13.556555
-84.518295 56.683044 13.190198
-84.510323 56.719086 12.834924
-84.492905 56.714207 12.470002
-84.360405 56.831306 8.9354
-84.340012 56.810467 8.5823984
-84.325539 56.81546 8.2346458
-84.314796 56.83675 7.8900366
-84.303398 56.855064 7.5455375
-84.623688 56.634659 13.559718
-84.50164 56.67038 10.678896
-84.486633 56.674637 10.325154
-84.406883 56.740799 8.2322712
-84.396065 56.7621 7.8878388
-84.380196 56.761086 7.540976
-86.58345 56.356796 17.31942
-86.433731 56.533779 9.8234329
-86.518753 56.521927 9.8581724
-86.772148 56.303631 18.598631
-86.859955 56.280663 18.621462
-86.847298 56.345543 17.438253
-86.952652 56.261181 18.633032
-86.944893 56.344479 17.45579
-86.809425 56.481842 10.636631
-86.811012 56.522156 10.279035
-86.801636 56.521385 9.914197
-86.788902 56.507908 9.5482969
-86.790596 56.548431 9.1929579
-87.007294 56.422485 15.137428
-86.998909 56.42765 14.753258
-86.987106 56.420036 14.367188
-87.148102 56.233025 18.652176
-87.142319 56.361675 17.090094
-87.116486 56.414326 15.533092
-87.106438 56.413918 15.144575
-87.095474 56.409927 14.757098
-87.248749 56.226368 18.655504
-87.242775 56.355148 17.091751
-87.197952 56.412781 14.759158
-87.188499 56.414524 14.375065
-87.35321 56.21339 18.644907
-87.346603 56.341888 17.079788
-87.309349 56.393894 15.130539
-87.298058 56.389851 14.742325
-87.47023 56.227612 18.64139
-87.572662 56.187679 18.615717
-87.504875 56.373028 14.324232
-87.699883 56.228596 18.620621
-87.625458 56.460583 9.8077974
-87.624352 56.494095 9.4469633
-87.61174 56.4865 9.0798149
-87.598267 56.475716 8.713377
-87.597275 56.509434 8.3546991
-87.921425 56.217125 18.606531
-87.740044 56.480846 9.8006353
-88.023933 56.177933 18.603416
-88.150314 56.199596 18.625977
-88.278816 56.204441 18.632828
-88.405823 56.176735 18.610682
-88.539352 56.148861 18.584078
-88.690109 56.181267 18.58721
-88.342392 56.395378 6.4146743
-88.821846 56.176075 18.585693
-88.460724 56.381363 6.3962612
-88.942215 56.150711 18.586397
-89.059334 56.132896 18.597124
-89.17691 56.123497 18.613981
-89.289063 56.095097 18.62615
-89.399406 56.076309 18.642509
-89.182732 56.323799 10.457396
-89.056892 56.342976 6.7584901
-89.157585 56.299847 6.7524567
-89.298683 56.270863 7.8490992
-89.291122 56.288475 7.4831223
-89.8041 56.18721 13.914048
-89.621994 56.247559 8.2249784
-89.709366 56.247433 7.8503003
-89.867264 56.258247 6.7477808
-89.959946 56.254581 6.7661796
-90.145195 56.264381 6.8314147
-90.132446 56.263874 6.4605126
-90.202744 56.258335 6.469903
-90.424927 56.231293 6.4589181
-90.923805 56.218102 6.2646303
-90.982643 56.242001 5.1572547
-91.333969 56.178696 6.6993809
-91.42569 56.177628 7.078496
-91.511993 56.163811 7.4628768
-91.50312 56.169384 7.0832229
-91.574036 56.172363 6.7120419
-91.733215 56.156898 6.7021618
-94.047562 55.566978 18.677563
-94.007774 55.687656 14.039614
-94.071602 55.689884 14.062498
-94.36367 55.635658 14.206755
-94.50312 55.908195 5.4249649
-94.975357 55.552601 18.632217
-94.677399 55.885227 5.4069209
-95.029221 55.534107 18.630968
-95.087555 55.533863 18.637566
-95.1306 55.497753 18.634724
-96.913414 55.303127 18.676445
-96.988701 55.33699 18.691303
-97.062477 55.343418 18.690199
-97.104851 55.271042 18.659046
-97.162506 55.25209 18.650913
-97.227669 55.257442 18.661388
-97.283852 55.241375 18.677454
-97.351685 55.268642 18.71656
-97.619484 55.199726 18.836634
-97.422684 55.535458 6.7104058
-97.490646 55.577435 6.3017969
-97.546234 55.554802 6.2959394
-97.880714 55.169823 18.884903
-97.607216 55.540844 6.2852135
-97.667641 55.488312 6.6974754
-97.672729 55.535389 6.2818279
-97.740166 55.500866 6.7018147
-98.170547 55.183094 18.966984
-98.221504 55.137234 18.973988
-98.04525 55.645641 1.668121
-98.025558 55.633881 1.2476988
-98.103989 55.609104 1.6541469
-98.744232 55.168488 18.620176
-98.330017 55.598049 1.652477
-98.321846 55.613865 1.2296643
-98.824135 55.16362 18.636496
-98.402039 55.577553 1.6490601
-98.470291 55.581638 1.2108556
-98.995125 55.155777 18.650003
-99.074059 55.13789 18.670233
-98.657753 55.558041 2.0503531
-99.147896 55.109608 18.693031
-98.787254 55.479469 4.1826386
-99.229095 55.100544 18.716339
-98.871399 55.474247 4.188982
-99.312111 55.083611 18.728163
-99.416969 55.107925 18.758192
-99.48719 55.053551 18.760202
-99.872368 55.038086 18.843994
-100.07253 55.006111 18.876722
-100.20436 55.031715 18.89801
-100.31461 55.004738 18.899744
-100.4365 55.011719 18.918701
-100.54337 54.990685 18.937752
-82.124985 56.785049 18.097126
-81.84481 56.960751 9.7336512
-82.918976 56.910435 9.1672058
-82.899536 56.914909 8.6554813
-82.877319 56.905178 8.1432352
-83.23069 56.928829 7.6437364
-83.210236 56.930046 7.1335874
-83.170708 56.938812 6.1161776
-83.516853 56.943184 5.627924
-84.230003 56.882805 5.6688495
-84.196663 56.82851 5.1561728
-84.590904 56.884296 5.690556
-84.552757 56.810921 5.1758246
-84.98037 56.821777 6.7378526
-84.959427 56.825714 6.2257028
-84.935249 56.81554 5.713294
-85.307381 56.784309 6.254015
-85.271538 56.72599 5.7378073
-85.257767 56.760372 5.2285614
-85.238365 56.770981 4.718143
-86.983803 56.642006 5.2664514
-87.32888 56.624557 5.2569656
-87.828453 56.449596 9.9100542
-84.10321 56.679855 13.547886
-84.439072 56.668976 13.48595
-85.053947 56.500008 16.228868
-85.0438 56.522778 15.858205
-85.030571 56.532894 15.485136
-85.011925 56.52103 15.106948
-86.000847 56.570263 9.4514027
-86.376709 56.445057 14.168652
-86.372658 56.491608 10.573649
-88.634399 56.195644 15.030807
-88.831284 56.141075 17.420589
-88.756287 56.16877 15.07608
-88.885994 56.202965 14.741411
-89.008621 56.170628 14.76892
-89.149971 56.186623 14.83112
-89.130104 56.241562 13.696166
-89.056808 56.320324 10.715811
-89.273743 56.153572 14.892322
-89.087906 56.282539 7.8466759
-89.59008 56.128513 17.385008
-89.697235 56.094769 17.031389
-89.677284 56.103596 16.238102
-89.645164 56.141777 14.683849
-89.491158 56.259975 7.979897
-91.614876 55.98362 9.9841042
-91.988411 55.874725 13.808596
-91.940323 55.917908 11.87697
-92.232819 55.888771 12.260695
-92.64019 55.728512 17.397673
-92.544479 55.804211 13.7882
-92.688423 55.801849 13.78814
-92.674988 55.802826 13.393872
-92.667496 55.818455 13.005119
-92.83252 55.834705 13.409007
-92.810432 55.814419 13.01001
-92.808914 55.844906 12.625611
-92.802475 55.863102 12.239359
-92.875267 55.856178 10.307091
-92.864868 55.864067 9.925581
-92.868019 55.905434 9.550704
-93.035934 55.89904 10.310081
-93.307961 55.866058 10.291566
-93.451149 55.86974 10.300543
-94.292336 55.827965 9.8427887
-94.273651 55.815681 9.4517231
-94.265404 55.827396 9.0658607
-94.263695 55.854134 8.6830969
-94.248848 55.850456 8.2965794
-94.224785 55.825378 7.9083056
-94.476845 55.622753 14.194502
-94.43248 55.801064 10.649304
-94.424538 55.813541 10.259664
-94.411293 55.813766 9.8688602
-94.388611 55.822674 9.0921659
-94.36734 55.804173 8.7019053
-94.360527 55.818829 8.3176746
-94.348419 55.821255 7.9325218
-94.327072 55.802307 7.5456338
-94.308342 55.78931 7.1606083
-94.285965 55.888161 5.2600026
-94.723137 55.538559 18.816652
-94.591011 55.594517 14.231525
-94.54435 55.797153 10.293356
-94.531227 55.797668 9.901947
-94.516739 55.825256 9.1269503
-94.499519 55.816143 8.7372665
-94.488884 55.822006 8.3508959
-94.476906 55.824711 7.9649615
-94.455627 55.806057 7.5772805
-94.433014 55.784225 7.190444
-94.420982 55.786613 6.8072839
-94.727409 55.58194 14.680696
-94.641472 55.788021 9.5446205
-94.637627 55.809551 9.1582394
-94.620468 55.800732 8.7679443
-94.617889 55.825027 8.3835402
-94.598007 55.809849 7.9944296
-94.584747 55.809681 7.6083546
-94.566147 55.79726 7.2217498
-94.85199 55.57188 14.715619
-94.754723 55.754669 9.5661163
-94.762917 55.803551 9.1836939
-94.741737 55.785942 8.7913322
-94.727188 55.783241 8.4024668
-94.70726 55.76828 8.0130062
-94.706017 55.795593 7.6299295
-94.679367 55.765205 7.2406583
-94.888847 55.767677 9.5859938
-94.876991 55.771545 9.1954088
-94.871796 55.790321 8.8081179
-94.849129 55.769699 8.4158993
-94.83313 55.764 8.0270367
-94.827843 55.782387 7.6421566
-94.813141 55.779476 7.2553649
-94.797081 55.773426 6.8690963
-94.993004 55.776512 8.824501
-94.98642 55.792328 8.4368372
-94.958244 55.759666 8.0434122
-94.948898 55.76915 7.6567273
-94.896484 55.742447 6.4952755
-95.276062 55.745235 6.5783348
-95.365746 55.692947 6.2028227
-95.510712 55.699589 6.6003251
-95.508743 55.724689 6.2144747
-95.488846 55.710396 5.8257389
-95.950935 55.457516 18.802338
-95.620041 55.682613 6.2254143
-95.604332 55.677498 5.8370256
-96.058144 55.41898 18.833736
-95.756981 55.669086 6.6345253
-95.747032 55.676277 6.2458816
-96.151543 55.357143 18.851585
-95.88295 55.663376 6.6523952
-95.869049 55.66161 6.2622581
-95.86628 55.68388 5.8746657
-95.849541 55.675888 5.4851518
-96.269531 55.340477 18.875023
-96.019241 55.676174 6.6605005
-95.997063 55.656368 6.2679043
-95.981865 55.651497 5.8774939
-95.977837 55.67067 5.4893966
-96.148941 55.671227 6.6539102
-96.12252 55.642365 6.2598352
-96.107307 55.637444 5.8688173
-96.304558 55.692619 7.0345793
-96.248604 55.628967 6.2433724
-96.245987 55.651066 5.8538456
-96.237694 55.661037 5.4636445
-96.391937 55.651516 6.229743
-96.372223 55.637455 5.8364792
-96.368073 55.656372 5.4462738
-96.694244 55.44191 14.23015
-96.544945 55.666687 6.6086588
-96.522285 55.646709 6.213244
-96.502434 55.63258 5.8192959
-96.498207 55.651394 5.4283872
-96.799225 55.386383 14.210957
-96.724083 55.458469 10.947484
-96.666176 55.64426 6.589551
-96.639107 55.615177 6.1928587
-96.632027 55.627953 5.8005352
-96.933411 55.365112 14.619068
-96.928535 55.383892 14.20605
-96.870453 55.491013 10.944311
-96.786667 55.62228 6.569777
-96.759483 55.59309 6.1725826
-96.760971 55.623714 5.7810874
-97.074776 55.38694 14.627223
-97.061432 55.38839 14.208311
-97.011879 55.513371 10.944007
-96.914764 55.617588 6.5564432
-96.904755 55.624298 6.1616116
-96.884598 55.609894 5.7656937
-96.871605 55.610336 5.3715878
-97.204704 55.379284 14.636519
-97.199852 55.398258 14.221889
-97.035187 55.593422 6.550324
-97.007729 55.564228 6.1519403
-97.004814 55.585751 5.7585392
-97.00042 55.604172 5.3650818
-97.254395 55.46434 10.942741
-97.173233 55.604988 6.5471616
-97.141258 55.566895 6.1471653
-97.138283 55.588425 5.7529793
-97.125092 55.588886 5.357574
-97.398567 55.583965 5.7459645
-97.524467 55.545322 6.1525903
-97.517075 55.558022 5.7556491
-97.503754 55.558643 5.3582468
-97.646324 55.527618 6.1696744
-97.643448 55.549404 5.7727938
-97.634613 55.559128 5.3752742
-97.787842 55.544807 6.1870842
-97.767235 55.531025 5.7865715
-97.749519 55.523014 5.387279
-97.934792 55.517712 6.9983826
-97.915932 55.535618 6.197907
-97.904167 55.539848 5.7980409
-97.881927 55.523071 5.397295
-98.043411 55.526318 6.2069302
-98.040588 55.548489 5.8077116
-98.013824 55.522923 5.4055109
-98.16925 55.517017 6.2231731
-98.153091 55.512573 5.8212399
-98.144348 55.522793 5.4209409
-98.421425 55.495144 6.2774491
-98.410172 55.499962 5.8747883
-98.392807 55.492725 5.4718151
-98.310104 55.571617 1.8646626
-98.798256 55.145844 18.888203
-98.528267 55.449451 6.2969389
-98.526276 55.472153 5.895298
-98.51815 55.482834 5.4929919
-98.522057 55.517056 5.0923591
-98.659431 55.448063 6.3121977
-98.662163 55.479721 5.9104619
-98.640503 55.463856 5.5054812
-98.63092 55.471466 5.1027007
-98.637962 55.511501 4.7017937
-98.758842 55.384033 6.3206325
-98.789162 55.468918 5.9228592
-98.781273 55.479786 5.5189834
-98.758041 55.460876 5.113699
-98.746933 55.465439 4.7103877
-98.734222 55.466858 4.3072748
-98.719902 55.465137 3.9043908
-98.699409 55.451393 3.5016005
-98.917183 55.457737 5.935286
-98.904762 55.459854 5.5301104
-98.886131 55.44994 5.1247282
-98.865883 55.436863 4.719861
-98.862389 55.456131 4.3169079
-98.852684 55.463398 3.9135795
