# .PCD v0.7 - Point Cloud Data file format
VERSION 0.7
FIELDS x y z
SIZE 4 4 4
TYPE F F F
COUNT 1 1 1
WIDTH 482
HEIGHT 1
VIEWPOINT 0 0 0 1 0 0 0
POINTS 482
DATA ascii
-86.773834 56.595745 7.5246067
-86.952332 56.294708 5.4368663
-99.633209 20.237463 10.410151
-99.639191 20.262997 10.109073
-99.702614 20.645679 5.0777669
-99.673042 19.798328 13.136786
-99.676498 19.821381 12.824963
-99.671844 19.834965 12.5106
-99.665298 19.846254 12.196933
-99.663109 19.862503 11.886865
-99.659073 19.876516 11.57738
-99.646896 19.881008 11.2658
-99.645454 19.897863 10.960273
-99.635902 19.905212 10.652703
-99.636856 19.148296 17.930025
-99.683067 19.241718 17.282549
-99.663979 19.240543 16.932148
-99.666725 19.263908 16.599537
-99.691582 19.31218 16.283796
-99.677986 19.316772 15.944618
-99.674393 19.332561 15.614338
-99.995598 18.072475 17.732954
-100.43251 18.14187 9.3389425
-100.4204 18.145355 9.0417852
-100.40646 18.146833 8.745286
-100.38395 18.139191 8.4475174
-100.37985 18.150932 8.1562281
-100.5589 18.124535 6.7284718
-100.54433 18.125019 6.4386578
-100.54852 18.145157 6.1531658
-100.53045 18.141886 5.8641691
-100.51747 18.143932 5.5768375
-100.70222 18.151865 3.5904408
-100.68922 18.153898 3.3054671
-100.67451 18.154121 3.0207436
-100.66501 18.159761 2.7365136
-100.66069 18.170834 2.4525375
-100.64776 18.172878 2.1684809
-100.75668 18.039673 1.3147932
-102.1495 13.966228 3.8153617
-102.17258 14.065615 2.1782916
-102.18153 14.08646 1.9049245
-102.17329 14.092962 1.6314596
-102.17088 14.104346 1.357815
-102.15897 14.107787 1.0843416
-102.17587 14.135353 0.80940747
-102.02467 11.929587 22.431484
-102.0527 11.709991 22.379581
-102.41999 12.702847 7.8760514
-102.40631 12.70564 7.5965738
-102.41402 12.724981 7.3227983
-102.38863 12.71859 7.0426803
-102.62566 12.50489 4.8786621
-102.68037 12.372346 3.2570274
-102.68191 12.386339 2.9877443
-102.33163 11.011637 21.213856
-102.35608 11.062981 20.517355
-102.61153 11.64088 12.362597
-102.7393 12.00146 6.7718644
-102.73372 12.010236 6.497992
-102.69437 11.993912 6.2190313
-102.70081 12.011532 5.9487686
-102.68143 12.009947 5.674993
-102.69998 12.036545 5.4073024
-102.50672 10.662475 21.21105
-102.69172 11.173486 13.20209
-102.70063 10.78521 16.537493
-102.6854 10.789374 16.21081
-102.66 10.786308 15.881213
-102.65425 10.796822 15.565441
-104.76587 5.3088565 13.319367
-104.77906 5.3643627 12.15589
-104.96401 5.3257957 10.216191
-104.94892 5.3421769 9.6537514
-104.94225 5.3506947 9.3747377
-104.93081 5.3684635 8.8208208
-104.92609 5.3777447 8.5457945
-105.17931 5.7447505 2.6899023
-104.6265 4.4476981 22.431849
-104.86706 4.7997222 16.713165
-105.09125 5.2559528 8.3074398
-105.0806 5.3299899 6.4105392
-105.07418 5.3381672 6.1416764
-105.17904 5.5091043 3.2277489
-105.17434 5.5179343 2.9626789
-104.90001 4.6103806 16.71397
-105.2402 5.313982 3.5026233
-105.24683 5.3279905 3.2378771
-105.41608 5.2923546 0.85791993
-105.41087 5.300849 0.59127766
-104.91442 4.1331425 18.651331
-104.97749 4.1736636 18.353848
-105.46886 5.0924187 1.1293139
-105.48409 5.110106 0.86209762
-105.46079 5.1103363 0.596286
-105.54439 4.9136343 1.126554
-105.55059 4.9271131 0.85953373
-105.52729 4.9274235 0.59363449
-86.496925 55.837074 19.115019
-86.535004 56.553738 13.518326
-86.576981 56.673 10.616693
-86.617424 56.685242 8.4698801
-86.699638 56.637814 8.4793339
-86.701485 56.678802 8.1253071
-86.68988 56.668846 7.7646518
-86.680008 56.665375 7.4058275
-86.773689 56.519089 8.8267241
-86.77124 56.543903 8.4702492
-86.762894 56.546524 8.1111212
-86.761398 56.574814 7.756258
-86.751457 56.571293 7.3977818
-86.820099 56.151951 10.57318
-86.806641 56.441849 7.0255413
-86.80014 56.451317 6.6707268
-86.892532 56.424576 6.6660795
-98.823647 21.406181 18.888151
-98.842934 21.223568 18.838726
-98.863152 21.041201 18.786982
-98.958618 21.361847 14.387727
-99.330063 21.745663 5.695611
-99.330124 21.75712 5.4728312
-99.338036 21.821541 4.3640628
-99.321304 21.514423 5.8981423
-99.315529 21.520279 5.6750078
-99.322716 21.538446 5.4545631
-99.370712 21.742212 2.3696067
-100.02139 18.157787 18.289881
-100.01563 18.192408 17.410976
-100.03777 18.222628 17.142799
-100.05099 18.245716 16.869997
-100.02811 18.240219 16.572578
-100.00951 18.23793 16.281624
-100.00209 18.244358 16.001852
-99.992355 18.248825 15.723171
-100.10735 17.6273 19.108255
-100.38343 18.253803 9.8639717
-100.38369 18.264158 9.6325521
-100.38227 18.273149 9.4015846
-100.3716 18.274826 9.1684322
-100.50214 18.274136 7.1611834
-100.50613 18.286989 6.9401255
-100.50082 18.292538 6.7175131
-100.48619 18.290745 6.4936223
-100.46998 18.28768 6.2702799
-100.45999 18.289455 6.0489683
-100.44067 18.283869 5.8266902
-100.59749 18.273249 4.5309248
-100.5989 18.283886 4.3136272
-100.59881 18.293348 4.0963573
-100.58936 18.295481 3.8785353
-100.57056 18.290268 3.6604393
-100.56598 18.296185 3.443614
-100.55991 18.300926 3.2268832
-100.71107 18.276031 2.1379595
-100.64866 18.236967 1.9217196
-100.75615 18.14057 1.6968269
-100.75375 18.148407 1.4789816
-100.75774 18.161198 1.2605776
-101.26896 14.278772 19.166756
-101.75761 14.212013 8.9792871
-101.59707 13.063178 22.838842
-101.61358 12.918291 22.814835
-101.62109 12.769219 22.785522
-101.90057 12.863292 16.969109
-101.89733 12.885141 16.404062
-102.28276 12.134321 14.140071
-102.559 12.243855 7.9842868
-102.6742 12.211515 6.6642199
-102.69417 12.06476 6.8972383
-102.68048 12.066902 6.6705632
-102.67375 12.072619 6.4460177
-102.68593 11.905293 7.1216836
-102.69158 11.917385 6.8984537
-102.69547 11.928548 6.6753969
-104.53017 5.4656982 16.911154
-104.58054 5.4916306 16.643005
-104.56084 5.4960098 16.337448
-104.58889 5.5149436 16.060984
-104.57167 5.5198879 15.762327
-104.56854 5.5290675 15.473902
-104.55396 5.5346274 15.182121
-104.69512 5.4662957 14.692678
-104.6726 5.4692488 14.402975
-104.66468 5.476583 14.122709
-104.6628 5.4856939 13.847445
-104.82349 5.4554729 12.576527
-104.82274 5.491786 11.526077
-104.82331 5.5009618 11.267643
-104.82153 5.5093632 11.009851
-104.84476 5.5254178 10.761753
-104.79305 5.5271215 10.237722
-104.96137 5.51162 8.5445766
-104.99108 5.5291991 8.3057337
-105.00515 5.5669742 7.3329706
-104.9964 5.5725536 7.0892959
-104.97614 5.5745316 6.8444629
-104.50779 4.7749038 22.110287
-104.53045 4.6205239 22.825649
-104.67812 4.8253527 18.213493
-104.69135 4.8398762 17.911081
-104.78814 4.8994126 17.05307
-104.71667 4.6904826 18.532862
-104.7797 4.5781417 18.570621
-104.80295 4.4618802 18.596579
-104.81818 4.3363786 18.940966
-104.89646 4.3685875 18.671535
-105.33242 4.965899 4.7027364
-105.32032 4.9703746 4.462142
-105.32833 4.9887486 3.984462
-105.31017 4.991405 3.7446542
-105.50175 5.0021033 1.1180438
-99.391899 22.038935 1.239149
-99.355568 22.021908 0.91407776
-99.130432 20.449493 18.335913
-99.525635 20.570839 10.363518
-99.533218 20.596321 10.03359
-99.538643 20.619755 9.7039003
-99.538918 20.693045 8.3880482
-99.540871 20.713005 8.0615826
-99.560867 20.875723 5.4705043
-99.57695 20.9445 4.5053101
-99.681755 21.204548 1.6059593
-99.553703 20.096205 13.029283
-99.572044 20.131643 12.695357
-99.54554 20.126087 12.34514
-99.552216 20.150721 12.009458
-99.53524 20.153673 11.666451
-99.515953 20.1544 11.324393
-99.537292 20.192242 10.997767
-99.527802 20.201794 10.661832
-99.502304 19.431578 17.891588
-99.553894 19.497444 17.554523
-99.575661 19.536665 17.201641
-99.546654 19.530478 16.822481
-99.563271 19.564867 16.471088
-99.570465 19.590738 16.116554
-99.568192 19.608027 15.759151
-99.556389 19.616669 15.399161
-100.10146 18.503824 11.884037
-100.09109 18.513069 11.547661
-100.49323 18.507467 4.7938285
-100.4949 18.526045 4.4769669
-100.47915 18.530014 4.1588836
-102.01109 14.037584 5.4595308
-102.01116 14.054029 5.1492682
-101.99239 14.057894 4.8374896
-102.0138 14.121221 3.9111519
-102.02956 13.475214 9.8214436
-102.03717 13.497034 9.5045652
-102.0424 13.517267 9.1879654
-102.0288 13.52523 8.8678112
-102.01659 12.23492 20.37912
-102.02125 11.851469 21.471684
-102.05211 11.890176 21.103443
-102.27989 11.395777 20.734316
-102.56909 12.165666 9.1749306
-102.66595 12.590562 2.0451269
-102.68393 12.617381 1.7365735
-102.67402 12.627142 1.427966
-102.6131 11.711884 12.053452
-104.81799 5.6728106 10.418294
-104.84415 5.6977882 10.102634
-104.80402 5.6969361 9.7718287
-104.82481 5.7197309 9.4569082
-104.77909 5.7165561 9.128087
-104.73383 4.9788456 17.86694
-104.69444 4.9973874 17.125174
-105.28316 5.6384225 1.0673863
-105.29782 5.6583619 0.755696
-105.38132 5.3393874 1.3763417
-105.37989 5.3533163 1.0651767
-105.35719 5.3592553 0.75457752
-105.36002 5.3747997 0.44297394
-86.376656 56.54221 17.203096
-99.55249 21.546707 1.6205162
-99.542229 21.548372 1.3904549
-99.530357 21.548834 1.1604651
-99.549431 21.444136 1.6187059
-99.539185 21.445797 1.3889935
-99.715599 20.481445 6.4206223
-99.725838 20.516617 5.7267995
-99.713013 20.535316 5.0332489
-99.68647 20.525728 4.8003545
-99.701553 20.554836 4.343545
-99.805428 20.683945 2.9750319
-99.561195 19.414333 18.534245
-99.573219 19.326748 18.521099
-99.59272 19.243353 18.513103
-99.604828 19.156879 18.498415
-99.610291 19.06727 18.476196
-99.631508 18.986464 18.463007
-99.72834 19.097429 17.328129
-99.660759 18.908173 18.455042
-99.722473 18.960411 18.19556
-99.721313 18.995335 17.294847
-99.663177 18.809809 18.424826
-99.717628 18.857191 18.160341
-99.734016 18.87986 17.86982
-99.701172 18.882318 17.250641
-99.728607 18.762321 18.134092
-100.00169 18.234636 17.63755
-99.986069 18.248896 17.033272
-100.00005 18.269388 16.750092
-99.989212 18.274349 16.453175
-99.968239 18.272869 16.152729
-100.07878 18.278212 15.359979
-100.05531 18.274837 15.068066
-100.05216 18.283997 14.790597
-100.05429 18.29635 14.518341
-100.04244 18.03231 18.554123
-100.41571 18.299894 8.2898321
-100.41338 18.307873 8.0503502
-100.41753 18.319836 7.8133349
-100.39489 18.315134 7.5706844
-100.37872 18.3144 7.3307118
-100.38576 18.328064 7.0967712
-100.49121 18.299162 7.115263
-100.49665 18.311775 6.8806133
-100.49194 18.318077 6.6445079
-100.48544 18.323242 6.4087615
-100.48556 18.332491 6.1748443
-100.46709 18.330177 5.9384208
-100.42999 18.316252 5.7000279
-100.56493 18.314159 5.4832659
-100.56658 18.324236 5.2507644
-100.54959 18.322744 5.0163498
-100.55623 18.335876 4.7852178
-100.52728 18.326923 4.550693
-100.50505 18.322105 4.3176246
-100.62158 18.317455 3.8617024
-100.62817 18.330446 3.6308217
-100.61607 18.33185 3.3990223
-100.61924 18.34271 3.168133
-100.58672 18.331427 2.9362397
-100.58646 18.340147 2.7055869
-100.70003 18.324795 2.4720111
-100.69944 18.342146 2.0085902
-100.70602 18.258957 1.7714823
-100.73582 18.191177 1.5342007
-100.74219 18.204 1.3017426
-100.74682 18.215765 1.0690128
-100.76671 18.236935 0.83491975
-102.19419 14.124247 1.681442
-102.19212 14.140424 1.2064054
-102.18826 14.147189 0.9687413
-102.19685 14.046939 1.2057692
-102.19298 14.053736 0.96819329
-102.17384 13.897509 2.3937802
-102.23048 13.484046 6.691112
-102.23415 13.494374 6.4501629
-102.22688 13.499726 6.2079859
-102.22423 13.386296 6.6891909
-102.22793 13.396605 6.4484143
-102.22065 13.401962 6.2064095
-102.23235 13.432999 5.4886785
-102.22202 13.239138 8.1490469
-102.20924 13.268586 7.1688795
-102.21677 13.28066 6.9278522
-102.21696 13.298105 6.4447904
-102.21863 13.307502 6.2043958
-102.21836 13.31601 5.964222
-102.21245 13.098207 9.6499901
-102.20479 13.103915 9.3961248
-102.19497 13.108634 9.1429005
-102.2008 13.120194 8.8950768
-102.18842 13.132625 8.3960876
-102.18565 13.149145 7.9033833
-102.20223 13.021955 9.1424656
-102.19399 13.03645 8.6422529
-102.39001 12.887358 7.1878829
-102.57901 12.808694 3.832463
-102.5871 12.820934 3.5928457
-102.56575 12.820501 3.3519826
-102.57 12.831077 3.1124482
-102.57233 12.840823 2.8728521
-102.57273 12.849743 2.6332123
-102.57122 12.857834 2.3935473
-102.5586 12.861132 2.153929
-102.06798 11.814551 22.49959
-102.58922 12.718145 3.8339491
-102.58817 12.726439 3.5938618
-102.57602 12.729974 3.3534675
-102.58031 12.740535 3.1139333
-102.57348 12.746337 2.8741286
-102.56474 12.751309 2.6344545
-102.57823 12.774543 2.1553597
-102.07365 11.725394 22.501398
-102.58007 12.619926 3.8346815
-102.57906 12.628211 3.5947685
-102.56693 12.631763 3.3545473
-102.08011 11.634212 22.503265
-102.27692 11.916765 17.032688
-102.64794 12.510009 5.0456457
-102.64373 12.560799 3.5995696
-102.64084 12.568309 3.3592098
-102.64521 12.578889 3.1192412
-102.63845 12.584757 2.8789999
-102.62976 12.589801 2.6388891
-102.27703 11.82291 17.028355
-102.64825 12.371515 6.2592158
-102.63939 12.3767 6.0141582
-102.656 12.392467 5.7732706
-102.63398 12.392132 5.5276227
-102.665 12.413888 5.2890782
-102.62064 12.404185 5.0421829
-102.66615 12.431983 4.8053632
-102.64541 12.432096 4.5620909
-102.67788 12.454456 4.3237405
-102.72677 12.553858 2.1590374
-102.71228 12.556512 1.9183811
-102.70507 12.562234 1.6777028
-102.2832 11.733962 17.029539
-102.29669 11.648695 17.037001
-102.689 12.193775 6.511601
-102.6914 12.203625 6.2674088
-102.67346 12.205099 6.0207491
-102.67184 12.213256 5.7771807
-102.65905 12.216793 5.5326977
-102.63506 12.215693 5.28758
-102.70671 12.152956 5.301301
-102.72662 12.178662 4.8190622
-102.72442 12.186518 4.5770826
-102.68336 12.178389 4.3323298
-102.74067 12.075303 5.3111925
-102.73612 12.108507 4.3426557
-102.72816 11.980613 5.3152847
-102.76482 12.021722 4.5924754
-102.33686 11.19663 20.272284
-102.32983 11.205951 19.932886
-102.7797 11.912751 5.3280926
-102.77251 11.92725 4.8420753
-102.61243 11.497802 12.654923
-102.59661 11.406801 12.654613
-102.81493 11.544669 8.8130741
-102.68062 11.238618 13.510746
-102.6303 11.248659 12.6674
-102.81886 11.461033 8.8131447
-102.63339 11.013748 16.966856
-102.64552 11.039822 16.37027
-102.66395 11.057382 16.082394
-102.62093 11.051705 15.764167
-102.6421 11.070125 15.482545
-102.6268 11.074703 15.184397
-102.6256 11.084517 14.895863
-102.66428 11.109347 14.628845
-102.66635 11.120254 14.34586
-102.66576 11.130083 14.063713
-102.67117 11.142113 13.786307
-102.63078 11.13667 13.490662
-102.63963 11.149858 13.218867
-102.68559 11.206086 12.151756
-102.6823 11.214369 11.883018
-102.92514 11.534089 5.6084261
-102.67753 10.974242 16.393892
-102.67948 10.985546 16.096687
-102.65339 10.986241 15.787158
-102.65794 10.998332 15.496519
-102.66818 11.01248 15.211034
-102.64175 11.012758 14.909516
-102.64649 11.024676 14.62588
-102.64857 11.035519 14.343054
-102.63943 11.042047 14.057109
-102.63625 10.862125 16.983999
-102.70872 10.931252 15.825329
-102.70519 10.940263 15.529785
-102.69883 10.948121 15.235275
-102.69813 10.958016 14.946028
-102.67762 10.960406 14.649479
-102.67995 10.971272 14.366334
-102.67102 10.977839 14.080065
-102.75403 10.903876 14.983688
-102.75093 10.912745 14.694821
-102.73653 10.917315 14.402874
-102.73655 10.927188 14.120005
-102.72529 10.932772 13.834114
-102.52999 10.518059 21.510027
-102.52863 10.449411 21.524746
-102.76966 10.735508 15.891056
-102.75836 10.771235 14.720579
-102.9938 11.015338 8.1480646
-103.0459 11.060512 7.4058366
-103.037 10.960366 8.1664381
