# .PCD v0.7 - Point Cloud Data file format
VERSION 0.7
FIELDS x y z
SIZE 4 4 4
TYPE F F F
COUNT 1 1 1
WIDTH 914
HEIGHT 1
VIEWPOINT 0 0 0 1 0 0 0
POINTS 914
DATA ascii
-97.239449 55.667515 9.2721701
-99.930328 30.589581 18.318983
-99.935196 29.581221 13.323259
-100.01102 28.905048 18.235916
-99.919327 29.114635 13.223866
-100.08959 28.589592 18.16186
-100.13506 28.22057 18.053837
-100.15155 27.814817 17.924778
-100.20069 27.913626 17.572853
-100.16232 27.410147 17.797827
-100.19028 27.47718 17.433794
-100.18454 27.49535 17.048048
-100.198 27.541162 16.677395
-100.20419 27.576321 16.303644
-100.18389 27.598827 15.5414
-100.16806 27.652723 14.422539
-99.971184 28.138046 3.1749306
-100.175 27.113039 16.163149
-100.15118 27.181046 14.67156
-100.29962 26.450478 16.383837
-100.28867 26.460468 16.006445
-100.27566 26.467411 15.630116
-100.26059 26.471315 15.254884
-100.22987 26.477819 14.510974
-101.1926 17.866089 18.149633
-101.08629 18.047136 12.826086
-101.10278 18.08115 12.52161
-101.09064 18.085794 12.205464
-101.06976 18.081383 11.887325
-101.0602 18.088478 11.57587
-101.04865 18.09343 11.265193
-101.02836 18.089333 10.95269
-101.00607 18.083073 10.64119
-100.99528 18.088554 10.335645
-100.96902 18.078035 10.026062
-100.97469 18.100292 9.7290316
-100.95133 18.092602 9.4234266
-100.93973 18.113173 8.8273745
-101.16554 17.522711 18.38282
-100.98329 18.132883 3.885278
-100.97197 18.136967 3.5983384
-100.95197 18.132053 3.3112309
-100.93022 18.125319 3.0245473
-100.9276 18.138332 2.7389734
-100.90934 18.135168 2.4530764
-100.89631 18.137392 2.1675415
-100.88849 18.145018 1.882129
-100.87894 18.150846 1.5967264
-101.74236 12.391557 18.476835
-101.68937 12.088832 18.700546
-101.73322 12.139113 18.396866
-101.69611 11.853312 18.638422
-101.76775 11.924229 18.35498
-101.81373 11.718649 18.325644
-101.94827 10.901893 22.439981
-101.7845 10.951637 18.788153
-101.95147 10.671706 22.366961
-101.89596 10.383026 22.617508
-101.96744 10.219473 22.232567
-101.98695 10.006573 22.174112
-102.00306 9.7614965 17.91917
-101.97504 9.5615883 16.894529
-101.95054 9.2638693 18.101166
-101.97018 9.3336945 16.839289
-101.94268 9.4236574 14.397344
-101.96817 9.466713 13.825692
-101.96902 9.4930172 13.24898
-101.96597 9.5037231 12.961762
-101.77206 9.8174992 2.926811
-101.95732 9.1020498 16.777128
-101.96774 9.2419357 13.781392
-101.9604 9.2625847 13.202825
-101.96491 9.2781868 12.920135
-101.95934 9.2995138 12.353302
-101.96496 9.3156338 12.075989
-101.95262 9.319788 11.792777
-101.96177 9.3381062 11.519896
-101.81705 9.6205702 2.9226379
-101.94751 8.9515104 14.893658
-101.95034 9.0679159 12.307814
-101.93993 9.0734482 12.024875
-101.93518 9.0825987 11.746042
-101.9441 9.1006298 11.474233
-101.93497 9.1067801 11.196748
-101.95018 9.1408253 10.65864
-101.869 9.2500582 6.9584122
-101.88565 9.2837467 6.4504218
-101.87058 9.2850113 6.192944
-101.87835 9.3014288 5.9400854
-101.87402 9.332181 5.1796665
-101.86612 9.3380804 4.9262714
-101.82431 9.3546715 3.9165351
-101.84868 9.3820715 3.6676278
-101.83805 9.3860483 3.4162846
-101.83543 9.4286299 2.4145074
-101.83231 9.4376183 2.1640606
-101.81908 9.4398079 1.9136344
-101.81207 9.4572639 1.4127246
-101.80861 9.4882669 0.65992212
-102.06895 8.7211514 16.729244
-101.88181 9.1002579 5.4152474
-101.86734 9.1019449 5.1613469
-101.86762 9.1133156 4.9099193
-101.85774 9.1179781 4.6576943
-101.83771 9.1159153 4.404952
-101.84911 9.1345701 4.1557202
-101.84204 9.1410284 3.9050002
-101.86646 9.1682806 3.656785
-101.83075 9.1557865 3.4046779
-101.81821 9.1585846 3.1545386
-101.82884 9.1767187 2.9056029
-101.83767 9.1936588 2.6564243
-101.82801 9.19835 2.4067426
-101.8332 9.2128897 2.1573098
-101.81158 9.2096338 1.9077954
-101.80481 9.2162313 1.6583935
-101.8212 9.2382326 1.4083908
-101.81079 9.242424 1.1587994
-101.80688 9.250947 0.90888917
-101.80116 9.2582626 0.65888834
-102.0771 8.2905817 21.316139
-102.26247 7.1637435 20.466984
-102.24888 7.1708937 20.11311
-102.23187 7.1759 19.760788
-102.29275 4.9234114 7.9596896
-102.29033 4.9326043 7.710506
-102.29469 4.9451275 7.4636965
-97.351501 55.781269 17.923185
-97.345551 55.804359 17.472214
-97.334358 55.814671 17.019152
-97.290024 55.927921 14.360857
-97.259476 55.926247 13.479024
-97.286568 56.028023 13.06579
-97.381187 55.663349 18.349796
-97.320755 55.923523 13.481095
-97.256798 55.983437 10.888643
-97.275421 56.064354 10.474274
-97.25174 56.112995 9.1998558
-97.182617 56.014626 8.336998
-97.249107 55.918808 9.6059484
-97.231956 55.982746 8.3425093
-97.23851 56.033936 7.9263897
-97.195053 55.886539 6.6631484
-97.402428 55.260239 18.747599
-97.253098 55.881981 6.6822629
-97.227715 55.736313 5.8559675
-97.21907 55.748707 5.4398537
-99.598648 34.102806 19.076221
-99.612274 33.86277 19.004543
-99.953293 30.302599 17.107965
-99.934021 29.986853 12.945056
-99.908485 29.662466 13.451978
-99.955833 29.756905 12.89283
-99.96051 29.512718 12.840354
-99.987434 29.050028 17.032911
-99.973618 29.283052 12.798933
-99.992462 29.05991 12.761178
-100.21732 26.282019 6.6729355
-101.09899 18.062103 18.314383
-101.12137 18.092115 18.031643
-101.1141 18.099724 17.728649
-101.0905 18.094896 17.416597
-101.10549 18.118988 17.136457
-101.12508 18.146442 16.861986
-101.12157 18.156364 16.573347
-101.11562 18.164331 16.285757
-101.08622 18.154442 15.984975
-101.06832 18.153118 15.695127
-101.06923 18.165897 15.420383
-101.04656 18.160719 15.132933
-101.07145 18.191471 14.877974
-101.02986 18.171709 14.583995
-101.02895 18.182697 14.317495
-101.01145 18.180996 14.043398
-101.20108 17.929777 18.640915
-101.06575 18.203661 10.045698
-101.05956 18.209406 9.8060265
-101.04394 18.207909 9.5642223
-101.02269 18.212353 9.0881653
-101.03253 18.230135 8.858593
-101.00988 18.223038 8.6195946
-100.98547 18.214533 8.3814764
-100.99802 18.234264 8.1554232
-100.97795 18.228981 7.9208512
-100.94842 18.216383 7.6849885
-100.94828 18.22628 7.4579959
-100.94653 18.234909 7.2313013
-100.94317 18.242273 7.0049238
-100.9304 18.242373 6.7771616
-100.9473 18.265253 6.5564599
-100.90003 18.238729 6.3232322
-100.92162 18.265184 6.1044092
-100.91315 18.278254 5.6582003
-100.96012 18.26895 2.3490925
-100.95428 18.274204 2.1294985
-100.88362 18.229383 1.911467
-101.23659 17.532866 19.166693
-101.39371 15.883972 19.24906
-101.33846 15.673841 19.164579
-101.37946 15.528499 19.15753
-101.43251 15.576231 18.893524
-101.42905 15.404195 18.85565
-101.42726 15.23552 18.829012
-101.41681 15.061167 18.79888
-101.43657 14.905384 18.787519
-101.45712 14.750658 18.772646
-101.46993 14.592666 18.751392
-101.4897 14.439309 18.735369
-101.60201 14.158567 23.072336
-101.50845 14.285057 18.719603
-101.60819 13.997712 23.040506
-101.52621 14.131904 18.703495
-101.5874 13.823853 22.981976
-101.55051 13.984831 18.692238
-101.60252 13.676692 22.962662
-101.57182 13.840655 18.681215
-101.60796 13.528294 22.937918
-101.68279 13.586331 22.656769
-101.57623 13.690163 18.660049
-101.68059 13.43356 22.627203
-101.60124 13.552122 18.656998
-101.68528 13.282036 22.604061
-101.61188 13.403677 18.642784
-101.69193 13.131043 22.578054
-101.63116 13.259828 18.63131
-101.69511 12.978244 22.541368
-101.64588 13.113379 18.609985
-101.69589 12.825041 22.505884
-101.74778 12.868143 22.207108
-101.64388 12.958582 18.578684
-101.69478 12.668975 22.473419
-101.73301 12.70437 22.162262
-101.74768 12.726748 21.832882
-101.64751 12.805451 18.556007
-101.68489 12.508533 22.437037
-101.72296 12.543664 22.126287
-101.7511 12.573272 21.809898
-101.62029 12.635963 18.513487
-101.7008 12.692567 18.27696
-101.6999 12.728864 17.400339
-101.6943 12.36023 22.418869
-101.71194 12.384245 22.089247
-101.76044 12.424624 21.792139
-101.65026 12.499281 18.514618
-101.70166 12.539694 18.256023
-101.67059 12.559578 17.359095
-101.70629 12.231378 22.057974
-101.78217 12.286019 21.786369
-101.66446 12.356992 18.503963
-101.70124 12.389264 18.234476
-101.72813 12.416121 17.959938
-101.70049 12.413472 17.648367
-101.64735 12.396901 17.322535
-101.73978 12.115464 21.725996
-101.66212 12.207469 18.484133
-101.68417 12.23165 18.203903
-101.71834 12.262197 17.935249
-101.70539 12.267473 17.634789
-101.64462 12.247025 17.303873
-101.76602 11.994749 21.399609
-101.68548 12.083791 18.194235
-101.69746 12.102409 17.90947
-101.69182 12.11157 17.61482
-101.64583 12.099215 17.294861
-101.68509 11.934674 18.186872
-101.68967 11.949353 17.896883
-101.68397 11.958508 17.602528
-101.68233 11.796499 17.883665
-101.66511 11.376705 10.442974
-101.64302 11.225343 10.43322
-101.76435 10.619548 9.7405577
-101.68482 10.608948 5.5844164
-101.7322 10.640631 5.3810821
-101.72449 10.645332 5.1700883
-101.72402 10.653571 4.9604702
-101.73084 10.665371 4.7519836
-102.10511 9.1328821 21.047359
-102.08305 8.7161446 21.67775
-101.92961 8.9838524 13.003773
-101.93431 8.9954004 12.760696
-102.10967 8.5939808 21.69029
-102.13106 8.6289778 21.038984
-101.86282 9.0545292 7.0586886
-101.85095 9.0576477 6.8425665
-101.84631 9.0639076 6.628715
-101.83992 9.0693684 6.4152293
-101.83178 9.0740337 6.202127
-101.84904 9.0898619 5.9939022
-101.80122 9.0769892 5.7757354
-101.79694 9.083272 5.5652919
-101.85544 9.0299673 4.3189487
-101.87589 9.0471029 4.1126108
-101.87641 9.0554752 3.9047186
-101.87527 9.0631075 3.6968875
-101.86334 9.0659676 3.4886818
-101.85888 9.0721159 3.2811067
-101.85276 9.0775261 3.0736401
-101.86327 9.0902853 2.866677
-101.8447 9.0901766 2.659198
-101.85191 9.1014757 2.4520948
-101.83003 9.0998859 2.2450304
-101.82479 9.1056662 2.0380096
-101.83617 9.1188288 1.8305248
-101.81848 9.1190853 1.6237364
-101.82653 9.1307888 1.4159206
-101.81467 9.1336365 1.2088481
-101.79204 9.1316853 1.0024624
-102.1044 8.5147867 17.036882
-102.04971 8.6175613 13.79817
-101.87447 8.9112234 4.3205996
-101.89498 8.9283018 4.1141744
-101.90469 8.9406719 3.906821
-101.87614 8.9363213 3.6972005
-101.89167 8.9512272 3.4904354
-101.88724 8.9573994 3.282686
-101.8903 8.9668493 3.0753219
-101.87339 8.9675417 2.8675282
-101.86207 8.9787703 2.4529457
-101.86765 8.9893255 2.2456656
-101.87157 8.9991579 2.038224
-101.8653 9.0126152 1.6232531
-101.85509 9.0162354 1.4159299
-101.8615 9.0271931 1.2076677
-102.04076 8.3646097 16.991346
-102.03473 8.3730745 16.70657
-102.04607 8.3992777 16.160551
-102.03967 8.4072561 15.883965
-102.03859 8.417325 15.613335
-102.04298 8.4295492 15.348463
-102.07374 8.4729633 14.577287
-102.05995 8.4872885 14.055055
-102.06262 8.5178356 13.300019
-101.88424 8.789259 4.3221054
-101.88711 8.8066645 3.9064486
-101.88604 8.8142748 3.6987033
-101.88331 8.8211555 3.4910345
-101.90641 8.8392458 3.2845519
-101.87285 8.8327312 3.0759902
-101.8743 8.8414135 2.8688364
-101.87409 8.8493738 2.6616485
-101.88139 8.8606062 2.4544575
-101.85952 8.8591328 2.2473035
-101.88183 8.8769197 2.0397184
-101.87498 8.8819933 1.8323759
-101.87563 8.8903456 1.6247451
-101.87461 8.8979759 1.4170003
-101.87192 8.9048834 1.2091575
-101.84927 8.9030533 1.0024208
-102.09488 8.2623978 17.023237
-102.08913 8.2709866 16.738014
-102.09645 8.2847757 16.464113
-102.07701 8.2875614 16.176062
-102.07076 8.2956009 15.899247
-102.08601 8.3123255 15.638105
-102.05812 8.3113165 15.353722
-102.04369 8.3156986 15.080215
-102.05118 8.3289557 14.821783
-102.04795 8.3377371 14.559556
-102.03394 8.3419933 14.293795
-102.05057 8.3587608 14.046737
-102.03511 8.3720121 13.53303
-101.85604 8.6517763 4.3193512
-101.86749 8.6647329 4.1125603
-101.86734 8.7851477 1.0022625
-102.1109 8.1414909 17.027987
-102.0481 8.2405739 13.78678
-102.06849 8.2586832 13.54527
-102.0773 8.2816477 13.051285
-102.05998 8.2936163 12.552273
-102.0692 8.3068285 12.313721
-102.05055 8.308527 12.064428
-102.06399 8.3233509 11.830888
-102.04947 8.3266068 11.586978
-102.05869 8.3395786 11.354541
-102.0398 8.3409023 11.112267
-102.04484 8.3520374 10.881022
-101.84617 8.521719 4.3173161
-101.86681 8.5385504 4.111412
-102.11193 8.0146856 17.021429
-102.03183 8.1073961 13.77253
-102.08572 8.1390181 13.548203
-101.85457 8.4005451 4.316072
-101.86605 8.4134645 4.1094556
-102.10982 7.8912425 17.0151
-102.0211 7.9803324 13.762797
-102.09182 8.0184822 13.547097
-102.01895 8.1884108 8.3826141
-101.86122 8.2799091 4.3149462
-101.85433 8.2850819 4.1069055
-102.12041 7.7760954 17.02231
-102.15158 7.8723464 14.862501
-102.0702 7.889483 13.536331
-102.06135 8.0495939 9.2826815
-102.03294 8.072216 8.3869419
-102.10458 7.6517324 17.018177
-102.15386 7.713304 15.939197
-102.1114 7.737464 14.845684
-102.14996 7.7625675 14.605906
-102.05492 7.7641335 13.534154
-102.07376 7.9336939 9.2917204
-102.1849 7.6065392 15.9665
-102.11048 7.6181326 14.853213
-102.14922 7.6430893 14.613446
-102.13577 7.6476531 14.346973
-102.16154 7.6674314 14.103617
-102.06301 7.6481066 13.5459
-102.13242 7.7127557 12.589148
-102.07553 7.8137732 9.2992125
-102.04694 7.8108234 9.0669546
-102.06113 7.8248906 8.8487329
-102.01196 7.8219209 8.3933592
-102.14417 7.4715261 15.947287
-102.1024 7.4956436 14.854049
-102.15784 7.5268583 14.623483
-102.14452 7.5314589 14.356928
-102.15371 7.5446777 14.104695
-102.0552 7.5255713 13.547112
-102.14973 7.5810232 13.094612
-102.1335 7.5932107 12.594617
-102.05099 7.6835504 9.2963314
-102.07613 7.7018819 9.080472
-102.05458 7.7017121 8.8515673
-101.99646 7.6952567 8.3939114
-102.08939 7.369925 14.845595
-102.07836 7.375464 14.578726
-102.1148 7.3990946 14.339826
-102.12391 7.4121904 14.087904
-102.14545 7.4488358 13.340473
-102.12808 7.4514608 13.083165
-102.11172 7.463551 12.583649
-102.0733 7.5707378 9.3026781
-102.04475 7.5679059 9.0704956
-102.05009 7.57831 8.8497515
-102.00097 7.5755086 8.394701
-102.03365 7.7163663 4.9778519
-102.03229 7.7236614 4.7679415
-102.01997 7.726563 4.5573063
-102.01203 7.4094043 9.7299767
-101.99981 7.4379215 8.832365
-102.02837 7.5928383 4.9750276
-102.00852 7.5927773 4.7632442
-102.0147 7.6030064 4.5546546
-102.18879 6.9766026 16.795525
-102.17291 6.9810886 16.505747
-102.13781 6.9783459 16.207268
-102.11259 7.0282884 14.589314
-102.10745 7.0359402 14.32778
-102.13765 6.9681277 13.331528
-102.10319 6.9644032 13.066204
-102.12128 6.9890976 12.583016
-102.14226 7.0832806 10.227903
-102.08181 7.0771384 9.7516184
-102.07481 7.1631536 7.3207426
-102.04705 7.1604266 7.0992184
-102.03574 7.1639447 6.8822212
-102.02261 7.1667299 6.6657419
-102.00764 7.1687856 6.4497981
-102.00931 7.1771784 6.237577
-102.00921 7.1848764 6.0255814
-101.99812 7.188334 5.812417
-101.98524 7.1910853 5.5996847
-102.01293 7.1043367 4.9716959
-101.99312 7.1042871 4.7601662
-102.33469 5.1143637 10.155694
-102.32375 5.1189704 9.9214115
-102.3289 5.1286545 9.6937313
-102.29548 5.1259975 9.4551249
-102.28733 5.1313491 9.2259216
-102.26796 5.1330657 8.9946938
-102.2557 5.1370101 8.7668924
-102.19333 5.0642495 3.1754255
-99.799263 31.219387 18.34292
-99.917107 30.450382 18.154951
-100.11848 28.491413 17.692467
-100.11349 28.537701 16.873821
-100.08768 28.038876 17.575788
-100.08913 28.066238 17.170599
-100.07574 28.076368 16.759539
-100.12177 28.154823 16.382229
-100.11589 28.173367 15.979081
-100.12624 28.210506 15.586128
-100.10928 28.215984 15.181596
-100.12113 28.254635 14.792848
-100.11187 28.268764 14.395931
-100.10023 28.280014 13.999908
-100.09251 28.295692 13.607488
-100.08876 28.315866 13.218452
-100.07439 28.347921 12.442394
-100.07645 28.374557 12.060111
-100.05089 28.368973 11.669239
-100.03574 28.375395 11.283832
-100.05019 28.416204 10.909657
-100.02422 28.409834 10.523505
-100.0407 28.452898 10.15179
-100.03587 28.471041 9.7744884
-100.01606 28.471619 9.3941422
-100.02612 28.507023 9.0228748
-100.00838 28.50988 8.6453152
-100.00133 28.525171 8.2714167
-99.979279 28.52284 7.8951106
-99.993683 28.563181 7.5274158
-99.967384 28.555733 7.1521373
-99.958267 28.568399 6.7810831
-99.947044 28.578548 6.4103565
-99.946625 28.601355 6.0419106
-99.957016 28.636871 5.6752539
-100.09911 27.716721 16.275913
-100.09287 27.734493 15.875489
-100.09045 27.756481 15.479082
-100.0919 27.782766 15.086481
-100.08469 27.79903 14.691618
-100.06245 27.798004 14.291936
-100.05044 27.808523 13.899007
-100.08041 27.867018 13.525739
-100.07645 27.886576 13.139309
-100.07019 27.903397 12.753545
-100.0489 27.902855 12.363635
-100.03805 27.91419 11.97947
-100.03132 27.930168 11.598323
-100.02875 27.950846 11.219969
-100.00472 27.946745 10.835855
-100.00413 27.969532 10.460761
-100.00135 27.989738 10.086046
-100.00284 28.014799 9.7135668
-100.00217 28.037319 9.3413553
-99.967087 28.020012 8.9611712
-99.981476 28.059809 8.5947189
-99.980827 28.082188 8.2251444
-99.971588 28.094572 7.8543873
-99.979645 28.126957 7.4879742
-99.972649 28.141855 7.1190419
-99.944092 28.131683 6.7470016
-99.958824 28.171724 6.3831573
-99.952011 28.186718 6.0160894
-99.9431 28.199249 5.6492348
-99.945107 28.224445 5.2841992
-99.945023 28.247211 4.919086
-99.929878 28.252398 4.5526929
-99.951645 28.300621 4.1897931
-99.945343 28.316111 3.8244395
-99.930466 28.321575 3.4587653
-99.959244 27.733566 6.7157855
-99.947723 27.765505 5.9864917
-99.920258 27.891422 3.4464636
-101.07017 18.287573 17.815756
-101.08777 18.322027 17.453627
-101.074 18.330858 17.076818
-101.05017 18.331354 16.69754
-101.06676 18.364613 16.341658
-101.08797 18.40155 15.989877
-101.04855 18.38892 15.610559
-101.03539 18.397556 15.24662
-101.04872 18.427734 14.897113
-100.98634 18.395872 14.515645
-100.96107 18.451443 6.4273467
-100.96604 18.473011 6.1057396
-100.95348 18.480122 5.7820945
-100.93105 18.479057 5.4579043
-100.91412 18.482481 5.1351781
-100.90269 18.490417 4.8136806
-100.86603 18.477474 4.4904251
-100.87334 18.500841 4.1716251
-100.84774 18.496967 3.8506033
-100.92217 18.35709 0.96333981
-101.61677 13.421348 18.607058
-101.65387 12.750014 18.817507
-101.61571 12.745276 18.430586
-101.90139 11.097288 22.039846
-101.90693 10.782667 21.976057
-101.91975 10.472812 21.914001
-101.94122 10.504414 21.539009
-101.90871 10.167415 21.445822
-101.91872 10.192141 21.068169
-101.93294 10.219011 20.696499
-101.92072 10.231157 20.31148
-101.89721 10.236897 19.923258
-101.87011 10.240456 19.536743
-101.90176 10.276309 19.188431
-101.91973 9.8753939 21.002548
-101.92599 9.8976517 20.627001
-101.90565 9.9053316 20.23826
-101.89719 9.9192619 19.860609
-101.842 10.294041 11.684204
-101.83252 10.30441 11.366226
-101.84576 10.327364 11.056866
-101.83119 10.334754 10.740252
-101.83948 10.354825 10.431807
-101.81988 10.359256 10.116666
-101.82324 10.376458 9.8092394
-101.82419 10.392253 9.5022335
-101.82272 10.406641 9.1956739
-101.81884 10.419628 8.8895864
-101.81256 10.431215 8.5839958
-101.77982 10.517356 6.4728112
-101.83212 9.953289 11.964162
-101.81664 9.9603691 11.643809
-101.83232 9.9844208 11.335163
-101.82861 9.9977922 11.021595
-101.82237 10.009707 10.708682
-101.80511 10.015505 10.394014
-101.80235 10.029187 10.084935
-101.82272 10.055533 9.7832346
-101.80653 10.061723 9.4728765
-101.79643 10.071197 9.1654072
-101.79248 10.083997 8.8605976
-101.77753 10.090679 8.5543585
-101.79459 10.114979 8.2561884
-101.76625 10.114156 7.949264
-101.8045 10.150122 7.6566319
-101.77142 10.14657 7.3508792
-101.77917 10.165592 7.0535922
-101.78464 10.183317 6.756434
-101.77048 10.190118 6.4567747
-101.77135 10.205232 6.1601181
-101.76994 10.21905 5.8636608
-101.75756 10.226739 5.5663581
-101.75159 10.237965 5.2704554
-101.76945 10.262461 4.9775028
-101.71396 10.289409 3.7970655
-101.72932 10.31247 3.5046914
-101.7163 10.319623 3.2109101
-101.70105 10.325505 2.9173818
-101.72714 10.354608 2.6251173
-101.71615 10.362871 2.3318377
-101.72034 10.379684 2.0387504
-101.7136 10.390339 1.7455468
-101.69592 10.394824 1.4525107
-101.70212 10.412789 1.1589729
-101.70608 10.429505 0.86514735
-101.70779 10.444967 0.57105672
-101.80951 9.6692114 10.985066
-101.81165 9.6855202 10.675857
-101.81131 9.700429 10.367163
-101.79463 9.721426 9.7491617
-101.79546 9.7367849 9.4444466
-101.77666 9.7414713 9.1359825
-101.78124 9.7587566 8.8343801
-101.77483 9.7700329 8.5311785
-101.76601 9.7799578 8.2285032
-101.76347 9.7932377 7.9281363
-101.75857 9.8051958 7.6281734
-101.76866 9.8252783 7.33181
-101.75909 9.8346195 7.0325551
-101.73851 9.8379059 6.7323618
-101.74168 9.8541126 6.4368224
-101.73386 9.8642864 6.1402202
-101.72374 9.8731728 5.8439913
-101.74622 9.8998718 5.5524297
-101.73154 9.9062166 5.2566714
-101.73206 9.9208584 4.9631443
-101.71162 9.9668932 3.7904475
-101.72716 9.9897346 3.4991164
-101.7142 9.9968786 3.206378
-101.68158 10.007417 2.6216846
-101.69693 10.030167 2.3302159
-101.69255 10.042014 2.0383239
-101.69468 10.057471 1.7463622
-101.67709 10.062004 1.4545444
-101.69224 10.084697 1.1619866
-101.68766 10.096459 0.86961734
-101.96247 9.2162018 15.50991
-101.96043 9.2313967 15.174374
-101.95551 9.2449741 14.839776
-101.93941 9.2525978 14.50263
-101.92873 9.2629404 14.170089
-101.90685 9.2673111 13.835226
-101.90721 9.2832346 13.511415
-101.82349 9.3918781 10.337401
-101.8152 9.4171925 9.723361
-101.80569 9.4416275 9.1138086
-101.66489 9.7654467 0.86874825
-101.88524 9.2975903 6.4190102
-101.87619 9.3212461 5.8283639
-101.85503 9.324235 5.5318995
-101.85795 9.3399277 5.2389641
-101.841 9.3450766 4.9443436
-101.82176 9.3489809 4.6501904
-101.80906 9.3563185 4.357245
-101.81171 9.3717937 4.0658994
-101.80331 9.3813772 3.7740245
-101.78383 9.3850536 3.4819031
-101.7621 9.3875074 3.1901882
-101.76459 9.4028473 2.8997488
-101.75601 9.4122877 2.6090426
-101.76284 9.4299459 2.3186772
-101.74097 9.4322739 2.028048
-101.72569 9.4381094 1.7376959
-101.75226 9.4663448 1.4467661
-101.71487 9.4603424 1.1568646
-101.70171 9.4673033 0.8665629
-102.16249 7.4874759 21.054316
-102.15561 7.501986 20.67243
-102.16087 7.5220098 20.301723
-102.04599 7.302875 3.6903985
-102.04011 7.32763 3.1157129
-102.29288 5.2749529 10.086958
-102.26544 5.2917252 9.4819765
-102.22073 5.2874317 9.1741447
-102.22775 5.30407 8.8801374
-102.21415 5.3122854 8.5824585
-97.352264 55.406158 14.655623
-97.305115 55.624249 10.16037
-97.280319 55.629715 9.3515215
-97.267761 55.632008 8.9486895
-97.266708 55.657806 8.5502481
-97.238014 55.626896 8.1447458
-97.229546 55.637375 7.7459044
-97.223907 55.653622 7.3483906
-97.20369 55.639866 6.9482579
-97.281235 55.27845 10.50154
-97.269379 55.560658 6.1394181
-97.266342 55.582165 5.7445326
-97.253052 55.582623 5.3484349
-99.984451 29.598427 18.740097
-100.0133 29.497757 18.722687
-100.02341 29.377966 18.691481
-100.05008 29.277685 18.675737
-100.07996 29.1854 18.666231
-100.22414 27.674017 18.357565
-100.13913 27.461378 18.585476
-100.2215 27.552107 18.320665
-100.22714 27.435719 18.286215
-100.23237 27.318916 18.252571
-100.22231 27.191051 18.21106
-100.20657 26.942146 18.133936
-100.16125 27.198874 9.1269188
-100.13654 27.237497 7.8009639
-100.12041 27.271042 6.7557921
-100.11212 27.275436 6.4953508
-100.10636 27.306049 5.7208657
-100.09295 27.32942 4.9491463
-100.13375 27.116661 7.7888103
-100.12498 27.120716 7.5258431
-100.12175 27.12981 7.2649808
-100.11749 27.149902 6.7457018
-100.11647 27.160931 6.4871535
-100.10646 27.163694 6.2275267
-100.10941 27.178303 5.9707069
-100.09605 27.177931 5.7117343
-100.09566 27.189445 5.4552627
-100.08259 27.201124 4.9418368
-100.11039 27.019291 6.9896264
-100.11101 27.031815 6.7313557
-100.10995 27.04278 6.4732752
-100.09988 27.045502 6.2141175
-100.10279 27.060045 5.9577675
-100.0967 27.066351 5.7003803
-100.08895 27.071108 5.4432645
-100.06341 27.09494 4.4199567
-100.05474 27.098764 4.1648297
-100.05915 27.114578 3.9109321
-100.02766 27.06498 2.8536704
-100.29682 26.494398 17.02422
-100.24476 26.559149 14.569127
-100.21096 26.608118 12.823163
-100.22269 26.631403 12.54686
-100.20421 26.627777 12.257982
-100.19075 26.628527 11.97332
-100.17917 26.643442 11.415752
-100.16697 26.657536 10.863902
-100.24951 26.448566 14.546816
-100.21034 26.453747 13.654856
-100.20145 26.471918 13.079534
-100.17196 26.571613 10.306636
-100.12562 26.591038 8.9592466
-100.13272 26.609371 8.6981707
-100.07925 26.679485 6.0965958
-100.06132 26.686634 5.5833225
-100.13396 26.433975 10.006472
-100.13361 26.445824 9.7396812
-100.12018 26.458092 9.2051611
-100.11439 26.464966 8.9398737
-100.21544 26.211483 13.896609
-100.13705 26.332312 9.7249956
-100.21387 26.091898 13.872386
-100.32648 25.908949 12.757174
-100.32468 25.797485 12.746045
-100.33167 25.691988 12.735286
-100.33894 25.5863 12.723617
-101.07652 18.148146 17.959822
-101.0683 18.155212 17.646461
-101.04322 18.163805 17.023539
-101.07924 18.197048 16.747265
-101.04467 18.187843 16.429256
-101.06046 18.208763 16.145088
-101.04321 18.209724 15.843517
-101.13863 18.08251 18.298788
-101.17063 18.113564 18.009081
-101.1611 18.143267 17.08498
-101.11964 18.197336 15.013954
-101.09995 18.1964 14.720732
-101.08548 18.198503 14.4329
-101.09202 18.213148 14.158334
-101.07264 18.212116 13.872579
-101.05078 18.209501 13.588026
-101.04231 18.214861 13.312304
-101.06329 18.237915 13.052396
-101.05027 18.240385 12.778252
-101.03493 18.241383 12.505097
-101.0173 18.240915 12.232961
-101.02155 18.253599 11.972047
-100.9833 18.240503 11.695156
-101.00746 18.265137 11.445518
-100.96473 18.249165 11.170844
-100.97665 18.266273 10.919088
-101.06562 18.236902 10.684997
-101.05522 18.250027 10.173668
-101.02639 18.242195 9.9121571
-101.03667 18.258005 9.6649666
-101.03676 18.267599 9.4154968
-101.01004 18.260881 9.1590729
-100.99787 18.262939 8.9084291
-100.99205 18.268808 8.6607752
-100.96764 18.263327 8.409215
-100.98296 18.281984 8.1692305
-100.94631 18.268959 7.9170074
-100.93279 18.26997 7.6717901
-100.95091 18.290243 7.4347091
-100.91686 18.278662 7.1868176
-100.92293 18.291527 6.9484682
-100.91035 18.292978 6.7070374
-100.90437 18.298426 6.4676685
-101.1424 17.885536 18.574621
-100.99528 18.293695 5.5239391
-100.98032 18.293596 5.2855029
-100.97206 18.29756 5.0485487
-100.96202 18.300417 4.8119068
-100.9587 18.307369 4.576437
-100.95363 18.313232 4.3411427
-100.91277 18.297159 4.1033726
-100.9212 18.31126 3.869992
-100.90234 18.308628 3.6350138
-100.87322 18.299679 3.4000516
-100.87642 18.310551 3.1669791
-100.86086 18.309891 2.9333785
-100.85207 18.313389 2.7002237
-100.84155 18.315815 2.4672143
-101.20434 17.823383 18.595346
-100.86867 18.176565 1.5247456
-100.86642 18.184189 1.2915359
-100.89652 18.211607 1.0563509
-101.17717 17.599701 18.853315
-101.00118 17.427578 0.83902812
-101.73192 12.356545 18.889847
-101.77583 12.255058 19.551168
-101.72868 12.259178 18.875196
-101.77026 12.159785 19.538725
-101.70728 12.157424 18.852406
-101.6749 12.053896 18.828106
-101.71184 11.977798 18.852888
-101.69469 11.879188 18.839628
-101.70181 11.790833 18.841063
-101.81159 11.569942 18.589029
-101.81715 11.48198 18.590189
-101.93658 10.944374 22.764469
-101.7792 11.030325 18.586651
-101.93908 10.865199 22.779594
-101.77614 10.948243 18.595581
-101.92917 10.779954 22.780094
-101.89444 10.681754 22.751444
-101.91982 10.605743 22.76981
-101.91251 10.521594 22.766262
-101.90878 10.445509 22.771404
-101.90954 10.373452 22.784491
-101.98264 10.412767 22.480839
-101.96787 10.335774 22.482828
-101.9751 10.268427 22.503273
-101.97275 10.200743 22.518089
-101.94812 10.126404 22.514277
-101.95367 10.064086 22.534254
-101.95686 10.002507 22.555721
-101.93749 9.9336452 22.559288
-101.93525 9.8722467 22.571775
-101.72845 10.297048 5.0693502
-101.94989 9.7509193 22.588417
-101.74039 10.25896 4.3707719
-101.67226 10.16946 4.3621893
-101.99708 9.6606922 18.261831
-101.97913 9.5727367 17.031975
-101.97414 9.645937 14.70228
-101.74887 9.8745832 3.2218883
-101.97996 9.5279608 14.712879
-101.96438 9.3304062 17.039797
-101.97704 9.4109297 14.717971
-101.96867 9.291172 14.712023
-101.96697 9.2296858 14.706216
-101.94221 9.0916109 14.958221
-101.77438 9.3686581 5.0595818
-101.76059 9.3876047 4.3581457
-101.76966 9.3203497 4.8181062
-101.83987 9.3611088 4.3573322
-101.87585 9.3039417 4.8259249
-102.13538 8.2844782 21.416344
-102.13876 8.0474873 17.01708
-102.06039 8.0136995 16.996252
-102.19497 7.3941717 21.431841
-102.16159 7.3945141 21.056364
-102.15564 7.4033432 20.705265
-102.20878 7.3597994 21.445932
-102.24626 7.3824897 21.121195
-102.24873 7.3940654 20.774822
-102.21564 7.3943195 20.407722
-102.21049 7.4032397 20.06436
-102.19363 7.4083371 19.717052
-102.26658 7.2651205 21.49654
-102.24307 7.2268462 21.493441
-102.24078 7.196774 21.509331
-102.209 7.1573 21.500435
-102.21078 7.1279473 21.511368
-102.20203 7.0979061 21.518602
-102.20409 7.1518106 16.973764
-102.17738 7.1216283 16.971888
-102.15912 7.0937858 16.973965
-102.14149 7.066936 16.975313
