# .PCD v0.7 - Point Cloud Data file format
VERSION 0.7
FIELDS x y z
SIZE 4 4 4
TYPE F F F
COUNT 1 1 1
WIDTH 496
HEIGHT 1
VIEWPOINT 0 0 0 1 0 0 0
POINTS 496
DATA ascii
-103.11222 16.40485 15.343711
-103.13326 16.145573 15.296949
-103.13078 16.260334 13.021049
-103.15586 16.331306 12.082017
-103.1767 16.365864 11.776426
-103.13062 16.341131 11.446455
-103.1183 16.346189 11.131291
-103.13106 15.773703 11.675727
-103.11337 15.773883 11.359891
-103.10804 15.784685 11.050298
-103.09327 15.787226 10.738808
-103.08365 15.794158 10.43064
-103.03524 15.767345 10.11126
-103.04335 15.789522 9.8118639
-102.91212 14.866497 20.524288
-102.88555 14.862391 20.138994
-102.91659 15.061737 16.668781
-102.90948 14.788311 16.605169
-102.91383 14.808344 16.274559
-102.88049 14.79673 15.924989
-102.92239 14.958307 13.376581
-102.92064 14.611371 14.906754
-102.9268 14.632156 14.589011
-102.90906 14.633006 14.261275
-102.91051 14.649681 13.945141
-102.91688 14.670362 13.633123
-102.8702 14.646836 13.298544
-102.86465 14.657406 12.98509
-102.85683 14.665994 12.672451
-102.85641 14.695607 12.058663
-102.62708 12.6404 12.523438
-102.63162 12.658295 12.228328
-102.62643 12.668648 11.930711
-102.61903 12.677223 11.633833
-102.60942 12.684031 11.337721
-102.59002 12.683224 11.039598
-102.56841 12.680628 10.742461
-102.56753 12.693913 10.454244
-102.67791 12.557789 4.6134019
-102.68178 12.58676 4.0717325
-102.66341 12.397975 2.4486914
-102.64339 12.395603 2.179311
-102.65334 12.415998 1.9101374
-102.60571 12.392615 1.6414593
-102.60397 12.404115 1.3724409
-102.61626 12.426306 1.1027088
-102.59486 12.422856 0.83404714
-102.31058 11.079974 19.437595
-102.30965 10.967038 16.733053
-102.17732 10.416464 21.310898
-102.43508 11.18714 3.7523983
-101.81152 8.7528763 22.41387
-101.91849 8.8379335 22.137493
-101.939 9.0338097 18.035021
-101.84789 8.5534611 22.368126
-101.93605 8.8074932 17.971474
-101.90437 8.936595 14.575669
-101.74223 8.2444706 22.565851
-101.85148 8.3291998 22.291616
-101.92873 8.6180525 16.954285
-101.89411 8.369853 16.872747
-102.11449 8.9514837 2.144537
-102.09261 8.9486198 1.8938179
-102.08531 8.9664965 1.3924032
-101.52869 6.8129106 18.277935
-101.55668 6.6330895 18.269228
-101.68594 6.3144236 4.0995679
-101.67925 6.3207264 3.8600607
-101.66203 6.3211088 3.6201692
-101.66911 6.335103 3.382189
-101.66566 6.3431888 3.1436872
-101.6604 6.3502479 2.905273
-101.65332 6.3562803 2.6669643
-101.65314 6.36619 2.4289351
-101.65987 6.3799863 2.1909416
-101.65607 6.3878593 1.9527786
-101.66788 6.4045348 1.7144071
-101.66916 6.4152837 1.4759023
-101.66862 6.4250131 1.2372634
-101.66625 6.4337215 0.99850869
-101.66207 6.4414086 0.75965625
-101.66297 6.1350417 3.3662612
-101.65944 6.143095 3.1284573
-101.66284 6.1549821 2.8910675
-101.63821 6.1513081 2.6528952
-101.63798 6.1611724 2.4156501
-101.65342 6.1797476 2.1785016
-101.6583 6.1924663 1.9410144
-101.6439 6.1944532 1.7035784
-101.64516 6.2051597 1.4659444
-101.63586 6.2099924 1.2284617
-101.62476 6.2138157 0.9910382
-101.6293 6.2263694 0.7527737
-101.63902 5.9560866 2.6413462
-101.62793 5.9699235 2.1679842
-101.64158 5.9873805 1.9313397
-101.63589 5.9942212 1.6945796
-101.61962 5.9952478 1.4580441
-101.62782 6.0097346 1.2208598
-101.62544 6.0184093 0.98376173
-101.6125 6.0212665 0.7470296
-101.61441 5.7785397 1.9240603
-101.61751 5.7901268 1.6880563
-101.60122 5.7911954 1.4523093
-101.60069 5.8008218 1.2161968
-101.60712 5.8142414 0.97959191
-101.59418 5.8171325 0.74364674
-101.59025 5.5929165 1.4503434
-101.58976 5.6025295 1.2149287
-101.58746 5.6111755 0.97939968
-101.59214 5.6235795 0.74330801
-102.6814 12.806868 6.8710952
-102.64145 12.794623 6.6383381
-102.32234 11.547793 14.681335
-102.31261 11.263015 14.663835
-102.30673 11.270755 14.397808
-102.32262 11.28919 14.145746
-102.41257 11.658345 6.1799212
-102.41091 11.666371 5.9605069
-102.42432 11.530643 5.9602075
-102.42099 11.53771 5.7411251
-102.30853 10.905426 16.540827
-102.18135 10.492223 21.641771
-102.29982 10.886047 13.324403
-102.28812 10.910475 12.568829
-102.30801 11.00159 7.0013504
-102.29538 11.004223 6.7793913
-101.91304 8.9527521 16.937025
-101.8888 8.8027716 17.195005
-101.90864 8.6795063 17.200293
-101.9189 8.5534449 17.200485
-101.89571 8.4175129 17.180103
-101.84748 8.0373707 4.1135006
-101.85749 8.0493755 3.9071023
-101.82125 7.8973374 4.3255544
-101.83303 7.9099545 4.119462
-101.85239 7.9256611 3.9138703
-101.81586 7.7743464 4.3301239
-101.81849 7.7831717 4.1234012
-101.80233 7.6473141 4.3292813
-101.81424 7.6598067 4.1234512
-101.79681 7.5243759 4.326736
-101.80875 7.5367994 4.1209908
-101.79106 7.4020028 4.3240652
-101.81229 7.4180202 4.1191235
-101.46523 6.5081873 21.773029
-101.79481 7.2827191 4.3245173
-101.8161 7.2986503 4.1195745
-101.45393 6.3934312 21.76911
-101.77818 7.1569576 4.3252611
-101.79955 7.1727514 4.120492
-101.6461 6.8042803 9.3854694
-101.64301 6.8189082 8.9449701
-101.6657 6.8352652 8.7332993
-101.70471 6.8577399 8.5266991
-101.7807 7.0379701 4.3241782
-101.79284 7.0500302 4.1186857
-101.79398 7.0578752 3.9124327
-101.78411 7.0614896 3.7056961
-101.78188 7.0680251 3.4996669
-101.78729 7.0774956 3.2941
-101.77238 7.0791411 3.0879011
-101.77444 7.0873156 2.8823912
-101.7655 7.0912476 2.676738
-101.77354 7.101728 2.471282
-101.75192 7.1007605 2.265846
-101.76595 7.1135559 2.0601575
-101.75031 7.1148925 1.8548692
-101.74233 7.1191869 1.6494708
-101.75131 7.1300545 1.4433016
-101.74929 7.1366677 1.2373601
-101.75489 7.1462474 1.0307456
-101.70217 6.9536343 2.4656594
-101.72723 6.9705257 2.2605824
-101.7506 6.9867921 2.0549941
-101.7536 6.9952726 1.8493966
-101.76427 7.0066957 1.6433381
-101.75459 7.0103178 1.4378246
-101.77119 7.0240474 1.230873
-101.74883 7.0228014 1.0258553
-101.34802 5.7486014 22.282799
-101.34145 5.6209087 20.85536
-101.34675 5.6568203 19.89757
-101.33633 5.4886408 21.18145
-101.34589 5.537457 19.897676
-101.33157 5.3525386 21.503359
-101.33204 5.364522 21.169764
-101.3287 5.3750882 20.837559
-101.3412 5.4132481 19.886261
-101.32722 5.2270994 21.491997
-101.32024 5.2367139 21.152113
-101.33152 5.2520742 20.832624
-101.32432 5.2612834 20.50186
-101.32833 5.2739768 20.184883
-101.3288 5.2853661 19.869158
-101.32183 5.0773339 22.169008
-101.30824 5.0852509 21.813297
-101.34155 5.1079626 21.504251
-101.33128 5.1283278 20.832033
-101.3539 5.1471682 20.526154
-101.3281 5.1503072 20.184294
-101.32858 5.1617279 19.86857
-101.33311 5.1743155 19.560156
-101.33939 5.280447 16.643543
-101.34077 5.2906723 16.369968
-101.33929 5.2998643 16.097406
-101.33926 5.1106596 18.067371
-101.3397 5.1210942 17.777534
-101.33702 5.1304078 17.488836
-101.42604 5.2093868 9.401701
-101.41341 5.2279739 8.7438145
-101.39221 5.2359443 8.3072367
-101.47284 5.1929564 6.8487134
-101.47919 5.2023048 6.6407743
-101.46509 5.2048717 6.4295402
-101.4679 5.2130046 6.2221622
-101.4502 5.2143288 6.011867
-101.44949 5.221251 5.8051176
-101.43762 5.2244577 5.5972252
-101.43341 5.2301817 5.3910842
-101.42747 5.2353106 5.1852288
-101.41036 5.2367091 4.9785395
-101.41039 5.2437901 4.7744408
-101.40871 5.2502913 4.5705028
-101.40972 5.2647152 4.1639619
-102.6386 13.289414 20.929611
-102.63301 13.306586 20.535891
-102.62737 12.859226 15.957516
-102.6344 12.882058 15.609166
-102.63063 12.898111 15.258049
-102.63199 12.917218 14.911314
-102.61452 12.924562 14.558685
-102.61827 12.944934 14.217048
-102.61929 12.963515 13.876123
-102.60951 12.975296 13.532839
-102.57269 12.970166 13.181425
-102.57137 12.368131 11.780081
-102.5781 12.389129 11.45518
-102.65327 12.630269 1.1196371
-102.65581 12.647666 0.81057161
-102.29017 11.283867 16.65237
-102.44131 11.443109 8.7794857
-102.44922 11.47907 8.1582117
-102.44533 11.492428 7.8471756
-102.44834 11.224505 6.5937157
-102.41975 11.253822 5.6744294
-101.77166 8.4947224 21.797007
-101.81754 8.5363321 21.443333
-101.77353 8.1890965 21.743567
-101.79621 8.218626 21.37545
-101.80769 8.2424631 21.003242
-101.77669 8.2451172 20.607454
-101.78098 8.2650528 20.237894
-102.12088 9.2301245 3.7908771
-102.13695 9.2525482 3.498404
-102.12419 9.2598953 3.2045283
-102.10916 9.266037 2.9109066
-102.10072 9.2756157 2.6177568
-102.09001 9.2839994 2.3247313
-102.08589 9.2958355 2.0318739
-102.09972 8.9012461 3.7896028
-101.75649 7.6787176 19.393799
-101.50298 6.7744131 22.446802
-101.56581 7.0120096 18.079597
-101.47318 6.4484234 22.340652
-101.48093 6.1468396 22.274055
-101.66541 6.7041349 12.454738
-101.65222 6.7568164 11.225522
-101.63441 6.7776046 10.616662
-101.62831 6.8176961 9.7197399
-101.64789 6.8408437 9.4286757
-101.63847 6.8506641 9.1312237
-101.71146 6.9263477 8.2676697
-101.52742 5.5876079 9.3131037
-101.5265 5.6008811 9.0218105
-101.52314 5.6130762 8.7310009
-101.5354 5.6318517 8.444684
-101.51821 5.6380806 8.152833
-101.51669 5.6509151 7.8653531
-101.50373 5.6588435 7.5765433
-101.49794 5.6831369 7.005446
-101.49609 5.6956754 6.7212105
-101.51012 5.7149768 6.4400849
-101.49454 5.7215858 6.1550469
-101.48576 5.7310681 5.8717723
-101.48382 5.7434483 5.590024
-101.48873 5.75875 5.3095636
-101.49138 5.7730641 5.0291948
-101.48262 5.7824535 4.7480669
-101.48075 5.7947865 4.4680319
-101.48074 5.561132 3.0775106
-101.46644 5.5810905 2.5211177
-103.18549 17.003498 20.352192
-103.22821 17.038635 20.039015
-103.19661 16.886854 21.048649
-103.17061 16.436657 16.723364
-103.17337 16.448997 16.416666
-103.16534 16.455671 16.106565
-103.15449 16.460783 15.797613
-103.11665 16.451815 15.477236
-103.10009 16.45377 15.170913
-103.12134 16.475264 14.886046
-103.11568 16.482719 14.58977
-103.12376 16.497232 14.302245
-103.12113 16.506109 14.011612
-103.18067 16.411577 14.601419
-103.22155 16.443163 14.329012
-103.21907 16.452272 14.037658
-103.11513 16.408762 13.702564
-103.12379 16.423456 13.421248
-103.18811 16.466969 13.16544
-103.15885 16.461889 12.870914
-103.1763 16.490973 12.318957
-103.16476 16.494888 12.037343
-103.14239 16.493107 11.753493
-103.14292 16.503183 11.479932
-103.13142 16.324009 13.402379
-103.21992 16.488976 10.136878
-103.24986 16.514175 9.8794041
-103.23476 16.515907 9.6095009
-103.08949 16.169872 14.220675
-103.11087 16.191284 13.942473
-103.07188 16.192051 13.354637
-103.16911 16.252186 13.113946
-103.16439 16.259991 12.830502
-103.24828 16.4219 9.5955534
-103.2243 16.459894 5.4540405
-103.12144 15.92472 15.97275
-103.10268 15.937139 15.363416
-103.09322 15.943163 15.062502
-103.08063 15.904805 13.313294
-103.08611 15.917789 13.034049
-103.06409 15.916804 12.745072
-103.04791 15.918705 12.460643
-103.07139 15.9406 12.193729
-103.06731 15.948497 11.917408
-103.06934 15.959436 11.644973
-103.0521 15.960543 11.367054
-103.12199 15.832514 13.321235
-103.07277 15.837897 12.461085
-103.16844 15.935229 11.128662
-103.15533 15.938281 10.854424
-103.13078 15.945056 10.311242
-103.10218 15.940095 10.03692
-103.12303 15.960141 9.778965
-103.07111 15.74404 12.453245
-103.17171 15.918375 9.0001106
-103.15819 15.920776 8.7362518
-103.13194 15.980215 6.6798534
-103.16134 16.004162 6.4315863
-103.14466 16.004631 6.1762624
-103.10828 15.995025 5.9189849
-103.11409 16.006899 5.668519
-103.05297 15.640352 12.439495
-103.10094 15.787004 8.9769392
-103.07858 15.784896 8.7117224
-102.90214 15.305468 17.018267
-103.08634 15.560201 12.445438
-103.12648 15.702577 8.9784107
-103.11285 15.704882 8.7153149
-103.09838 15.840029 4.6616735
-102.90261 15.210115 17.005856
-103.06081 15.450922 12.425412
-103.12585 15.604988 8.9706717
-103.12963 15.61597 8.7121572
-103.07964 15.732802 4.6551938
-103.12909 15.766443 4.4106803
-102.93492 15.016719 20.252783
-102.91138 15.118701 16.997372
-103.07667 15.492368 8.6906281
-103.00756 15.476072 8.1598005
-103.06979 15.630108 4.6488109
-102.92001 15.024028 16.991882
-103.08495 15.39729 8.687602
-103.00698 15.37682 8.1549139
-103.07802 15.53512 4.647172
-102.9282 14.927918 16.986835
-102.89943 15.06717 12.610756
-102.99608 15.235848 9.1769743
-103.02345 15.285367 8.1545563
-102.93671 14.832321 16.980993
-102.94598 14.858223 16.374578
-102.9464 14.869031 16.072784
-102.9359 14.87454 15.767635
-102.92033 14.898138 14.875776
-102.93997 14.917733 14.595316
-102.92214 14.968821 12.888612
-102.99541 15.135662 9.1710472
-103.04031 15.193651 8.1533775
-102.92461 14.860922 13.162531
-102.9063 14.87163 12.600499
-102.90734 14.900883 11.782186
-102.89062 14.91174 11.238118
-102.89597 14.923683 10.973219
-102.8755 14.505121 16.928112
-102.91025 14.673822 12.596459
-103.00836 14.776386 8.1349573
-103.00957 14.794819 7.6274896
-103.01154 14.804644 7.3751822
-102.99369 14.804969 7.119791
-102.96486 14.800006 6.8634582
-102.97852 14.815343 6.6155825
-102.97235 14.821171 6.3648558
-102.96418 14.826011 6.1145096
-102.94506 14.825575 5.8633037
-102.98159 14.662249 8.1188269
-102.96665 14.787694 4.3766255
-102.60749 12.795396 14.873602
-102.60283 12.803981 14.585222
-102.63629 12.794424 12.64685
-102.6197 12.797363 12.369293
-102.60927 12.802848 12.096135
-102.60726 12.821647 11.562135
-102.59838 12.827602 11.294613
-102.58714 12.832496 11.027898
-102.56479 12.83258 10.759063
-102.58155 12.774443 9.9881802
-102.68157 12.787106 8.242384
-102.65338 12.811468 7.2415667
-102.64463 12.834712 6.5020547
-102.65587 12.848479 6.2591105
-102.61961 12.841859 6.0095267
-102.62687 12.853878 5.7671213
-102.61392 12.857203 5.5224714
-102.60812 12.863574 5.2793455
-102.69074 12.75919 6.5109291
-102.68388 12.765206 6.2647929
-102.68411 12.774228 6.0203834
-102.68237 12.782382 5.7762089
-102.67863 12.789671 5.532289
-102.66377 12.792189 5.2875648
-102.62863 12.786005 5.0413241
-102.65557 12.806358 4.8022475
-102.66228 12.818048 4.561172
-102.63954 12.81711 4.3179059
-102.68449 12.714835 5.0477738
-102.71396 12.753808 4.3245153
-102.66612 12.612597 5.0466523
-102.61914 12.594023 2.398927
-102.6066 12.597422 2.1591318
-102.61053 12.607812 1.9192444
-102.60334 12.61348 1.6794376
-102.58054 12.431192 3.8360481
-102.6099 12.315539 4.8002253
-102.61827 12.217527 5.0440969
-102.62479 12.237692 4.5627136
-102.62051 12.244646 4.3217778
-102.27229 11.370509 17.036409
-102.17471 10.448367 15.588423
-101.92987 9.5527763 22.581923
-101.82501 8.9050961 22.901918
-101.89296 8.9398584 22.591755
-101.89462 8.8769712 22.583498
-101.90525 8.8187275 22.579094
-101.80759 8.7163687 22.856976
-101.88267 8.7535114 22.55303
-101.8103 8.6627855 22.859604
-101.90053 8.7048244 22.567728
-101.81082 8.6103716 22.86483
-101.87846 8.6449413 22.554661
-101.7972 8.5529394 22.857033
-101.88747 8.5948057 22.565147
-101.78926 8.4988422 22.856346
-101.87956 8.5406246 22.564459
-101.77682 8.4478235 22.860142
-101.86722 8.4894886 22.568266
-102.11029 9.1195469 6.5230031
-102.10423 9.125598 6.2819281
-101.76842 8.4019251 22.873507
-101.85146 8.4410219 22.57551
-102.11665 9.1124125 5.3366852
-102.11005 9.1181021 5.0981545
-102.10148 9.123085 4.859931
-102.09215 9.1436424 4.1493468
-102.08511 9.1491079 3.9128747
-102.08556 9.1571684 3.6771398
-101.77669 8.3598757 22.896641
-101.85242 8.3964806 22.592375
-102.13326 9.1241779 3.6848714
-102.11296 9.1249733 3.4478273
-102.12846 9.1382189 3.2125771
-102.10668 9.1541491 2.5049632
-102.10497 9.1613913 2.2693756
-102.07877 9.1757364 1.5629665
-101.75943 8.3051128 22.891439
-101.78236 8.2594519 22.915087
-101.7744 8.2042694 22.914314
-101.77338 8.1542091 22.919779
-101.78579 8.1116362 22.938566
-101.78889 8.0681429 22.951992
-101.56382 6.7842574 18.538868
-101.5547 6.7592602 18.545198
-101.54287 6.7289557 18.539383
-101.55123 6.701293 18.538464
-101.55161 6.6701312 18.533194
-101.55562 6.6435509 18.539413
