# .PCD v0.7 - Point Cloud Data file format
VERSION 0.7
FIELDS x y z
SIZE 4 4 4
TYPE F F F
COUNT 1 1 1
WIDTH 858
HEIGHT 1
VIEWPOINT 0 0 0 1 0 0 0
POINTS 858
DATA ascii
-101.35849 46.495884 7.9880795
-101.35525 46.530525 7.5038929
-101.03297 41.526405 17.708523
-100.91586 40.631447 17.940323
-100.93591 40.056435 17.795273
-100.95262 40.125309 17.342634
-100.78573 39.127323 17.981804
-100.90054 39.416336 17.143692
-100.89713 39.445999 16.685074
-100.82497 38.59811 17.836863
-100.6842 37.71529 18.023781
-100.7291 37.224892 17.885273
-100.60648 36.406967 18.075434
-100.59018 36.128448 14.051091
-100.22958 31.096216 18.13353
-100.09806 29.950888 18.169762
-99.882599 27.819773 18.257282
-99.79174 26.821783 18.293467
-99.742393 27.820278 2.8246322
-99.662628 27.279699 2.8124619
-99.754631 25.537418 18.242968
-99.668671 24.622175 18.294933
-99.560211 23.71574 18.340878
-99.436417 24.003445 5.89609
-99.30336 23.28742 3.0766935
-99.301743 22.932934 3.0734563
-99.394058 23.073584 2.7730367
-99.365936 21.692564 18.362656
-99.440338 21.465897 18.310898
-99.325638 20.67548 18.368778
-99.308632 19.684053 18.362814
-99.19706 18.914286 18.391369
-99.051971 19.418547 2.1338398
-98.998047 19.372248 1.8535862
-99.018974 19.07369 2.1301615
-99.017052 19.088236 1.8517731
-99.162582 17.964554 18.386961
-99.020523 18.789633 1.8526533
-99.127579 17.624338 18.60548
-100.74901 38.548679 16.834843
-100.75231 38.60231 16.115604
-100.72838 38.589039 15.74184
-100.69522 38.58493 15.011526
-100.40747 34.602722 12.696277
-100.37671 34.578568 12.363524
-100.37179 34.591164 12.045716
-100.35968 34.593395 11.725906
-100.35699 34.608994 11.411982
-100.35268 34.622196 11.098559
-100.32449 34.601151 10.776204
-100.35449 34.590096 7.0916715
-100.34506 34.595276 6.790401
-100.08836 29.942883 17.024164
-100.01968 29.618353 16.568209
-99.922325 28.727779 16.914509
-99.762405 26.61615 12.721694
-99.751335 26.618975 12.44111
-99.680725 25.798494 17.132547
-99.681702 25.994604 13.656241
-99.577873 26.326941 5.6022258
-99.575691 26.338259 5.3555965
-99.740265 25.63698 17.106508
-99.677208 25.729822 14.1532
-99.681824 25.750467 13.876889
-99.672218 25.75532 13.593649
-99.667007 25.764919 13.315004
-99.678787 25.793205 13.047918
-99.564507 26.065357 5.8267283
-99.57032 26.085569 5.5825219
-99.647385 25.454464 14.359737
-99.659744 25.483419 14.088233
-99.657906 25.49675 13.809455
-99.648003 25.501144 13.527666
-99.65506 25.524025 13.25782
-99.672974 25.558735 12.995624
-99.562454 25.8309 5.8110762
-99.548462 25.828714 5.5646605
-99.552895 25.84713 5.3218565
-99.542664 25.8491 5.0770683
-99.537636 25.85688 4.8334765
-99.637093 25.21397 14.297008
-99.63678 25.228899 14.018958
-99.630699 25.252527 13.465043
-99.637535 25.274933 13.196573
-99.674248 25.329742 12.94653
-99.547333 25.58066 5.792604
-99.539925 25.585758 5.5487132
-99.531075 25.589237 5.3051019
-99.527466 25.598503 5.0627556
-99.522438 25.606174 4.8205528
-99.64093 24.827904 17.117811
-99.628197 24.987453 13.953637
-99.677353 25.100145 12.893555
-99.505066 25.286789 6.0064797
-99.532356 25.330023 5.7702794
-99.524857 25.334995 5.5277762
-99.582764 24.53438 16.993452
-99.621078 24.732065 14.161551
-99.599998 24.754562 13.329808
-99.524567 24.900553 9.1596756
-99.524155 24.913731 8.9112625
-99.480919 24.860693 4.7656217
-99.460747 24.851835 4.5260921
-99.483665 22.611542 16.919914
-99.484489 22.627722 16.632015
-99.362885 22.790092 11.242816
-99.363235 22.80361 10.99551
-99.343643 22.924829 8.340024
-99.362381 22.672935 9.2671356
-99.336121 22.659386 9.0199699
-99.335732 22.671528 8.783474
-99.333832 22.682116 8.5473366
-99.323524 22.684273 8.3093338
-99.318604 22.69175 8.0740595
-99.31218 22.697687 7.8392034
-99.318138 22.715944 7.6087627
-99.308769 22.718843 7.3746305
-99.293007 22.788055 5.7670169
-99.365471 22.445967 9.4790802
-99.399162 22.650578 6.2314992
-99.374077 22.637617 5.9981694
-99.354546 22.630138 5.7669024
-99.354668 22.642193 5.5398893
-99.325233 22.624762 5.3084669
-99.315483 22.626909 5.0809884
-99.304314 22.627623 4.8538251
-99.29879 22.633944 4.6278634
-99.284821 22.631804 4.4012966
-99.297661 22.656458 4.1778769
-99.273842 22.644432 3.9511087
-99.276863 22.659245 3.727
-99.264381 22.658525 3.5019221
-99.257576 22.663479 3.2774544
-99.249382 22.667036 3.053093
-99.246872 22.676287 2.8290274
-99.252197 22.716993 2.1564279
-99.454529 22.071842 14.240538
-99.455811 22.086823 13.976712
-99.435486 22.080877 13.701404
-99.446175 22.104731 13.447219
-99.435242 22.107622 13.181764
-99.371376 22.417767 5.9822302
-99.372963 22.431097 5.7559042
-99.366081 22.436039 5.5284519
-99.3507 22.432568 5.3001504
-99.340973 22.434641 5.0733628
-99.343979 22.449293 4.8488021
-99.303116 22.420502 4.6190152
-99.277802 22.534616 1.9339828
-99.385475 21.639891 17.174828
-99.428391 21.836811 14.171422
-99.435959 21.857578 13.913003
-99.428497 21.863892 13.64701
-99.421173 21.883482 13.125543
-99.320511 21.926868 10.349236
-99.322296 21.940891 10.110831
-99.315613 21.946671 9.8700047
-99.293495 21.937471 9.6242752
-99.361908 22.204832 5.7373238
-99.340797 22.195745 5.5085645
-99.332451 22.19911 5.28269
-99.322685 22.201061 5.0571146
-99.304398 22.19463 4.8309016
-99.29892 22.200731 4.6069331
-99.32943 22.333853 2.602998
-99.324303 22.34026 2.3798373
-99.414207 21.456961 17.131624
-99.405609 21.643782 13.323504
-99.342651 21.971882 5.7164273
-99.335655 21.976561 5.4913096
-99.327232 21.979836 5.2664747
-99.303131 21.967852 5.0398598
-99.299011 21.975248 4.816771
-99.279213 21.967377 4.5921111
-99.307549 22.040396 3.7077384
-99.309387 22.053541 3.486135
-99.395912 21.40876 13.522648
-99.300659 21.483253 10.264634
-99.300125 21.739655 5.2456613
-99.297348 21.748335 5.0234685
-99.27166 21.734934 4.7985654
-99.266068 21.740856 4.5769429
-99.313423 20.884193 18.075281
-99.31842 20.903833 17.785404
-99.31131 21.493557 6.1185875
-99.299728 21.527851 5.2295623
-99.289703 21.529573 5.0072861
-99.242256 21.495562 4.7805781
-99.243813 21.508266 4.5611229
-99.333801 20.743113 17.154629
-99.283127 21.302874 5.2125697
-99.2658 21.29768 4.9903851
-99.254295 21.297951 4.7696452
-99.248619 21.303715 4.550108
-99.291832 20.472862 17.633755
-99.34446 20.549528 17.102009
-99.255257 21.024961 6.0723743
-99.262016 21.086847 4.9777598
-99.243195 21.080267 4.7570267
-99.244751 21.092775 4.5393939
-99.185104 20.440323 12.213075
-99.200302 20.466473 11.977966
-99.177284 20.470011 11.484072
-99.19442 20.497723 11.25374
-99.223961 20.548712 10.79353
-99.198067 20.548897 10.31251
-99.242928 20.862309 4.9615097
-99.23127 20.86249 4.742856
-99.232803 20.874907 4.5262656
-99.268883 20.027306 17.770401
-99.2061 20.278614 11.696702
-99.203903 20.288832 11.456103
-99.199997 20.29744 11.216122
-99.208412 20.317085 10.983429
-99.208191 20.32888 10.747826
-99.178177 20.313679 10.500102
-99.188728 20.335072 10.272042
-99.218948 20.374226 10.053193
-99.205177 20.373508 9.8166304
-99.211082 20.390558 9.5893173
-99.194084 20.386782 9.354063
-99.196877 20.4009 9.1275969
-99.190987 20.407087 8.8988838
-99.19072 20.418329 8.6731768
-99.174576 20.415083 8.4430237
-99.171257 20.423449 8.2182369
-99.152023 20.417273 7.9893813
-99.174545 20.449106 7.7741981
-99.159531 20.44668 7.5484438
-99.150246 20.449434 7.3253016
-99.13224 20.444172 7.1007423
-99.149025 20.470671 6.8859005
-99.157158 20.489241 6.6691632
-99.149323 20.493179 6.4491682
-99.147339 20.502436 6.2311044
-99.165802 20.53042 6.0176611
-99.190193 20.563839 5.8053207
-99.184006 20.569193 5.5873761
-99.183708 20.579937 5.370913
-99.167389 20.575932 5.1523299
-99.186249 20.604256 4.9393945
-99.167122 20.597622 4.7213602
-99.190559 20.630157 4.5089989
-99.211334 20.671219 4.080709
-99.248528 19.790031 17.980831
-99.203468 20.096529 11.181911
-99.190628 20.097101 10.940068
-99.197212 20.114977 10.70878
-99.188057 20.1187 10.47153
-99.191406 20.133556 10.241141
-99.193161 20.146933 10.01115
-99.171982 20.13966 9.7728462
-99.170532 20.150032 9.5439625
-99.174667 20.165371 9.3182802
-99.170105 20.172838 9.0902491
-99.171173 20.185318 8.8652916
-99.163521 20.189901 8.6381931
-99.154335 20.193041 8.4116325
-99.165276 20.214289 8.1925926
-99.153061 20.214607 7.9669104
-99.153816 20.226591 7.7461262
-99.153107 20.237211 7.5256147
-99.15094 20.246473 7.3053951
-99.161865 20.267561 7.0892754
-99.134941 20.254332 6.8640924
-99.14299 20.272757 6.6483879
-99.135025 20.27663 6.4294271
-99.14756 20.299082 6.2155013
-99.122101 20.287006 5.9941301
-99.124496 20.3002 5.7790351
-99.118156 20.305433 5.5627351
-99.117752 20.31604 5.3479185
-99.130646 20.338743 5.1354618
-99.098061 20.319996 4.9165993
-99.093475 20.326731 4.7023687
-99.087502 20.332184 4.4883099
-99.102234 20.356531 4.2767549
-99.086143 20.352716 4.0621419
-99.083405 20.361086 3.8491194
-99.071922 20.36145 3.6356487
-99.081177 20.380783 3.4237039
-99.074326 20.385368 3.2108321
-99.073471 20.395447 2.9983218
-99.071259 20.40427 2.7857652
-99.056389 20.423212 2.147979
-99.239952 19.584877 17.920341
-99.238541 19.598408 17.630186
-99.188622 19.883781 11.145771
-99.168518 19.87793 10.901586
-99.18911 19.908081 10.67786
-99.186882 19.917948 10.444679
-99.175919 19.919979 10.208965
-99.170418 19.926802 9.9769783
-99.177597 19.944839 9.7514019
-99.176071 19.95508 9.5232706
-99.165794 19.957472 9.2928553
-99.161125 19.964796 9.0657492
-99.162102 19.977108 8.8417196
-99.147118 19.975121 8.6130562
-99.137794 19.978136 8.3875093
-99.141449 19.992689 8.1671677
-99.143623 20.005888 7.9470644
-99.144325 20.017735 7.7272177
-99.143562 20.028229 7.5076456
-99.141335 20.037376 7.2883663
-99.13765 20.045181 7.0693979
-99.117874 20.038507 6.847136
-99.133247 20.063356 6.6341901
-99.132561 20.073759 6.4178138
-99.115761 20.069641 6.1985407
-99.126923 20.090647 5.9857073
-99.121971 20.097137 5.7700109
-99.115616 20.102327 5.554575
-99.107849 20.106222 5.3394175
-99.113434 20.122141 5.1267967
-99.088112 20.110134 4.9100032
-99.105682 20.136858 4.6995711
-99.073578 20.151054 3.8473079
-99.069504 20.15815 3.6353068
-99.064056 20.163992 3.4233854
-99.04985 20.161865 3.2112205
-99.078659 20.198818 3.0008509
-99.046921 20.180744 2.7884228
-99.219688 19.362909 18.144978
-99.231491 19.402275 17.576279
-99.167877 19.659412 11.343601
-99.177559 19.679762 11.113306
-99.157288 19.673742 10.870018
-99.170769 19.697304 10.643957
-99.15419 19.69438 10.40544
-99.150192 19.702444 10.173963
-99.151726 19.715322 9.9460497
-99.15168 19.726749 9.7185612
-99.14286 19.730389 9.4886837
-99.154068 19.751642 9.2676773
-99.14933 19.758772 9.0414925
-99.157509 19.777271 8.8209667
-99.135185 19.768747 8.5906487
-99.147598 19.790907 8.3732576
-99.12944 19.78595 8.1466188
-99.131607 19.798952 7.9274492
-99.132294 19.810612 7.7085376
-99.124199 19.814438 7.487833
-99.121948 19.823412 7.269577
-99.110909 19.82453 7.0497351
-99.113083 19.837368 6.8340201
-99.121185 19.855457 6.6202083
-99.120514 19.865713 6.4047771
-99.103676 19.861526 6.1864457
-99.107536 19.875759 5.9730935
-99.095207 19.875532 5.7570486
-99.08886 19.880606 5.5427341
-99.103302 19.904242 5.3323274
-99.086746 19.900152 5.1172042
-99.068787 19.894766 4.9025669
-99.079079 19.914656 4.6922302
-99.050591 19.94228 3.6341212
-99.05265 19.954752 3.4236705
-99.060783 19.972679 3.2134817
-99.067543 19.989386 3.0030558
-99.152496 19.431288 11.77939
-99.158401 19.44817 11.545593
-99.148491 19.451241 11.305253
-99.158104 19.471218 11.075938
-99.158997 19.483543 10.843617
-99.158234 19.494368 10.611803
-99.141525 19.49123 10.374189
-99.144623 19.505285 10.1467
-99.146126 19.517897 9.9196157
-99.146042 19.529074 9.6929569
-99.129944 19.526192 9.4610796
-99.133926 19.540802 9.238246
-99.136368 19.554029 9.015728
-99.115486 19.546772 8.7858076
-99.122124 19.563576 8.5667295
-99.11998 19.572638 8.3454466
-99.116325 19.580332 8.1245556
-99.118492 19.593096 7.9063172
-99.104523 19.591635 7.6840267
-99.103722 19.601715 7.4664969
-99.079399 19.591042 7.2433062
-99.068283 19.591949 7.0247426
-99.092583 19.624039 6.8157535
-99.093353 19.635368 6.6012421
-99.10009 19.651943 6.3885674
-99.098022 19.660721 6.1743765
-99.101944 19.67477 5.9618845
-99.089638 19.674438 5.7466974
-99.090744 19.685957 5.5345411
-99.083031 19.68964 5.32128
-99.081352 19.698645 5.1094394
-99.085724 19.712999 4.8987765
-99.073822 19.712908 4.6861939
-99.053185 19.746704 3.632931
-99.055382 19.759066 3.4232619
-99.04129 19.756908 3.2128308
-99.040756 19.766825 3.0031948
-99.016479 19.755545 2.79301
-99.201035 18.97699 18.033003
-99.207764 18.996815 17.749821
-99.214058 19.043715 16.90568
-99.224655 19.06628 16.636496
-99.145676 19.235504 11.748341
-99.144455 19.245998 11.51178
-99.148621 19.261057 11.279323
-99.129768 19.256201 11.037092
-99.144821 19.280521 10.812499
-99.129677 19.278713 10.575091
-99.148697 19.306353 10.354376
-99.144608 19.313972 10.124465
-99.131676 19.313877 9.892127
-99.131546 19.324804 9.6663818
-99.129845 19.334311 9.4410839
-99.112038 19.329803 9.2107534
-99.114449 19.342768 8.9892426
-99.10804 19.348028 8.7654877
-99.107384 19.358242 8.5447559
-99.0979 19.360729 8.3219872
-99.101547 19.374596 8.1044388
-99.103722 19.387144 7.8871331
-99.089699 19.385544 7.6657724
-99.074165 19.382572 7.4450326
-99.071892 19.391123 7.2289062
-99.075554 19.404825 7.014997
-99.062981 19.40431 6.797617
-99.063766 19.415438 6.5842195
-99.055702 19.4188 6.3693738
-99.083366 19.453405 6.1627054
-99.079918 19.460762 5.9496884
-99.07505 19.466852 5.7369184
-99.068779 19.47168 5.5244117
-99.061096 19.475248 5.3121848
-99.06694 19.490675 5.1025081
-99.071411 19.504881 4.8927979
-99.044601 19.49157 4.6792593
-99.03936 19.538073 3.6326711
-99.026711 19.537109 3.4230974
-99.005203 19.528303 3.2134497
-99.137413 19.049004 11.481804
-99.134384 19.05772 11.246665
-99.136803 19.071011 11.015574
-99.123222 19.070564 10.778309
-99.122284 19.080854 10.548386
-99.126907 19.095848 10.322164
-99.122711 19.103228 10.093246
-99.109642 19.10294 9.8618994
-99.116692 19.11985 9.6400728
-99.1222 19.135391 9.4185286
-99.104294 19.130768 9.1890287
-99.113983 19.149813 8.9710255
-99.114861 19.161236 8.7506094
-99.092209 19.152348 8.5230532
-99.097351 19.167353 8.3060398
-99.086288 19.168344 8.0845938
-99.081078 19.174332 7.8659768
-99.081757 19.185366 7.6499529
-99.080963 19.195099 7.4342098
-99.078712 19.203535 7.2187653
-99.082428 19.217098 7.0055408
-99.077278 19.222961 6.7906599
-99.085564 19.240435 6.5795956
-99.084991 19.250208 6.3669095
-99.075539 19.252251 6.1528759
-99.07959 19.265984 5.942194
-99.07476 19.271988 5.7301984
-99.06852 19.276741 5.5184669
-99.068359 19.28676 5.3082309
-99.059319 19.289026 5.0969911
-99.056374 19.296581 4.8871064
-99.044533 19.29637 4.676424
-99.024704 19.32939 3.632704
-99.01963 19.334993 3.4245172
-99.020714 19.345976 3.2167721
-99.035461 19.36894 3.0094817
-99.169235 18.562578 18.194227
-99.11203 18.82534 11.669745
-99.117653 18.841288 11.43863
-99.114441 18.849705 11.204469
-99.116692 18.862677 10.974358
-99.124474 18.880278 10.748075
-99.109009 18.878107 10.512388
-99.106285 18.886673 10.283905
-99.109177 18.899946 10.059064
-99.103203 18.905636 9.8316326
-99.102898 18.916086 9.6077175
-99.101006 18.925138 9.3842545
-99.097549 18.932804 9.1612616
-99.099869 18.945335 8.9414272
-99.085953 18.943983 8.7167673
-99.085182 18.953796 8.4978037
-99.075523 18.955971 8.2768049
-99.079117 18.969418 8.0610342
-99.08123 18.981567 7.8455091
-99.059616 18.973379 7.6237688
-99.066185 18.989267 7.4111214
-99.086205 19.016649 7.2025824
-99.082466 19.023659 6.9881363
-99.062355 19.016582 6.7703886
-99.063164 19.027426 6.5585341
-99.070038 19.043447 6.3485236
-99.053032 19.038927 6.1338749
-99.042076 19.03957 5.921277
-99.052208 19.058332 5.7132635
-99.068474 19.082367 5.5064716
-99.060814 19.085781 5.2957978
-99.04422 19.08147 5.0842938
-99.048805 19.095404 4.8764029
-99.036949 19.095129 4.6665869
-99.013382 19.114452 3.8339968
-99.017258 19.127716 3.6272063
-99.01223 19.133255 3.419889
-99.013374 19.14415 3.2130134
-99.013161 19.15386 3.0060751
-98.973839 19.129601 2.7982337
-99.160004 18.36768 18.118984
-99.161774 18.382853 17.831976
-99.18058 18.411879 17.562286
-99.172295 18.431807 16.992998
-99.17775 18.449465 16.72043
-99.10128 18.614773 11.855594
-99.094116 18.619909 11.617538
-99.106659 18.641476 11.390967
-99.103203 18.64958 11.157701
-99.105247 18.662222 10.928485
-99.091179 18.661283 10.693109
-99.097107 18.677063 10.468321
-99.086906 18.679232 10.237579
-99.089584 18.692173 10.013727
-99.083382 18.697578 9.7872915
-99.090179 18.713886 9.5672884
-99.080772 18.716486 9.3419085
-99.091812 18.736273 9.1254148
-99.079254 18.736103 8.9010878
-99.072487 18.740768 8.6800203
-99.071564 18.750324 8.4619818
-99.07653 18.764826 8.2467365
-99.080017 18.77804 8.0317221
-99.067162 18.777369 7.8124738
-99.067673 18.787987 7.5981455
-99.066719 18.797325 7.3841019
-99.056831 18.799047 7.168375
-99.052948 18.805826 6.955039
-99.055099 18.817709 6.7438555
-99.063332 18.834732 6.534584
-99.05513 18.837755 6.3220549
-99.053009 18.845924 6.1114712
-99.057007 18.859278 5.9025917
-99.052063 18.864996 5.6924062
-99.038162 18.863047 5.4811893
-99.030396 18.866301 5.2716403
-99.036339 18.881243 5.064641
-99.02578 18.882071 4.8555355
-99.028954 18.894627 4.648665
-99.023186 18.899515 4.4409323
-99.031181 18.916182 4.2349458
-99.007515 18.905701 4.0260572
-99.012764 18.92 3.8201537
-98.993919 18.91361 3.6125927
-98.996437 18.92555 3.406749
-99.005173 18.942833 3.20117
-98.997383 18.945915 2.9948454
-99.003387 18.960859 2.7889845
-98.992874 18.961586 2.5827584
-98.981003 18.961132 2.3766921
-98.990486 18.979092 2.1705194
-98.953178 18.95669 1.9651017
-99.140686 18.136856 18.618095
-99.089943 18.415977 11.805347
-99.096809 18.432714 11.57549
-99.087624 18.43606 11.338926
-99.091087 18.449841 11.110126
-99.092888 18.462172 10.881808
-99.078522 18.460997 10.647339
-99.091499 18.482513 10.426695
-99.073761 18.47839 10.193621
-99.076225 18.491039 9.9706755
-99.062454 18.490084 9.7421589
-99.076393 18.512205 9.5260601
-99.06675 18.514582 9.3016024
-99.062874 18.521725 9.0805321
-99.064827 18.533695 8.8626204
-99.065254 18.544346 8.6450558
-99.056732 18.547461 8.4253664
-99.068985 18.56794 8.2134533
-99.064888 18.574671 7.9969587
-99.066742 18.586365 7.7831235
-99.05217 18.584227 7.5652528
-99.043579 18.587059 7.3500772
-99.041 18.594912 7.1373596
-99.044472 18.607828 6.9268603
-99.054039 18.625851 6.7183404
-99.047134 18.629972 6.5063844
-99.046318 18.639206 6.2964416
-99.036545 18.640842 6.0851645
-99.02533 18.641235 5.8742952
-99.027817 18.653177 5.6666117
-99.036484 18.670324 5.4603181
-99.005882 18.654234 5.2479272
-99.011757 18.668985 5.0419612
-99.008667 18.676134 4.8349328
-99.011787 18.68853 4.6290126
-99.013535 18.699753 4.4230957
-99.00631 18.703352 4.2164249
-99.012917 18.718681 4.0113354
-99.010544 18.726387 3.8055234
-98.991592 18.719978 3.5987532
-98.994095 18.731806 3.3936894
-98.987625 18.735992 3.1882112
-98.987404 18.745493 2.9830978
-98.985809 18.753832 2.7779393
-98.982857 18.761007 2.5727515
-98.97094 18.760527 2.3675606
-98.980469 18.778366 2.1622524
-98.943031 18.756063 1.9577239
-99.084923 18.361563 8.8433523
-99.084137 18.381279 8.4095984
-99.077278 18.395786 7.9773898
-99.064095 18.394865 7.7596745
-99.0644 18.405121 7.5468731
-99.070755 18.420383 7.3364258
-99.053078 18.415592 7.120173
-99.048981 18.422077 6.9083757
-99.035881 18.421013 6.6951103
-99.02887 18.424997 6.484098
-99.043129 18.446722 6.2783737
-99.018112 18.435591 6.0647693
-99.021965 18.44858 5.857779
-99.024429 18.460382 5.6508703
-99.017899 18.46463 5.4427667
-99.00235 18.461298 5.2337437
-99.000618 18.469522 5.0274353
-99.012726 18.489357 4.823338
-99.00061 18.488834 4.6162181
-99.009979 18.506353 4.4120269
-98.979843 18.490633 4.2038221
-99.001732 18.518673 4.001143
-98.984093 18.513433 3.7950046
-98.995621 18.532757 3.5913246
-98.990517 18.538057 3.3865318
-98.97641 18.535753 3.1815012
-98.976219 18.545181 2.9772577
-98.982292 18.559912 2.7731321
-98.971741 18.560585 2.5686531
-98.967453 18.566559 2.3643229
-98.961807 18.571381 2.1599951
-98.924286 18.549198 1.9564314
-99.113487 17.724916 19.078562
-99.162437 17.777718 18.824886
-98.979691 18.396959 2.162571
-98.949799 18.381319 1.9593388
-101.01562 41.703922 17.591967
-100.99411 41.705784 17.092697
-100.92736 40.986172 17.395367
-100.90355 40.384136 17.239698
-100.89651 40.407604 16.758444
-100.89768 40.443359 16.283438
-100.8388 39.704033 17.541531
-100.85499 39.761772 17.075657
-100.86885 39.815929 16.609972
-100.9125 39.914589 16.160593
-100.86282 39.873375 15.666343
-100.88044 39.932842 15.206899
-100.8904 39.980766 14.745034
-100.8247 39.14922 17.399218
-100.83535 39.197773 16.934328
-100.82751 39.218864 16.461515
-100.83884 39.268181 16.000326
-100.81543 39.265949 15.523848
-100.83833 39.33218 15.071286
-100.8174 39.397408 13.681247
-100.83122 39.449848 13.229484
-100.77237 38.548111 17.241714
-100.80441 38.62698 16.792538
-100.7825 38.878326 12.661941
-100.64913 37.280594 17.844379
-100.64589 36.769859 17.712408
-100.68217 36.851543 17.27494
-100.6664 36.859772 16.810804
-100.62779 37.306202 9.2934017
-100.61308 36.220844 17.561972
-100.62134 36.411476 14.875624
-100.59853 36.408989 14.423136
-100.60249 36.531254 12.67153
-100.57104 36.544861 11.791632
-100.54869 35.984493 12.127791
-100.53779 36.139343 9.5623436
-100.52158 36.144836 9.1343412
-100.50894 36.155247 8.7083941
-100.49413 36.162552 8.2829704
-100.45 36.406784 3.6631694
-100.45009 36.434681 3.2445374
-100.43071 36.435131 2.8251069
-100.49811 35.533318 10.331165
-100.49001 35.605598 9.0668335
-100.47716 35.615566 8.644599
-100.47376 35.638531 8.2255039
-100.4624 35.650436 7.8054056
-100.45471 35.667358 7.3868613
-100.4562 35.724468 6.5544834
-100.4421 35.73241 6.1365333
-100.44147 33.982193 17.87191
-100.30528 32.842384 18.006214
-100.16733 31.248882 18.007423
-100.07788 29.743982 18.002457
-99.926689 28.666111 18.095251
-99.980194 28.304453 18.022442
-99.884346 26.942463 18.058018
-99.648994 27.622684 2.7146299
-99.700233 27.379236 0.91864967
-99.72596 25.938969 18.140041
-99.678131 26.942076 0.91972399
-99.632813 24.670004 18.134666
-99.532204 23.433004 18.146582
-99.457283 24.059828 5.9878745
-99.433891 23.44224 3.2384136
-99.351189 22.637737 9.2091379
-99.315826 22.21579 9.4856014
-99.362816 21.038733 18.185095
-99.383324 21.32745 13.50176
-99.298462 19.573227 18.219179
-99.049149 19.776705 3.8202505
-99.066261 19.809349 3.5092947
-99.02774 19.40653 3.8114507
-99.082054 19.472521 3.5046499
-99.160934 18.400192 18.252882
-99.055527 19.197033 1.6478864
-101.80952 52.545685 13.470984
-101.62823 50.949116 9.1160831
-101.64344 50.653584 10.671675
-101.63743 50.66885 10.272516
-101.63478 50.689445 9.8754187
-101.61461 50.681862 9.4740353
-101.60303 50.687992 9.0763941
-101.6783 49.834019 14.189091
-101.66851 49.633812 13.753069
-101.66231 49.416077 13.724586
-101.63829 49.175571 13.687007
-101.62977 48.960381 13.653717
-101.60886 48.677334 14.406998
-101.59296 48.474072 13.966608
-101.57552 48.494537 13.17013
-101.22469 44.509853 18.539989
-101.00112 41.838318 18.644819
-101.0164 41.694912 18.624115
-101.0298 41.544956 18.592491
-101.04176 41.386524 18.553391
-100.91169 40.52005 18.644512
-100.95908 40.41713 18.627954
-100.8262 39.435253 18.681213
-100.84855 39.311516 18.660913
-100.87047 39.178719 18.632711
-100.6468 37.225143 18.73321
-100.67554 37.106052 18.715607
-100.70937 36.995689 18.70013
-100.71107 36.86253 18.657928
-100.57715 36.953045 14.096339
-100.61986 36.811008 18.538025
-100.62948 36.668007 18.490673
-100.64877 36.538967 18.453484
-100.54114 36.657768 13.929698
-100.66952 36.416473 18.426575
-100.57777 36.535057 14.247903
-100.60345 36.584015 13.931182
-100.47145 34.410858 18.582487
-100.40085 34.458168 16.147028
-100.46313 34.269753 18.550425
-100.45361 34.384327 16.158194
-100.49136 34.16853 18.544184
-100.33314 33.551334 18.648457
-100.17285 31.436428 18.654642
-100.19908 31.332541 18.628147
-99.755608 28.581652 2.1644602
-99.70948 28.162813 2.4157681
-99.716881 28.181952 2.1600351
-99.751381 28.082605 2.4181468
-99.75885 28.101728 2.1624148
-99.878166 27.32497 18.749697
-99.706665 27.931723 2.1655114
-99.88166 27.210121 18.716694
-99.704727 27.797916 2.4166057
-99.690613 27.796251 2.1627302
-99.912781 27.118288 18.701061
-99.728828 27.333805 2.6523962
-99.66346 27.037418 2.6447697
-99.666664 25.381258 18.656906
-99.683395 25.28344 18.642338
-99.694031 25.18729 18.633511
-99.696198 25.085201 18.622063
-99.707039 24.988905 18.612602
-99.720642 24.892128 18.600185
-99.586998 24.224546 18.679781
-99.59063 24.116354 18.651838
-99.467911 24.534601 6.8890591
-99.446777 24.527592 6.6403966
-99.454155 24.544661 6.3982983
-99.452354 24.553938 6.1548581
-99.620476 24.02997 18.644548
-99.436592 24.396511 6.8721786
-99.44558 24.41489 6.6304927
-99.504112 24.485796 6.1554589
-99.644173 23.938086 18.631317
-99.428001 24.277359 6.8594065
-99.459663 24.31468 6.6228833
-99.459435 24.325258 6.3800101
-99.647392 23.82996 18.603113
-99.487091 24.215347 6.8617845
-99.43541 24.183001 6.6079669
-99.465492 24.218849 6.3716316
-99.456192 24.088652 6.605092
-99.448311 24.092793 6.361618
-99.430855 23.956347 6.5942326
-99.505844 23.266584 18.705349
-99.527611 23.174143 18.693338
-99.534531 23.071257 18.672726
-99.39608 23.62044 3.4745111
-99.397911 23.632212 3.2389338
-99.545288 22.973902 18.660196
-99.399658 23.51388 3.4759042
-99.561684 22.882441 18.653437
-99.426109 23.426456 3.4790988
-99.397041 23.412994 3.2426097
-99.421463 23.314192 3.4786265
-99.407936 23.313322 3.2432454
-99.392914 23.183685 3.4743097
-99.40274 23.201588 3.2406375
-99.37928 23.06629 3.4710598
-99.381348 23.077885 3.2375729
-99.348503 21.183725 18.788324
-99.351379 21.088095 18.761858
-99.360909 20.996105 18.741732
-99.359863 20.898308 18.721369
-99.370483 20.812298 18.712688
-99.375313 20.722597 18.695753
-99.285255 20.549541 18.91144
-99.375717 20.626419 18.671499
-99.287437 20.45311 18.885422
-99.29052 20.262178 18.832201
-99.276443 20.155935 18.797964
-99.295731 20.07333 18.791847
-99.285454 19.973721 18.764517
-99.295624 19.887913 18.754379
-99.302155 19.794863 18.736332
-99.318779 19.703926 18.721722
-99.218704 19.43099 18.920395
-99.213203 19.25025 18.900255
-99.213997 19.063622 18.858496
-99.212196 18.967213 18.83387
-99.198761 18.852842 19.108852
-99.230881 18.886269 18.824463
-99.197075 18.759916 19.080515
-99.222084 18.788532 18.790899
-99.176163 18.652988 19.033804
-99.23587 18.704096 18.7722
-99.169373 18.353767 18.929218
-99.179161 18.260576 18.903027
-99.177391 18.163317 18.876219
-99.181946 18.075823 18.867058
-99.13295 17.819334 18.852331
