# .PCD v0.7 - Point Cloud Data file format
VERSION 0.7
FIELDS x y z
SIZE 4 4 4
TYPE F F F
COUNT 1 1 1
WIDTH 1368
HEIGHT 1
VIEWPOINT 0 0 0 1 0 0 0
POINTS 1368
DATA ascii
-98.4375 55.151165 18.199842
-100.32902 32.232124 18.081884
-100.39426 31.388838 17.843817
-100.37543 30.896402 17.695833
-100.4011 30.995554 16.907774
-100.40599 31.032402 16.510962
-100.35726 30.41198 17.553579
-100.36577 30.454041 17.159386
-100.36723 30.484987 16.762312
-101.42116 17.796928 18.214018
-101.43713 18.034613 14.202767
-101.42929 18.044441 13.877103
-101.41264 18.045263 13.549042
-101.38712 18.03702 13.218863
-101.36607 18.033159 12.893111
-101.37634 18.060846 12.583765
-101.35776 18.059277 12.262911
-101.36398 18.082714 11.954639
-101.3345 18.069908 11.632784
-101.32319 18.075399 11.320352
-101.32339 18.092501 11.013984
-101.36749 18.08572 6.5171247
-101.3652 18.099508 6.2250161
-101.34022 18.090216 5.929574
-101.32038 18.0861 5.6359639
-101.31269 18.094288 5.3449521
-101.32415 18.121939 5.0569582
-101.3129 18.126465 4.766242
-101.26495 18.093563 4.4721222
-101.26412 18.108625 4.1837997
-101.24754 18.107622 3.8943474
-101.25017 18.126198 3.6067209
-101.2222 18.129379 3.0298946
-101.79783 13.985267 18.653294
-101.74718 13.68821 18.550304
-101.75923 13.444655 18.482065
-101.79398 13.217916 18.422615
-101.83018 12.98762 18.363457
-101.87855 12.766845 18.315065
-102.01701 11.665126 22.724991
-101.95123 11.377215 22.593319
-102.05193 11.230827 22.231108
-102.04411 10.76281 16.888521
-102.01089 10.445076 18.10008
-102.05443 10.536051 16.839809
-102.00607 10.212807 18.03603
-102.02065 9.9976044 17.985172
-102.0212 10.042221 17.02227
-102.01104 10.049732 16.700407
-102.02296 10.15625 14.56639
-102.01471 10.164186 14.265149
-102.01923 10.180859 13.972492
-102.01365 10.203806 13.385681
-102.02258 10.249617 12.527075
-102.01147 10.280809 11.674549
-102.01521 9.9777222 13.347118
-102.0126 9.9890337 13.057627
-102.00771 9.9986858 12.768923
-102.01604 10.017335 12.487812
-102.00275 10.033849 11.917489
-101.98103 10.031611 11.628824
-101.9884 10.049314 11.353478
-101.98579 10.060093 11.075609
-101.98893 10.074768 10.801273
-101.98998 10.087946 10.527436
-101.99687 10.105098 10.256845
-101.93141 10.228155 6.5278621
-101.92628 10.271458 5.4942088
-101.99966 9.7660761 12.7311
-101.98269 9.7800112 12.158134
-101.99429 9.8005018 11.88262
-101.97965 9.8155642 11.320592
-101.98483 9.8314953 11.046695
-101.92314 10.003942 6.255568
-101.9043 10.014061 5.7382436
-101.9084 10.028419 5.4825583
-101.91882 10.047137 5.228056
-101.90288 10.047595 4.970439
-101.89372 10.098487 3.696739
-101.89953 10.113941 3.4431591
-101.88711 10.11672 3.188659
-101.88107 10.123926 2.9347355
-101.88142 10.135573 2.6811476
-101.87995 10.145954 2.4275081
-101.87666 10.155067 2.1738369
-101.87156 10.162915 1.920153
-101.86464 10.169494 1.6664759
-101.8641 10.180532 1.4126199
-101.85354 10.184575 1.158927
-101.84335 10.200314 0.6508221
-102.17715 9.0526924 21.264601
-102.22227 9.1132135 20.592134
-102.20127 9.1150789 20.227781
-102.20541 9.1330404 19.886211
-102.16344 9.1209564 19.514629
-102.16248 8.7945442 16.475275
-102.17094 8.8136787 16.171654
-102.15407 8.8165321 15.855783
-102.12683 8.8126392 15.536941
-102.11211 8.816617 15.227975
-102.11778 8.8335247 14.932556
-102.12099 8.8487654 14.637902
-102.09855 8.8474722 14.332182
-102.08904 8.8543568 14.035512
-102.07705 8.8595552 13.739855
-102.07823 8.8731165 13.452663
-102.09274 8.8951721 13.17348
-102.06572 8.8904228 12.877002
-102.06777 8.9043016 12.595684
-102.18484 8.5663834 16.740538
-102.11777 8.8556118 9.3067541
-102.11597 8.8662949 9.0420465
-102.11214 8.8756266 8.7778206
-102.0899 8.8730583 8.5096731
-102.09023 8.8849678 8.2487717
-102.0639 8.8796558 7.9821219
-102.06026 8.8889093 7.7222514
-102.0629 8.9021873 7.4646711
-102.06758 8.9397278 6.6952443
-102.06632 8.9654875 1.1420768
-102.27934 7.1429644 21.179211
-102.27984 7.1585755 20.827932
-102.22594 7.2374792 3.9282453
-102.21603 7.0271678 3.9239039
-102.21648 7.0377069 3.6784921
-102.32935 4.9485674 3.0946705
-102.3329 4.9603906 2.8552704
-98.369102 56.003128 16.902569
-98.346603 55.672127 18.209654
-98.352486 55.724045 17.760977
-98.326851 55.701767 17.289078
-98.359512 55.816357 16.864647
-98.304367 55.873196 14.602276
-98.320412 55.948086 14.172434
-98.256981 55.871548 13.259171
-98.412819 55.661228 18.228973
-98.378174 55.65604 17.29579
-98.407166 55.761852 16.868425
-98.378555 55.881397 14.623143
-98.360565 55.875919 14.171509
-98.327477 55.871315 13.27607
-98.326332 55.9417 12.404969
-98.342606 56.016674 11.97945
-98.237358 55.875622 10.636112
-98.270523 55.858116 9.7713213
-98.390388 55.230228 18.567965
-98.321533 55.805122 9.7621651
-98.245804 55.627213 5.4504528
-98.25032 55.673611 5.029932
-98.234085 55.670578 4.6066051
-98.22802 55.691769 4.1847281
-98.201218 55.66346 3.7613294
-98.196175 55.687061 3.3398421
-98.181992 55.68882 2.9179039
-98.313248 55.609356 5.4456105
-98.299263 55.683037 4.1791973
-98.284004 55.682365 3.7561965
-98.263451 55.66906 3.3332541
-98.245361 55.661564 2.9108667
-98.233574 55.669109 2.4888194
-98.212646 55.654804 2.0669127
-98.178734 55.609425 1.6458617
-98.248398 55.590149 1.646594
-99.848991 38.069386 19.054407
-99.847488 37.79718 18.955135
-99.860222 37.546066 18.871216
-99.909378 36.24556 18.816425
-99.95433 36.049679 18.777515
-100.01089 35.868526 18.744543
-100.1541 34.213406 17.552345
-101.37198 18.09691 17.868841
-101.3579 18.125372 16.975945
-101.41827 18.176533 12.373383
-101.3857 18.185623 11.604669
-101.38346 18.194971 11.355698
-101.37177 18.197144 11.104123
-101.36573 18.203506 10.856525
-101.35023 18.202669 10.606536
-101.34045 18.206076 10.360403
-101.32117 18.202259 10.11209
-101.31535 18.208517 9.8703337
-101.28471 18.195969 9.6209688
-101.28294 18.205177 9.3833418
-101.27172 18.207191 9.1436243
-101.27419 18.219507 8.9095411
-101.45663 17.720825 18.728331
-101.33988 18.228262 5.4724364
-101.33974 18.238266 5.2477593
-101.31426 18.229023 5.0201373
-101.31097 18.236591 4.7959971
-101.30612 18.242954 4.5720215
-101.29971 18.248117 4.3482275
-101.29174 18.252079 4.1246328
-101.27427 18.248796 3.9006639
-101.25525 18.244305 3.6771028
-101.24261 18.244667 3.4543829
-101.24434 18.255957 3.2325888
-101.23657 18.260008 3.010489
-101.23521 18.268946 2.7886713
-101.20847 18.258492 2.5666215
-101.21199 18.271143 2.3450029
-101.49205 17.533386 19.014969
-101.22672 18.121367 1.6820623
-101.22404 18.129427 1.4603901
-101.21983 18.13632 1.2386149
-101.55069 17.018639 18.950203
-101.5542 16.844526 18.930176
-101.53908 16.658268 18.88871
-101.29003 17.273645 0.84972095
-101.54492 16.492144 18.855495
-101.5172 16.345644 18.808815
-101.53239 16.179535 18.782129
-101.55367 16.016596 18.762877
-101.58145 15.859924 18.7467
-101.69043 15.571768 23.096451
-101.58118 15.686173 18.706709
-101.69031 15.401369 23.05274
-101.58407 15.490888 19.288815
-101.61297 15.535934 18.696903
-101.67751 15.225341 23.00831
-101.62559 15.375324 18.681784
-101.66278 15.047815 22.965982
-101.65072 15.222296 18.679821
-101.67042 14.883384 22.939297
-101.7691 14.959652 22.680462
-101.66397 15.061046 18.663218
-101.69244 14.728244 22.921915
-101.77814 14.795967 22.650574
-101.68504 14.90532 18.648582
-101.77333 14.625504 22.607164
-101.70541 14.750683 18.633148
-101.76839 14.455499 22.563389
-101.72569 14.596306 18.617352
-101.78226 14.296439 22.538942
-101.81879 14.333215 22.224457
-101.7164 14.423771 18.579741
-101.7752 14.126783 22.495071
-101.81153 14.163248 22.181063
-101.82463 14.185781 21.849041
-101.73458 14.269732 18.563858
-101.78069 13.967343 22.463182
-101.81022 13.9996 22.143219
-101.82311 14.021923 21.811607
-101.745 14.113268 18.541708
-101.78018 14.147052 18.268534
-101.78316 14.18666 17.388834
-101.77608 13.807578 22.42519
-101.80547 13.839518 22.105631
-101.81142 13.857651 21.768202
-101.82761 13.881556 21.44434
-101.8021 13.895066 20.757601
-101.78068 13.896453 20.413628
-101.73799 13.951338 18.508753
-101.79475 13.997582 18.252354
-101.77555 14.023879 17.357639
-101.76168 13.646609 22.381905
-101.77746 13.670402 22.050232
-101.79668 13.696008 21.725863
-101.8195 13.72353 21.408632
-101.81861 13.737172 21.07403
-101.80054 13.740678 20.728737
-101.82763 13.770179 20.426744
-101.74271 13.800055 18.487883
-101.7778 13.833233 18.215437
-101.7886 13.8521 17.927277
-101.78207 13.860708 17.629393
-101.75067 13.854592 17.317039
-101.80495 13.898595 17.068184
-101.76848 13.513016 22.015053
-101.78759 13.538321 21.691092
-101.81715 13.569449 21.38043
-101.81615 13.582903 21.046169
-101.79793 13.586287 20.70122
-101.81104 13.607483 20.387682
-101.73205 13.64043 18.457319
-101.76708 13.673273 18.185312
-101.77777 13.6919 17.897593
-101.77844 13.704593 17.60545
-101.71001 13.677011 17.267332
-101.79379 13.737748 17.039831
-101.8062 13.768751 16.482826
-101.80847 13.793406 15.929383
-101.79825 13.798936 15.649302
-101.79311 13.818616 15.106436
-101.78305 13.823913 14.834166
-101.78496 13.85804 14.049752
-101.77482 13.873647 13.530985
-101.79435 13.40136 21.333757
-101.79997 13.418503 21.006138
-101.79537 13.429657 20.67371
-101.79441 13.442701 20.348623
-101.73569 13.487247 18.437817
-101.77073 13.51985 18.166105
-101.78136 13.538333 17.878679
-101.75255 13.534007 17.565628
-101.73547 13.536271 17.264685
-101.78975 13.579537 17.016659
-101.79714 13.595685 16.738102
-101.80197 13.610249 16.460407
-101.79674 13.61888 16.178677
-101.7889 13.625895 15.898022
-101.77089 13.626896 15.613701
-101.78843 13.648391 15.354156
-101.78069 13.655128 15.081306
-101.78588 13.66928 14.818585
-101.78102 13.677498 14.552162
-101.77202 13.694057 14.026495
-101.76012 13.697896 13.762919
-101.76163 13.709454 13.508676
-101.76883 13.724257 13.259241
-101.7739 13.73775 13.010414
-101.76892 13.74529 12.758308
-101.75381 13.74682 12.503188
-101.74451 13.751665 12.25282
-101.77319 13.778714 12.02166
-101.76781 13.785731 11.77623
-101.7523 13.786727 11.528046
-101.75089 13.795938 11.287647
-101.75562 13.808699 11.051224
-101.75842 13.820271 10.815293
-101.75114 13.825843 10.576698
-101.75008 13.835032 10.341898
-101.73891 13.838197 10.104643
-101.74227 13.849885 9.8739862
-101.72728 13.85068 9.638073
-101.73519 13.864965 9.4112282
-101.73734 13.885323 8.9558764
-101.72294 13.90509 8.2749329
-101.71773 13.929975 7.6048603
-101.69431 13.962008 6.5001726
-101.79869 13.234271 21.643572
-101.81441 13.257211 21.321146
-101.79926 13.262598 20.975401
-101.80143 13.277553 20.649338
-101.80032 13.290491 20.324532
-101.75384 13.35455 18.127678
-101.76425 13.372812 17.840765
-101.74988 13.37682 17.538832
-101.77197 13.413456 16.980303
-101.80907 13.44651 16.722578
-101.7913 13.448079 16.430103
-101.78587 13.456589 16.148829
-101.78543 13.467844 15.873481
-101.7901 13.481925 15.603864
-101.77702 13.485716 15.325686
-101.76141 13.487926 15.048678
-101.7587 13.497458 14.781958
-101.76911 13.514452 14.525087
-101.76759 13.535304 14.004668
-101.75555 13.539084 13.741488
-101.78057 13.564199 13.500089
-101.74823 13.55606 13.230463
-101.76901 13.578587 12.990175
-101.74799 13.576816 12.73065
-101.74866 13.587543 12.483752
-101.74725 13.596987 12.237537
-101.75179 13.609827 11.995697
-101.74625 13.616737 11.750836
-101.76293 13.636518 11.517244
-101.76148 13.645685 11.277091
-101.75803 13.653631 11.037573
-101.74445 13.655596 10.795453
-101.75342 13.670664 10.563707
-101.76051 13.684594 10.332333
-101.74928 13.687757 10.095326
-101.74436 13.694558 9.8619928
-101.72929 13.695354 9.6264143
-101.72059 13.699827 9.3943834
-101.71833 13.70803 9.1656694
-101.73923 13.729793 8.9452257
-101.73339 13.735812 8.7172642
-101.73411 13.745643 8.492259
-101.71629 13.744533 8.2629576
-101.73024 13.762078 8.0434132
-101.71727 13.76373 7.8174415
-101.70251 13.76429 7.5920787
-101.69373 13.795826 6.7110286
-101.86523 13.171406 20.343739
-101.76859 13.207431 18.10676
-101.75687 13.213115 17.803946
-101.77134 13.257428 16.949963
-101.79334 13.281698 16.682453
-101.77526 13.283142 16.390509
-101.76199 13.287183 16.104839
-101.77647 13.306871 15.839797
-101.77328 13.316427 15.565865
-101.76761 13.324453 15.292922
-101.77486 13.339744 15.030234
-101.7643 13.344782 14.759206
-101.76682 13.357191 14.49818
-101.74146 13.364347 13.965628
-101.76846 13.390501 13.724215
-101.75397 13.392815 13.462307
-101.73716 13.393706 13.201461
-101.74191 13.406881 12.95367
-101.73656 13.414185 12.702606
-101.72905 13.420168 12.452362
-101.7435 13.438715 12.214207
-101.73985 13.44678 11.969102
-101.75031 13.46291 11.7319
-101.74259 13.468492 11.488119
-101.73281 13.472822 11.245117
-101.73733 13.48534 11.009595
-101.73172 13.491954 10.771312
-101.73235 13.502118 10.536883
-101.72285 13.506353 10.299902
-101.72789 13.518966 10.069663
-101.71454 13.520859 9.8339882
-101.72413 13.536018 9.6076059
-101.72361 13.545264 9.3787537
-101.71294 13.548555 9.1477003
-101.72544 13.56529 8.9250813
-101.72784 13.576106 8.7001333
-101.72008 13.580963 8.4731274
-101.70213 13.579826 8.244338
-101.70758 13.592312 8.0230465
-101.71132 13.603762 7.8020067
-101.68828 13.608715 7.3547649
-101.68085 13.64085 6.478754
-101.76844 13.101345 16.920845
-101.76025 13.108523 16.633411
-101.772 13.126788 16.362143
-101.7661 13.135023 16.081776
-101.76521 13.14597 15.807342
-101.75417 13.151075 15.529098
-101.75592 13.163297 15.261387
-101.75526 13.174054 14.994544
-101.75996 13.187742 14.733138
-101.74674 13.19121 14.46358
-101.74443 13.211504 13.945041
-101.74773 13.224046 13.691262
-101.72507 13.22177 13.425765
-101.73975 13.240618 13.181826
-101.74439 13.25369 12.934353
-101.72292 13.251819 12.675796
-101.71523 13.25771 12.426037
-101.7376 13.280677 12.192107
-101.7419 13.293272 11.951074
-101.74416 13.304651 11.710611
-101.72003 13.300868 11.460236
-101.72637 13.314444 11.224648
-101.70624 13.312796 10.979522
-101.72504 13.333399 10.751664
-101.71733 13.338754 10.514476
-101.72416 13.352396 10.284174
-101.71259 13.355417 10.048252
-101.69908 13.357264 9.8130779
-101.71688 13.377073 9.5900364
-101.69128 13.371848 9.3533316
-101.71381 13.394312 9.1336432
-101.70954 13.401284 8.9061813
-101.71184 13.412004 8.6817379
-101.69556 13.411952 8.4528208
-101.70269 13.425392 8.2316332
-101.69124 13.428041 8.0061798
-101.70334 13.444293 7.7878146
-101.69683 13.449733 7.5653896
-101.68858 13.454126 7.3434243
-101.68708 13.462405 7.1238465
-101.68388 13.469666 6.9045939
-101.81647 12.972294 16.93083
-101.80836 12.979587 16.643248
-101.82022 12.997887 16.37183
-101.7916 12.993507 16.076546
-101.78306 13.000202 15.797341
-101.7796 13.009621 15.524023
-101.77364 13.017532 15.251697
-101.78841 13.036943 14.994243
-101.77758 13.041931 14.723761
-101.75649 13.041059 14.449899
-101.74615 13.056869 13.927528
-101.73354 13.060457 13.665616
-101.73447 13.071564 13.413034
-101.73318 13.081352 13.161201
-101.72972 13.089828 12.910141
-101.72432 13.107414 12.41427
-101.72247 13.116574 12.169348
-101.71043 13.119904 11.921473
-101.72063 13.135754 11.685244
-101.73703 13.155057 11.45295
-101.72701 13.159327 11.210688
-101.71494 13.162369 10.969229
-101.72551 13.178204 10.738363
-101.70947 13.17886 10.498334
-101.70795 13.187716 10.265357
-101.69624 13.190712 10.029935
-101.6992 13.202015 9.8011093
-101.692 13.207467 9.5698814
-101.7163 13.230859 9.3503046
-101.69705 13.229343 9.1173382
-101.69267 13.236272 8.8903809
-101.68648 13.242117 8.6639414
-101.6869 13.251703 8.4404573
-101.68555 13.260241 8.2173586
-101.68243 13.267731 7.9946661
-101.67757 13.274178 7.7723966
-101.67944 13.284456 7.5526495
-101.6796 13.293721 7.3331923
-101.67805 13.301974 7.1140432
-101.66628 13.304312 6.8933969
-101.66131 13.310537 6.6750035
-101.88519 12.866686 16.675928
-101.87651 12.885285 16.113247
-101.87589 12.896468 15.838359
-101.85736 12.897631 15.554889
-101.85162 12.905758 15.282104
-101.85115 12.916697 15.014956
-101.84046 12.921871 14.744166
-101.8586 12.942958 14.492301
-101.82522 12.946132 13.95561
-101.80489 12.945536 13.688999
-101.80599 12.956794 13.436024
-101.79691 12.962288 13.179729
-101.80959 12.979856 12.936326
-101.78807 12.97823 12.677773
-101.79652 12.993284 12.43567
-101.76247 12.98447 12.175361
-101.79104 13.010666 11.945731
-101.76075 13.003792 11.691099
-101.77724 13.023098 11.458727
-101.74267 13.013658 11.206122
-101.73878 13.021382 10.968167
-101.72466 13.023289 10.727619
-101.71677 13.028644 10.491094
-101.73179 13.046847 10.264548
-101.72836 13.054608 10.032219
-101.69806 13.047131 9.7916985
-101.70747 13.062034 9.5664873
-101.69836 13.066412 9.3360529
-101.68736 13.069677 9.1062632
-101.69131 13.081361 8.8823185
-101.70096 13.114937 8.2149868
-101.6809 13.112827 7.9879642
-101.68633 13.134396 7.5487132
-101.80165 12.64303 17.165461
-101.80846 12.495903 17.150316
-101.7922 12.935086 6.4693012
-101.78261 12.947844 6.0350161
-101.77494 12.961586 5.6033473
-101.77726 12.971894 5.3891373
-101.76063 12.971498 5.1727781
-101.75966 12.979912 4.9589963
-101.76572 12.992285 4.7463269
-101.76148 12.998831 4.5327792
-101.75562 13.004441 4.319417
-101.74812 13.009115 4.106256
-101.73033 13.007935 3.8927007
-101.74565 13.025517 3.681658
-101.70724 13.012609 3.4677103
-101.7541 13.048102 3.2580705
-101.73854 13.048144 3.0456417
-101.71267 13.042314 2.8333354
-101.71127 13.050389 2.6217899
-101.71695 13.062501 2.4102309
-101.70365 13.063798 2.1986654
-101.70612 13.074085 1.9869469
-101.68093 13.06859 1.7758616
-101.68019 13.077048 1.5641354
-101.67783 13.084592 1.3522989
-101.83604 12.361418 17.152864
-101.87524 12.232818 17.170263
-101.86765 12.078987 17.158642
-101.86501 12.067929 10.280536
-101.83395 11.760614 10.271291
-101.87309 11.790529 10.055429
-101.90519 11.386377 9.8422279
-101.91653 11.25343 9.8421631
-101.99687 10.721346 17.182068
-101.83125 10.748547 3.9244623
-101.90157 10.791655 3.7195952
-101.90529 10.903689 0.99208939
-102.21436 9.0536242 21.137472
-102.16232 8.7752533 21.076031
-102.12473 8.7814579 17.062006
-102.13497 8.7967873 16.786509
-102.13457 8.8075237 16.506771
-102.13138 8.8169785 16.228065
-102.12543 8.8251562 15.950418
-102.10869 8.8286581 15.669006
-102.09724 8.8342857 15.393654
-102.09119 8.842103 15.124162
-102.09886 8.8556404 14.864959
-102.07948 8.8575974 14.592855
-102.09036 8.8723297 14.339891
-102.09888 8.8859816 14.087578
-102.06725 8.8922749 13.563824
-102.12744 8.6514606 17.056965
-102.20021 8.7255392 15.990094
-102.216 8.7428303 15.727509
-102.20499 8.7487822 15.451241
-102.19939 8.7569036 15.180831
-102.18298 8.7603807 14.90682
-102.19673 8.7764511 14.652225
-102.19984 8.7879639 14.393778
-102.19225 8.7948694 14.13174
-102.10285 8.7770157 13.576756
-102.15455 8.8087435 13.351661
-102.13707 8.8111076 13.09374
-102.06654 8.790864 12.812922
-102.12871 8.8268738 12.59689
-102.1381 8.8404198 12.357374
-102.11976 8.8421021 12.107116
-102.14189 8.8609514 11.876282
-102.12768 8.8642511 11.631317
-102.11124 8.8665276 11.387279
-102.09258 8.8677874 11.14419
-102.08906 8.8754482 10.908774
-102.06608 8.8747187 10.667492
-102.0932 8.8953991 10.446341
-102.08351 8.9002552 10.21283
-102.09806 8.9154615 9.989109
-102.07557 8.914711 9.7538977
-102.22533 8.5758486 16.834002
-102.15269 8.578311 15.95641
-102.15092 8.6194973 14.884537
-102.11177 8.6534548 13.577611
-102.18873 8.6955824 13.364992
-102.17978 8.7015924 13.11091
-102.14629 8.7068081 12.601665
-102.08684 8.8097038 9.303793
-102.10762 8.8360863 8.8625612
-102.10882 8.8967505 7.3246131
-102.09911 8.9010315 7.105938
-102.11465 8.9161758 6.893271
-102.08327 8.911046 6.6718526
-102.06814 8.9128914 6.4546418
-102.07841 8.9256878 6.2427187
-102.06881 8.9298706 6.0278645
-102.11217 8.5672922 12.583629
-102.07812 8.6801987 9.2997942
-102.1205 8.7068701 9.0886221
-102.10783 8.7101831 8.8614988
-102.08656 8.8521624 4.9712148
-102.08486 8.8596268 4.7602696
-102.07233 8.8623934 4.5486069
-102.06625 8.5928049 8.1847944
-102.08174 8.6078329 7.9695954
-102.09545 8.6220903 7.7544842
-102.04538 8.6177444 7.3085275
-102.14401 8.6678963 7.1136889
-102.10432 8.7337046 4.9727221
-102.08437 8.7333374 4.7597427
-102.07185 8.7361231 4.5481663
-102.21643 8.194953 16.814936
-102.20042 8.1993809 16.524654
-102.18144 8.2024899 16.235703
-102.15147 8.2010269 15.943177
-102.159 8.2146196 15.676494
-102.14767 8.2204723 15.401065
-102.14996 8.2317467 15.136202
-102.14147 8.238553 14.867589
-102.13037 8.2441959 14.600038
-102.12495 8.2520542 14.33805
-102.0938 8.6838045 2.8730235
-102.10283 8.6957779 2.6640198
-102.09178 8.6991673 2.4547918
-102.07906 8.7018318 2.2457356
-102.09224 8.7155962 2.0363901
-102.06698 8.7128754 1.8277092
-102.05842 8.7173176 1.6187555
-102.05737 8.724987 1.4094421
-102.16852 8.0806293 15.94679
-102.19154 8.1316433 14.889412
-102.18886 8.1407747 14.626025
-102.18364 8.1487923 14.363573
-102.17589 8.1556997 14.102082
-102.18824 8.1903191 13.348607
-102.15383 8.1860819 13.082609
-102.1455 8.2018948 12.586241
-102.19648 8.260293 11.643209
-102.20504 8.2822638 11.172752
-102.20184 8.2901011 10.936681
-102.14405 8.2755098 10.68167
-102.14527 8.2850304 10.450633
-102.16206 8.3008947 10.226346
-102.13283 8.2978048 9.9871969
-102.1103 8.2974005 9.7520704
-102.06561 8.3397331 8.1783648
-102.06311 8.3472261 7.9588113
-102.19067 7.9664707 15.955554
-102.18673 8.0167141 14.620367
-102.17318 8.0213842 14.353519
-102.18206 8.034936 14.100972
-102.19449 8.0694513 13.347493
-102.21089 8.0857382 13.105963
-102.1347 8.074213 12.577291
-102.0991 8.1954517 9.0700998
-102.10417 8.2061853 8.8486843
-102.05536 8.3365469 4.9613976
-102.07204 8.3516588 4.753005
-102.17756 7.8413634 15.947659
-102.18189 7.894423 14.617777
-102.16837 7.8990598 14.351005
-102.17729 7.9125118 14.098534
-102.19784 7.9595604 13.099756
-102.20907 8.065506 10.470545
-102.1002 8.0825405 8.8479891
-102.06139 8.2158413 4.9632668
-102.05056 8.2194529 4.751955
-102.05642 8.229948 4.5427585
-102.16969 7.7802143 14.357338
-102.17039 7.7903013 14.100471
-102.1663 7.8176513 13.339137
-102.05765 8.0917692 4.9684415
-102.0561 8.0991411 4.7581873
-102.22417 7.8558612 9.799015
-102.22437 7.7091217 10.493077
-102.20865 7.7288094 9.7986116
-102.20246 7.8586359 6.2740345
-102.25529 7.599227 10.503458
-102.22635 7.6051731 10.032286
-102.22208 7.6120462 9.8023548
-102.20761 7.7460532 6.0608482
-102.20248 7.6142111 6.2714677
-102.19331 7.6185627 6.0560822
-102.19158 7.625813 5.8425217
-102.1973 7.6359863 5.6305451
-102.27801 7.0653419 12.166175
-102.20302 7.180088 8.2242918
-102.17393 7.1770592 7.9969831
-102.17021 7.1836381 7.7771616
-102.18291 7.1964335 7.5619822
-102.26775 7.1324458 6.9272194
-102.255 7.1353741 6.7085924
-102.15024 7.1187091 6.0469861
-102.1671 7.1327648 5.8367596
-102.20076 7.1532121 5.629097
-102.35915 5.1058064 10.629689
-102.35253 5.1118941 10.393883
-102.33872 5.1831427 4.6590047
-102.30752 5.180541 4.4440322
-102.31245 5.1896014 4.2329111
-102.28715 5.1888633 4.0197229
-102.30753 5.2029166 3.8101609
-102.29768 5.2071629 3.5987382
-100.15531 33.57365 18.146961
-100.22299 33.19746 18.070122
-100.3168 31.462984 17.666693
-100.33052 31.042233 17.125931
-101.44971 18.233358 17.936304
-101.42673 18.373878 14.993582
-101.38673 18.360931 14.619308
-101.40295 18.393248 14.272002
-101.37968 18.393564 13.90969
-101.36858 18.403603 13.554616
-101.3103 18.375322 13.183016
-101.30141 18.386908 12.8332
-101.29001 18.396357 12.484228
-101.29855 18.421906 12.144115
-101.32704 18.425827 5.7948904
-101.32771 18.444012 5.4710298
-101.31071 18.447813 5.1455355
-101.27605 18.437185 4.818954
-101.2933 18.468822 4.4979811
-101.26971 18.467148 4.1736608
-101.2594 18.47628 3.8508871
-101.23143 18.47097 3.5274746
-101.23997 18.495474 3.2063148
-101.20766 18.486555 2.8836479
-101.74219 14.867905 18.652023
-101.65643 14.472733 18.519487
-101.83688 13.204353 19.012213
-101.78848 12.873664 18.164351
-101.86435 12.587517 18.130909
-101.92767 11.754642 22.194767
-101.97974 11.806267 21.835546
-101.97507 11.48069 21.764343
-102.00144 11.516376 21.391739
-101.96815 11.15592 21.693073
-102.00185 11.19534 21.326546
-102.00932 10.661604 12.737889
-102.00438 10.690976 12.093047
-101.85303 10.691511 3.8111515
-101.87692 10.719816 3.5167987
-101.88122 10.736958 3.2212362
-101.90931 10.767692 2.9264309
-101.90044 10.777326 2.6302404
-101.898 10.790633 2.3342831
-101.902 10.807626 2.0383203
-102.1003 9.2063408 10.693778
-102.09173 9.2168131 10.381713
-102.11263 8.5906134 3.7830708
-102.24747 7.9463139 12.181396
-102.07099 8.2536249 3.7613292
-102.1143 8.288682 3.4734337
-102.26112 7.4322777 16.374743
-102.23427 7.4358168 16.023228
-102.22094 7.4455237 15.68088
-102.25491 7.4772029 15.36227
-102.25245 7.4917765 15.029237
-102.22169 7.4929996 14.686375
-102.25566 7.6305881 12.13129
-102.17869 7.7394409 9.0386658
-102.08062 7.9425998 3.7359385
-102.11497 7.9729862 3.4483519
-102.27723 7.2783303 13.034777
-102.28058 7.3101368 12.402449
-102.26954 7.3200393 12.084394
-102.26389 7.361999 11.149102
-102.26845 7.3788409 10.842159
-102.2529 7.3862658 10.530701
-102.25233 7.4005938 10.224957
-102.24042 7.4095726 9.917428
-102.23479 7.4214144 9.6129036
-102.22664 7.4320245 9.3089848
-102.18942 7.4289699 8.999444
-102.21174 7.453721 8.7050667
-102.18726 7.4565015 8.4011192
-102.16027 7.4580441 8.0980501
-102.16646 7.4751053 7.8028536
-102.17027 7.4910164 7.5078983
-102.18065 7.5099864 7.2147789
-102.16185 7.5151792 6.9173231
-102.16752 7.5318661 6.6247177
-102.15292 7.5389595 6.3296514
-102.15391 7.5533781 6.0375667
-102.12563 7.5539236 5.7422743
-102.1489 7.5788426 5.4540443
-102.15192 7.5941548 5.1636181
-102.12563 7.5955472 4.8706594
-102.13304 7.6129026 4.5815125
-102.11114 7.6163135 4.2902265
-102.14101 7.6443324 4.0031633
-102.07672 7.6412807 3.4217825
-102.12979 7.2867594 4.8497176
-102.18233 7.3250866 4.56529
-102.145 7.3353477 3.9845669
-102.3476 5.2830343 10.403103
-102.32551 5.3021474 9.7957821
-98.290245 55.711205 14.47313
-98.401108 55.366783 18.772833
-98.413803 55.482544 17.476812
-98.327171 55.779816 10.722453
-98.291031 55.497562 6.2476764
-98.279549 55.502182 5.8458037
-98.271004 55.512558 5.4448066
-98.278915 55.555443 5.0459647
-100.16913 32.921486 18.725918
-100.1899 32.805447 18.704512
-100.18426 32.664009 18.666628
-100.23782 32.588997 18.673859
-100.24417 32.461533 18.643181
-100.27578 32.359158 18.630474
-100.30729 32.256622 18.617622
-100.31933 32.13612 18.590424
-100.33665 32.023701 18.566519
-100.35482 31.911791 18.540442
-100.42683 30.972763 17.932165
-100.53931 28.845888 12.84368
-100.68778 26.632942 16.597454
-100.67144 26.632853 16.276299
-100.69534 26.519958 16.573278
-100.71971 26.555386 16.278225
-100.68033 26.53525 15.94568
-100.72488 26.481573 15.336747
-100.67793 26.45471 15.008716
-100.57965 26.703011 7.7256331
-100.58604 26.568344 8.2463646
-100.61043 26.601997 7.9882722
-100.6405 26.640644 7.7317224
-100.63177 26.507982 7.9911323
-100.63043 26.340431 6.6796551
-100.63 26.179426 7.7185278
-100.67836 26.244894 7.2062526
-100.7112 26.285128 6.9520054
-100.65228 26.084892 7.7169065
-100.66619 26.108646 7.458509
-100.66344 26.118006 7.1967878
-100.63733 25.844633 7.6968775
-101.43961 18.084648 18.151342
-101.46274 18.110224 17.854845
-101.4532 18.116415 17.5394
-101.38796 18.089563 17.191492
-101.45576 18.141235 16.931335
-101.43916 18.16559 16.027094
-101.42054 18.165737 15.723474
-101.40694 18.168753 15.425532
-101.40623 18.179333 15.137341
-101.37181 18.169773 14.83328
-101.38165 18.186445 14.555502
-101.34984 18.178226 14.258193
-101.35483 18.191851 13.982157
-101.33374 18.18984 13.695201
-101.31017 18.186255 13.409469
-101.33195 18.209679 13.147286
-101.32761 18.217432 12.874508
-101.31297 18.218948 12.598996
-101.30902 18.23694 12.06459
-101.48369 17.99918 18.473856
-101.40892 18.208632 11.826274
-101.38054 18.221804 11.030114
-101.36674 18.223478 10.766356
-101.32618 18.209045 10.494779
-101.35744 18.237598 10.249855
-101.35381 18.245195 9.9939327
-101.30679 18.226702 9.7253981
-101.31559 18.241652 9.4762096
-101.30582 18.245413 9.2223768
-101.27742 18.237909 8.964427
-101.28864 18.254202 8.7190056
-101.27291 18.25423 8.467124
-101.35538 18.233801 7.7375898
-101.35717 18.244316 7.493154
-101.34865 18.248606 7.247221
-101.35513 18.261889 7.0051746
-101.32596 18.253677 6.7568216
-101.32025 18.259567 6.513926
-101.31271 18.264315 6.2714
-101.26939 18.247446 6.0238323
-101.28359 18.26527 5.7862625
-101.26202 18.261465 5.5438633
-101.25563 18.266804 5.3042798
-101.25594 18.276182 5.066
-101.23743 18.274149 4.8260088
-101.22564 18.276159 4.5873585
-101.25469 18.302916 4.352809
-101.32948 18.269684 3.8814418
-101.31018 18.285446 3.1689429
-101.31126 18.304369 2.6951249
-101.27494 18.291477 2.4579496
-101.27106 18.298246 2.2213256
-101.25687 18.298754 1.9848299
-101.24552 18.204632 1.7521499
-101.45353 17.574997 19.035116
-101.50712 17.617964 18.752573
-101.29056 18.152567 1.2825044
-101.26439 17.393515 0.8206141
-101.8037 13.907519 19.069542
-101.85264 13.252471 18.67775
-101.86295 13.16295 18.679663
-101.86388 13.071333 18.677822
-101.87361 12.983181 18.679873
-101.84718 12.844562 19.621738
-101.85164 12.881116 18.660545
-101.83372 12.745569 19.606564
-101.86568 12.782485 18.982798
-101.86138 12.792042 18.6618
-101.85883 12.66246 19.616512
-101.83641 12.676099 18.955166
-101.87877 12.705665 18.666079
-101.81351 12.594128 18.645723
-101.97872 12.040831 22.796669
-101.991 11.954244 22.806314
-101.98215 11.858667 22.796839
-101.97423 11.763889 22.786074
-101.9724 11.672023 22.781763
-101.97874 11.581038 22.783619
-101.97895 11.487766 22.777948
-101.95087 11.601906 19.322128
-101.96198 11.390821 22.760775
-102.04855 11.437713 22.468618
-101.94862 11.510558 19.317894
-101.95852 11.300276 22.757288
-102.062 11.263379 22.483238
-102.03307 11.162518 22.465437
-101.93407 11.235972 19.316603
-102.02577 11.073298 22.465464
-102.02376 10.990303 22.472689
-102.01906 10.908149 22.481722
-102.01672 10.825496 22.488367
-102.00423 10.735367 22.478243
-102.00743 10.651003 22.478231
-102.04499 10.853262 17.22673
-102.0542 10.775016 17.23423
-102.04408 10.695066 17.234488
-102.04782 10.622408 17.246353
-102.01826 10.538388 17.239708
-102.01833 10.435065 18.173979
-102.01279 10.464962 17.248014
-102.02179 10.399635 17.266556
-102.0351 10.305777 18.211571
-102.03908 10.338565 17.289595
-102.0276 10.237127 18.219395
-102.01559 10.263783 17.287594
-102.15462 10.119872 21.289927
-102.03096 10.204798 17.31164
-102.03613 10.418145 10.939026
-102.03127 10.245788 14.139667
-102.0298 10.324537 11.723751
-102.02761 10.365899 10.438127
-102.01794 10.083674 17.027336
-102.02863 10.163111 14.706089
-102.019 10.195601 13.593613
-102.02958 10.208278 13.326389
-102.0259 10.224422 12.786482
-102.0291 10.23424 12.521331
-102.02108 10.239909 12.253371
-102.02825 10.25107 11.993117
-102.01537 10.254853 11.726771
-102.02671 10.267435 11.471104
-102.02687 10.275885 11.212725
-102.00686 10.276892 10.94882
-102.01132 10.28682 10.694923
-102.02252 10.299184 10.44447
-102.01354 10.304092 10.188727
-102.01132 10.311441 9.9364738
-102.01593 10.321267 9.6874809
-102.02111 10.02168 17.033365
-102.02316 10.13317 13.598681
-102.02513 10.142652 13.327555
-102.02459 10.151161 13.0572
-102.0248 10.168468 12.522491
-102.02562 10.1773 12.258027
-102.0152 10.18199 11.990859
-102.01119 10.188955 11.727926
-102.01369 10.198237 11.469007
-102.01387 10.206627 11.210709
-102.0028 10.210864 10.94997
-102.00731 10.22074 10.696072
-102.0006 10.226472 10.439779
-102.00962 10.237918 10.189874
-102.00744 10.245224 9.9376183
-101.97383 10.426241 3.9250803
-101.96349 10.437406 3.4575832
-101.95705 10.457506 2.75811
-101.94797 10.461595 2.5250635
-102.0181 10.04851 14.144367
-102.00371 10.06103 13.588037
-102.02344 10.111335 12.255183
-102.02184 10.119226 11.991431
-102.01785 10.126197 11.728415
-102.01147 10.132249 11.466163
-102.01164 10.140626 11.207865
-102.01844 10.151367 10.953297
-102.00506 10.154723 10.693228
-101.99833 10.16045 10.436935
-101.99834 10.168588 10.184194
-101.94088 10.34109 4.1537666
-101.94323 10.349481 3.9204104
-101.93432 10.353662 3.6865859
-101.94221 10.364106 3.4538682
-101.92947 10.366843 3.2203732
-101.94291 10.379359 2.9879293
-101.93572 10.384161 2.7549179
-101.92663 10.388245 2.5220463
-101.91563 10.391609 2.2893324
-101.92146 10.401281 2.0566111
-101.91603 10.40673 1.8239125
-101.92741 10.418497 1.5907186
-101.92751 10.426038 1.357583
-101.91636 10.429347 1.1247848
-101.91265 10.43546 0.89154899
-102.01096 9.9973812 13.58874
-102.00979 10.065756 11.462975
-102.00993 10.074165 11.204677
-102.00775 10.081692 10.947025
-102.0055 10.097369 10.436669
-102.01451 10.108824 10.186679
-102.00327 10.112883 9.931591
-101.94447 10.240029 5.3231635
-101.94759 10.2791 4.1513081
-101.94992 10.287522 3.9178655
-101.95033 10.295228 3.684474
-101.93948 10.298735 3.4507203
-101.9267 10.301517 3.2172275
-101.93076 10.310557 2.9845266
-101.92353 10.315394 2.7516043
-101.91441 10.319516 2.518822
-101.91274 10.326421 2.2861924
-101.91855 10.336117 2.0534713
-101.91308 10.341601 1.8207742
-101.92443 10.353385 1.5875801
-101.91515 10.35745 1.3547993
-101.91332 10.364308 1.1216494
-101.90958 10.370457 0.88841492
-102.01168 9.9065847 14.41864
-102.00692 9.9317656 13.588712
-102.00578 10.000362 11.462953
-101.9948 10.013126 10.943921
-102.01053 10.043559 10.186661
-101.99929 10.047658 9.9315739
-102.00391 10.057461 9.68258
-101.94366 10.214547 4.1513085
-101.92727 10.216064 3.9166565
-101.95578 10.234188 3.6849942
-101.93555 10.234264 3.4507232
-101.92278 10.237087 3.217231
-101.9362 10.249625 2.9847875
-101.93835 10.257981 2.7519479
-101.9386 10.265629 2.519074
-101.91819 10.265594 2.2861936
-101.924 10.275308 2.0533862
-101.8998 10.273843 1.8209615
-101.92052 10.289128 1.5875887
-101.92061 10.296723 1.3544546
-101.90005 10.296618 1.1221004
-101.90568 10.306292 0.88842559
-101.92807 10.322253 0.65327942
-102.00075 9.869504 13.591561
-102.00271 9.8789835 13.320516
-101.99431 9.9105034 12.247818
-102.01038 9.9247484 11.99106
-102.00641 9.9317665 11.728046
-102.00916 9.9494896 11.210665
-102.00706 9.9570322 10.95293
-101.98471 9.9572392 10.68986
-101.99597 9.9694948 10.439489
-101.99603 9.9776754 10.186665
-101.92065 10.144449 4.1527314
-101.93239 10.156308 3.9200695
-101.93285 10.164008 3.686765
-101.9314 10.170997 3.4535289
-101.92804 10.177274 3.2203794
-101.93214 10.186306 2.9875917
-101.93435 10.194634 2.7547517
-101.91589 10.19531 2.5217104
-101.91427 10.20222 2.2889931
-101.91075 10.208425 2.0562768
-101.89596 10.210442 1.8237573
-101.91675 10.225677 1.5903863
-101.89814 10.226279 1.3579569
-101.89636 10.233141 1.1248938
-101.89268 10.239296 0.89174592
-101.99937 9.7933769 14.147646
-102.0025 9.8121042 13.599118
-102.00456 9.8215504 13.327991
-102.00446 9.8472996 12.522926
-102.00536 9.8561049 12.258461
-102.00385 9.8639946 11.994708
-102.00283 9.8886089 11.214309
-101.99184 9.8929024 10.953485
-102.00543 9.905962 10.702507
-101.99883 9.9117346 10.446047
-101.99896 9.9198837 10.193137
-101.98783 9.9239388 9.9380445
-102.00164 9.9369278 9.6917191
-101.93475 10.089382 4.1577148
-101.92782 10.094315 3.9236639
-101.93771 10.105422 3.6908791
-101.92695 10.108927 3.4571209
-101.93302 10.118623 3.2243161
-101.9278 10.12416 2.9911816
-101.93945 10.135907 2.7585127
-101.91165 10.133103 2.5252953
-101.9101 10.139978 2.2925768
-101.90663 10.146148 2.0598586
-101.92002 10.158554 1.826805
-101.90337 10.159845 1.5942307
-101.90356 10.167376 1.361182
-101.90183 10.174202 1.1280303
-101.90756 10.1838 0.89426792
-101.92072 10.19617 0.65965152
-101.99806 9.7598219 13.330215
-101.99805 9.7855978 12.52515
-101.99899 9.7944098 12.260685
-101.99364 9.8093023 11.733916
-101.99628 9.8185654 11.474915
-101.97231 9.8346863 10.69572
-101.98367 9.8468838 10.445352
-102.00188 9.861496 10.1982
-101.92935 10.028028 4.1599407
-101.94119 10.03984 3.9271069
-101.923 10.040645 3.6925843
-101.91225 10.044165 3.4589124
-101.88083 10.040084 3.2248063
-101.91317 10.059404 2.9931481
-101.92484 10.071144 2.7605677
-101.91584 10.075282 2.5276065
-101.91431 10.082168 2.2948008
-101.90149 10.084893 2.062084
-101.91491 10.097292 1.8290319
-101.90766 10.102072 1.5961931
-101.8985 10.106148 1.3634079
-101.8968 10.112984 1.1302562
-101.91193 10.126048 0.89597005
-101.89703 10.128014 0.66310328
-101.98863 9.7467966 11.734735
-101.98959 9.7720985 10.95962
-101.99426 9.7819939 10.705558
-101.9967 9.7910461 10.45202
-101.97883 9.7928152 10.193354
-101.98581 9.8034048 9.9438524
-101.9338 9.9703808 4.1614971
-101.94566 9.9822264 3.9285779
-101.91808 9.9796705 3.6934466
-101.88857 9.9763851 3.4589062
-101.92703 10.005442 2.9945352
-101.91994 10.010337 2.7614357
-101.91093 10.014526 2.5284755
-101.90941 10.021457 2.295671
-101.91536 10.031134 2.0627785
-101.90063 10.033215 1.8300805
-101.89339 10.038042 1.5973299
-101.91236 10.052528 1.3635828
-101.90129 10.055956 1.1306953
-101.90704 10.065593 0.89684832
-101.99258 9.6880617 11.738768
-101.99559 9.7059212 11.221227
-101.99361 9.7135458 10.96341
-101.99177 9.7294035 10.452724
-101.98293 9.7344522 10.196897
-101.93822 9.9134064 4.1629343
-101.9407 9.921876 3.9293206
-101.92251 9.9228096 3.6947122
-101.91269 9.9418612 2.9950218
-101.90559 9.946804 2.7620108
-101.90597 9.9544783 2.5292253
-101.91383 9.9648895 2.2964215
-101.90101 9.9677305 2.0636191
-101.88628 9.9698687 1.8310093
-101.8978 9.9816313 1.5978223
-101.88863 9.9858122 1.365039
-101.88694 9.9927378 1.1318901
-101.89271 10.002412 0.89813179
-101.98565 9.668498 10.454221
-101.98383 9.6842651 9.9488125
-101.92303 9.8500938 4.1637597
-101.91615 9.8551884 3.9296243
-101.92611 9.8663874 3.696759
-101.89754 9.8787279 2.9962869
-101.92803 9.8973942 2.764061
-101.90964 9.898263 2.5308406
-101.91751 9.9087038 2.2979515
-101.8953 9.9081669 2.0651495
-101.89936 9.9172163 1.8321906
-101.9015 9.9255724 1.5990928
-101.90173 9.9332333 1.3658741
-101.88128 9.9333267 1.1334238
-101.88706 9.9430294 0.89966714
-102.14446 9.3123636 21.366793
-102.13456 9.3203354 21.012403
-102.12079 9.326848 20.659588
-102.12672 9.339922 20.325165
-102.10541 9.3435946 19.975418
-101.98615 9.6024752 10.712489
-101.98863 9.6116505 10.458872
-101.9827 9.6341925 9.7013874
-101.9268 9.794323 4.1662073
-101.9387 9.8062458 3.933207
-101.91113 9.8038883 3.6979868
-101.9004 9.8076077 3.4642303
-101.91078 9.8265619 2.998564
-101.9131 9.8349991 2.7656417
-101.90411 9.8393278 2.5325961
-101.90262 9.8463736 2.2997077
-101.89921 9.852725 2.066819
-101.89388 9.8583813 1.8339481
-101.90543 9.8701887 1.6005906
-101.8869 9.8710299 1.3679817
-101.88523 9.878026 1.1347474
-101.89102 9.8877544 0.90090507
-102.19385 9.2933245 20.715347
-102.20023 9.3066034 20.380203
-102.18725 9.3131886 20.03525
-102.19438 9.3264761 19.708187
-101.98167 9.5683899 9.952466
-101.98015 9.584198 9.4518452
-101.93083 9.7390337 4.1660867
-101.93335 9.7475815 3.9323888
-101.91516 9.7486534 3.6976933
-101.92323 9.7591887 3.4647236
-101.92421 9.774785 2.9982727
-101.90773 9.7764368 2.7648268
-101.90663 9.7912617 2.2988944
-101.91262 9.8010445 2.0658324
-101.88849 9.7999001 1.8331355
-101.90005 9.8117123 1.5997783
-101.89089 9.8160038 1.366822
-101.8986 9.826436 1.1330657
-101.87623 9.8259201 0.90061724
-101.9176 9.8486433 0.66418165
-101.92516 9.6803885 4.1638064
-101.91827 9.6855764 3.9294994
-101.91885 9.6934385 3.6959388
-101.9175 9.7006044 3.4624462
-101.91135 9.7213144 2.7627268
-101.90083 9.7327814 2.2966216
-101.90144 9.7482805 1.830516
-101.8927 9.7680521 1.1307967
-101.88354 9.7800465 0.66374362
-101.92249 9.6305437 3.9265411
-101.90599 9.6631184 2.7591674
-101.90634 9.6709356 2.5261247
-101.89592 9.6902514 1.8269632
-101.92474 9.7392378 0.65714169
-101.91763 9.6027775 2.9869916
-101.91071 9.6158457 2.5205121
-101.89104 9.6710281 0.65329731
-102.08169 9.0793056 16.781319
-102.13847 9.0414057 16.806744
-102.11193 9.0427122 16.49267
-102.12424 9.0570068 16.203154
-102.11682 9.0645628 15.905382
-102.08949 9.0652905 15.599857
-102.09315 9.0764065 15.313297
-102.09218 9.0955877 14.742881
-102.1048 9.1095171 14.46735
-102.18324 9.0018501 16.831728
-102.19041 9.0145311 16.535915
-102.1694 9.0176544 16.227215
-102.15372 9.0224657 15.924455
-102.14351 9.0290165 15.627437
-102.15592 9.0431118 15.344697
-102.12283 9.0417633 15.041239
-102.12107 9.0509071 14.756176
-102.12519 9.0619631 14.476194
-102.10933 9.0661745 14.188928
-102.11676 9.0782061 13.914745
-102.10417 9.083374 13.633493
-102.10641 9.0935059 13.36093
-102.1061 9.1027079 13.089138
-102.11208 9.113987 12.821791
-102.08907 9.1153212 12.544398
-102.08118 9.1217432 12.275154
-102.07969 9.1302929 12.01019
-102.18925 8.9811726 15.946142
-102.16624 8.9933367 15.352497
-102.16591 9.0127897 14.780505
-102.16161 9.0210037 14.495915
-102.16324 9.0311432 14.216354
-102.15351 9.0373707 13.933668
-102.13236 9.0396509 13.648124
-102.14348 9.0527925 13.37905
-102.14333 9.0620489 13.106853
-102.14064 9.0703812 12.83545
-102.11774 9.0717735 12.557733
-102.10997 9.0782413 12.288162
-102.0997 9.0837965 12.019465
-102.11374 9.0975838 11.761636
-102.0986 9.1013622 11.494516
-102.09 9.1073112 11.231504
-102.07901 9.1123867 10.969301
-102.0837 9.1227808 10.713915
-102.14678 9.0466175 12.038218
-102.14599 9.0643253 11.512282
-102.12855 9.0672874 11.245617
-102.11767 9.0724287 10.983001
-102.12247 9.0828724 10.727199
-102.11595 9.0894003 10.469011
-102.09805 9.0919809 10.208713
-102.1051 9.1030607 9.9575386
-102.10085 9.1102209 9.7041311
-102.09435 9.1165724 9.4513369
-102.09307 9.1331778 8.9524813
-102.08314 9.1466589 8.4556618
-101.93996 9.3000975 2.4886222
-101.94365 9.3173838 2.021023
-101.93963 9.3319578 1.5531582
-101.9206 9.3332176 1.3197165
-102.12221 9.0910387 8.9613867
-102.1184 9.0982027 8.7123728
-102.10322 9.1014185 8.4616547
-102.10432 9.110199 8.2159538
-102.10331 9.1182232 7.9706535
-102.07645 9.1256056 7.4775529
-101.951 9.2837906 1.5518919
-101.95081 9.2917242 1.3175482
-101.95809 9.3023138 1.0826534
-101.9352 9.3022251 0.84911686
-102.09615 9.1309223 6.0412397
-102.08604 9.1355228 5.8009577
-102.07392 9.1394014 5.5611
-102.07856 9.1490774 5.3239222
-102.08151 9.124095 4.6211729
-102.07838 9.1309376 4.384479
-102.25406 8.3691206 21.497131
-102.25039 8.2328148 17.028345
-102.20734 8.1928549 17.018463
-102.20024 8.1623173 17.024702
-102.18582 8.1263762 17.024776
-102.16411 8.0864267 17.019787
-102.26351 7.3372641 21.486555
-102.2951 7.3799253 20.463165
-102.28194 7.3970017 19.776262
-102.27052 7.3008862 21.492683
-102.28771 7.2445927 16.97307
-102.26855 7.2148633 16.978842
-102.26552 7.1922579 16.993
