# .PCD v0.7 - Point Cloud Data file format
VERSION 0.7
FIELDS x y z
SIZE 4 4 4
TYPE F F F
COUNT 1 1 1
WIDTH 894
HEIGHT 1
VIEWPOINT 0 0 0 1 0 0 0
POINTS 894
DATA ascii
-80.953308 56.568504 9.4676657
-80.934593 56.562881 8.9512386
-80.91629 56.562607 8.4365902
-80.897713 56.557789 7.9224944
-80.87886 56.548443 7.4089913
-80.860413 56.544514 6.8969541
-81.068954 56.490356 4.8561974
-81.45269 56.56855 7.4194107
-81.719322 56.528267 6.9084816
-83.092484 56.577641 12.64208
-83.081078 56.649776 12.127272
-83.407272 56.592499 13.187544
-85.149719 56.493889 12.68774
-85.548042 56.540039 15.386877
-85.441498 56.460262 12.688118
-85.423325 56.464825 12.158336
-85.735672 56.434349 12.693451
-86.186127 56.545387 16.513678
-86.372322 56.186405 6.4365945
-87.314194 56.482407 14.972245
-87.266235 56.421864 13.877347
-87.187721 56.397152 11.732684
-88.178215 56.412262 13.947047
-88.07579 56.359051 11.256558
-88.490379 56.431553 13.95854
-88.447334 56.401848 12.873214
-89.103882 56.387794 13.967142
-89.062271 56.368328 12.881561
-89.376137 56.372776 12.892508
-89.732513 56.304871 14.521103
-89.749512 56.134853 7.0288835
-89.730286 56.130165 6.5040159
-89.680824 56.068157 5.4536166
-90.076393 56.107914 7.5487061
-89.991081 56.051029 5.4465823
-90.279007 56.00404 4.9164371
-90.611435 55.991482 5.4369526
-90.919868 55.949444 5.4352674
-92.843185 55.904648 5.4225316
-93.218712 55.948524 6.4922538
-93.165573 55.88903 5.4266214
-93.471817 55.82431 5.4345074
-93.856575 55.916283 6.5205379
-94.180489 55.856194 7.0661988
-94.156509 55.903175 6.0017715
-94.496803 55.814327 7.0741491
-94.482841 55.830593 6.540585
-94.462082 55.823185 6.0058947
-94.428993 55.772877 5.469512
-95.027534 55.979809 11.434255
-94.802528 55.856503 6.0146542
-94.763573 55.787273 5.4758363
-95.119965 55.801083 6.0218372
-95.097816 55.789509 5.4858847
-95.414146 55.733128 5.4876456
-96.114151 55.739895 6.0160103
-96.085533 55.709641 5.476337
-96.49707 55.752777 7.0978165
-96.474037 55.741299 6.5563154
-96.446533 55.715771 6.0148654
-96.417625 55.685692 5.4743299
-96.796616 55.676926 6.549942
-96.78434 55.698952 6.0112062
-96.74897 55.650036 5.4686055
-97.134575 55.707634 6.0134206
-97.499062 55.701435 6.563859
-97.489983 55.733234 6.0232491
-97.450714 55.675392 5.4774914
-97.780952 55.623894 5.4791465
-97.749466 55.590092 4.9355879
-97.755249 55.665234 4.3976207
-98.38678 55.580059 3.3220856
-81.47628 56.659496 12.838906
-82.562843 56.639076 13.579673
-82.545036 56.599808 13.211024
-82.537849 56.613934 12.859391
-82.530083 56.624863 12.508336
-82.519844 56.623089 12.155483
-82.72699 56.687096 15.003088
-82.67083 56.665169 13.186597
-82.657745 56.650673 12.826337
-82.647835 56.651844 12.472121
-82.639229 56.659313 12.12108
-82.626244 56.64452 11.766063
-82.616455 56.645607 11.416504
-82.843826 56.6623 15.327326
-82.836082 56.677135 14.964105
-82.778419 56.65366 13.146432
-82.770752 56.66729 12.793599
-82.758652 56.658718 12.436418
-82.749779 56.66592 12.084953
-82.986519 56.687527 16.042084
-82.958931 56.662064 15.289868
-82.952744 56.685947 14.929348
-82.891258 56.651703 13.107053
-82.877464 56.636608 12.746262
-82.868835 56.646683 12.393927
-82.855743 56.634521 12.037472
-82.845909 56.638191 11.686573
-83.141518 56.768906 16.763094
-83.120132 56.723679 16.367704
-83.111504 56.7393 15.997155
-83.098358 56.73288 15.621024
-83.088402 56.741497 15.252279
-83.054939 56.692242 14.499777
-83.048843 56.718552 14.14282
-83.5326 56.697773 17.138641
-83.647919 56.714935 17.114916
-83.781105 56.776173 17.107157
-84.49865 56.73764 16.944862
-84.57798 56.648434 16.923792
-84.564194 56.66293 16.54355
-84.55397 56.692207 16.170818
-84.536545 56.690369 15.789029
-84.518379 56.684906 15.408377
-84.641747 56.638451 16.165852
-84.626411 56.645813 15.787286
-84.608162 56.640366 15.406554
-84.589172 56.631317 15.026996
-84.540916 56.638836 13.912531
-84.736191 56.609642 16.176168
-84.716385 56.598717 15.790919
-84.695824 56.58411 15.406972
-84.685471 56.612179 15.039639
-84.812424 56.59771 15.812671
-84.79184 56.583321 15.428227
-84.777122 56.593063 15.054288
-84.924416 56.614014 16.233017
-84.906929 56.61282 15.849912
-84.886467 56.598766 15.464798
-84.869675 56.599567 15.087134
-84.987091 56.585323 15.892642
-84.975777 56.608547 15.519769
-84.950348 56.5728 15.12917
-84.816101 56.560047 12.171499
-85.049583 56.569565 15.568545
-85.031227 56.561974 15.18687
-85.012108 56.550789 14.806388
-84.972672 56.589352 13.699865
-86.399002 56.575657 14.571033
-86.48378 56.568359 14.615952
-86.55941 56.533825 14.652289
-86.724701 56.61026 17.066975
-86.65049 56.555328 14.704185
-86.383614 56.282925 6.9644299
-86.877602 56.531284 16.712275
-86.870552 56.541729 16.321093
-86.865044 56.557709 15.933988
-86.846252 56.524158 15.532382
-86.848824 56.569771 15.159247
-86.818245 56.491879 14.748691
-86.824013 56.549057 14.38271
-86.806511 56.519394 13.992123
-86.798088 56.523369 13.613587
-86.942955 56.483913 15.924386
-86.929016 56.468693 15.529072
-86.926605 56.49585 15.14998
-86.915817 56.491852 14.762748
-86.899117 56.465763 14.370972
-86.891525 56.473186 13.991545
-86.880539 56.467861 13.610285
-86.881233 56.505745 13.242824
-86.979439 56.427448 13.987679
-86.970879 56.431427 13.608978
-86.913902 56.431129 11.366254
-87.093704 56.439407 14.381924
-87.078392 56.419117 13.993576
-87.067238 56.413864 13.611818
-87.065353 56.442451 13.241287
-87.016029 56.401772 11.734351
-87.014954 56.432671 11.371334
-87.183243 56.431328 13.997353
-87.171982 56.426132 13.615011
-87.16494 56.436115 13.238781
-87.114006 56.426327 11.366727
-87.293518 56.409996 14.363579
-87.280388 56.398911 13.977304
-87.268906 56.393585 13.594804
-87.221283 56.399883 11.717996
-87.217415 56.421272 11.351897
-87.408073 56.424091 14.353648
-87.397247 56.422249 13.969507
-87.380333 56.398323 13.581103
-87.324722 56.416168 11.333056
-87.504128 56.408089 13.950895
-87.492088 56.40266 13.56741
-87.429596 56.401295 11.312136
-87.686462 56.460491 15.893857
-87.673668 56.454487 15.498593
-87.657295 56.435619 15.101564
-87.645172 56.431503 14.711633
-87.632095 56.423813 14.322783
-87.618073 56.412563 13.935048
-87.616211 56.444237 13.561499
-87.602966 56.435352 13.178202
-87.82164 56.537956 15.907392
-87.761414 56.444878 14.701753
-87.734497 56.466755 13.552466
-87.95829 56.507813 17.092142
-87.842224 56.459145 13.54429
-88.061089 56.46846 17.088303
-87.998306 56.490082 14.718472
-88.185074 56.481819 17.104519
-88.116455 56.485992 14.725039
-88.240364 56.482582 14.723228
-88.44162 56.467907 17.089001
-88.36335 56.453873 14.69852
-88.325645 56.448578 13.533484
-88.578995 56.457592 17.067848
-88.505615 56.470818 14.68346
-88.458092 56.437737 13.508762
-88.714821 56.445297 17.05097
-88.586334 56.416031 13.485756
-88.767128 56.453796 14.657689
-88.714058 56.411541 13.477803
-88.883484 56.419643 14.652257
-88.997787 56.3936 14.656032
-88.963585 56.416363 13.492284
-89.200089 56.430557 16.679302
-89.192101 56.450779 16.28212
-89.158875 56.434769 15.475286
-89.240128 56.352638 15.069976
-89.219337 56.330791 14.668388
-89.197441 56.349758 13.890575
-89.190689 56.372498 13.507978
-89.168633 56.345566 13.113582
-89.16275 56.370743 12.734853
-89.296501 56.295795 13.891444
-89.28112 56.290859 13.501122
-89.267593 56.291679 13.114285
-89.255951 56.298325 12.730715
-89.373573 56.267635 13.116117
-89.482719 56.262913 13.122071
-89.594742 56.276363 13.135427
-89.712906 56.269531 13.536171
-89.696587 56.261436 13.144849
-89.815361 56.265419 13.544811
-89.89859 56.255451 13.155758
-90.102867 56.329514 15.560389
-90.014061 56.270458 13.557546
-89.99482 56.253334 13.162174
-89.986443 56.269653 12.777487
-89.971062 56.264069 12.388818
-90.102188 56.247898 13.56806
-90.106949 56.304634 13.191947
-90.067055 56.307064 12.027812
-90.213387 56.305359 13.613551
-90.306519 56.314163 13.658471
-90.437088 56.362171 14.511131
-90.40625 56.350399 13.71344
-90.601288 56.38575 16.986685
-90.500313 56.331425 14.528769
-90.46801 56.36364 14.42046
-90.643776 56.376682 16.913643
-90.649231 56.367035 14.517486
-90.817978 56.362896 14.615449
-90.463974 56.085361 6.4771638
-90.848236 56.324436 13.447546
-90.532135 56.034721 6.5028391
-90.609917 56.011993 6.5341983
-90.688713 55.988827 6.5666938
-91.223694 56.393356 16.866728
-90.783615 55.983868 6.9690485
-90.77903 56.004372 6.5976167
-91.289185 56.350513 16.887688
-91.208061 56.331272 14.417336
-91.367714 56.34499 16.91729
-91.291054 56.336052 14.446593
-90.93631 55.972702 6.6309237
-91.426117 56.317165 16.522331
-91.411179 56.309395 16.104614
-91.404366 56.324898 15.697029
-91.367325 56.322296 14.47127
-91.480881 56.277695 16.122606
-91.453796 56.269112 15.29629
-91.432121 56.24107 14.879336
-91.424973 56.254723 14.477448
-91.416641 56.264824 14.076324
-91.403976 56.262241 13.673464
-91.386978 56.246925 13.269158
-91.502541 56.24287 14.495699
-91.4785 56.20752 14.081067
-91.469078 56.214108 13.680738
-91.471191 56.253819 13.291033
-91.449921 56.22591 12.884973
-91.433838 56.212784 12.484878
-91.429337 56.233028 12.09466
-91.528206 56.189526 13.287201
-91.519714 56.198299 12.890676
-91.510071 56.203613 12.494882
-91.492889 56.187046 12.095463
-91.484146 56.194683 11.703506
-91.601883 56.172215 13.291341
-91.590302 56.171818 12.892112
-91.583961 56.186314 12.498337
-91.570068 56.17897 12.10077
-91.564636 56.195862 11.71049
-91.694305 56.178284 13.708554
-91.680824 56.172363 13.30542
-91.666168 56.162884 12.903319
-91.653534 56.159058 12.504562
-91.649376 56.179386 12.113314
-91.63765 56.177891 11.718307
-91.773827 56.17701 13.72598
-91.757225 56.162079 13.31989
-91.752281 56.180229 12.92445
-91.736519 56.167385 12.522736
-91.722801 56.160225 12.124314
-91.836357 56.153141 13.326962
-91.831421 56.17136 12.931096
-91.815643 56.158588 12.52896
-91.798683 56.142288 12.127925
-91.924622 56.164467 13.329432
-91.916397 56.173561 12.930613
-91.897293 56.15163 12.525702
-91.886703 56.15374 12.128626
-91.995026 56.157387 12.923979
-91.985519 56.162991 12.525549
-91.968338 56.146732 12.123512
-91.962982 56.163834 11.731007
-92.223549 56.193584 14.559038
-92.179314 56.16967 13.332501
-92.164291 56.16058 12.927464
-92.15786 56.175461 12.530283
-92.143707 56.168526 12.129336
-92.351791 56.219952 15.81916
-92.325546 56.214977 14.987972
-92.315399 56.220512 14.578096
-92.300758 56.213337 14.166545
-92.294655 56.229839 13.763671
-92.284081 56.2337 13.359022
-92.26902 56.224869 12.952888
-92.236366 56.166603 12.536507
-92.23526 56.196522 12.143847
-92.219856 56.186256 11.743102
-92.199982 56.16328 11.341349
-92.34626 56.178535 13.3564
-92.313698 56.187317 12.152114
-92.446533 56.232723 13.385449
-92.522461 56.22327 13.397199
-92.605049 56.230946 13.418252
-92.674362 56.201405 13.432849
-92.741928 56.173973 13.441212
-92.868942 56.244152 14.290965
-92.825684 56.193932 13.456239
-92.946434 56.246258 14.300092
-92.906349 56.205368 13.466796
-93.012711 56.221519 14.300522
-92.969063 56.171608 13.464305
-93.036911 56.156628 13.467299
-93.164955 56.237022 14.320402
-93.121017 56.187569 13.482018
-93.227219 56.213997 14.319972
-93.186501 56.173687 13.48352
-93.29287 56.200119 14.321916
-93.251976 56.159901 13.484801
-93.317101 56.145432 13.489576
-93.502312 56.205406 14.376539
-93.578018 56.224907 14.402326
-93.533585 56.17717 13.558395
-93.627556 56.17284 14.402272
-93.734589 56.233051 14.85495
-93.695473 56.165462 14.415782
-93.751465 56.130344 14.425989
-93.761932 56.194794 14.026585
-93.726837 56.137817 13.595444
-93.785103 56.122215 13.610914
-93.755524 56.079697 13.186137
-93.75885 56.124596 12.785656
-93.750656 56.138706 12.378721
-93.734337 56.131016 11.96822
-93.808708 56.05574 13.199646
-93.808769 56.091595 12.796654
-93.797279 56.096619 12.387375
-93.781082 56.08897 11.976783
-93.753296 56.050262 11.561163
-93.748329 56.072258 11.160491
-93.742134 56.09087 10.760182
-93.817444 56.053391 11.583191
-93.798843 56.03878 11.174331
-94.009293 56.027889 12.047902
-93.988892 56.008018 11.63489
-93.981064 56.021301 11.230757
-94.063278 56.004589 12.057611
-94.056808 56.021435 11.652382
-94.117874 56.015446 11.670241
-94.251251 56.001087 12.133031
-94.313187 56.001396 12.167893
-94.293243 55.982494 11.752621
-94.420906 55.985867 11.806881
-94.508675 56.015186 12.251445
-94.495911 56.015305 11.838593
-94.47834 56.002735 11.424619
-94.466484 56.004971 11.015394
-94.673721 56.07386 14.816969
-94.598015 56.013702 13.113382
-94.573021 56.016052 12.282039
-94.560303 56.016445 11.868674
-94.539253 55.994987 11.452229
-94.683167 56.070461 13.150931
-94.66613 56.060104 12.730509
-94.630203 56.000507 12.300557
-94.624519 56.019348 11.890928
-94.596443 55.979794 11.47006
-94.58815 55.991619 11.061934
-94.756554 56.064507 13.579762
-94.71019 56.080101 11.913235
-94.653648 56.033791 10.668238
-94.853096 56.08242 14.436638
-94.832626 56.098549 13.59357
-94.918373 56.089142 14.443831
-94.874886 56.080902 13.172095
-94.967171 56.050674 14.43809
-94.951538 56.114998 13.184417
-95.036728 56.067272 14.44541
-95.008804 56.065598 13.595243
-95.097664 56.066551 14.44661
-95.073227 56.073956 13.597969
-96.857025 55.931736 10.908162
-96.630569 55.77594 5.8587427
-97.012604 55.998516 13.088858
-96.945206 55.901985 12.199039
-96.748703 55.771648 5.85116
-97.171936 55.967487 14.38593
-96.810699 55.769642 5.8340912
-97.210693 55.963715 13.494916
-96.930679 55.756008 5.8013387
-97.455521 55.95702 13.527859
-97.109383 55.745865 5.8155479
-97.513489 55.959503 13.556268
-97.167801 55.741512 5.8337331
-97.652367 55.934586 14.495846
-97.747093 55.963184 13.200827
-97.416756 55.706985 6.2989988
-97.413422 55.732178 5.8822193
-97.79306 55.920574 13.206778
-97.45491 55.646919 6.3019295
-97.901222 55.91774 14.55477
-97.874603 55.958973 13.230173
-97.532936 55.713314 5.8939881
-97.503082 55.707653 5.0558739
-97.986092 55.957027 14.570755
-97.913963 55.890797 13.217349
-97.596062 55.709103 5.8892961
-97.998131 55.921219 13.222817
-97.668312 55.722771 5.8803439
-98.059883 55.896133 13.221761
-98.115242 55.861656 13.22414
-97.791054 55.658482 6.295229
-97.794662 55.702377 5.8774624
-98.243431 55.930641 14.148613
-98.191307 55.880646 13.243272
-97.867088 55.679665 6.3033328
-97.866882 55.714424 5.8841538
-97.932877 55.707302 5.8926978
-98.424904 55.916187 15.540112
-98.191536 55.838516 9.7616196
-97.98275 55.69463 5.4772258
-98.395035 55.862953 13.28469
-98.364395 55.900082 11.963629
-98.492416 55.91814 13.301719
-98.450607 55.856377 12.841514
-98.449257 55.889793 12.405561
-98.40049 55.81118 11.946739
-98.100922 55.671246 5.0489244
-98.513855 55.864086 12.399693
-98.483505 55.865757 11.517056
-98.170601 55.626339 5.4603825
-98.521858 55.776218 11.495893
-98.397949 55.626789 5.4520001
-98.471039 55.615791 5.4621582
-98.547279 55.604404 5.4624939
-98.512489 55.592724 4.6120973
-98.613625 55.565586 5.4498858
-98.591972 55.620972 4.1775103
-98.463089 55.529057 1.6351006
-98.695854 55.562607 5.4428606
-98.672188 55.578415 4.5924363
-98.654274 55.571983 4.1671233
-98.650558 55.598919 3.743288
-98.540054 55.51675 1.6235856
-98.740036 55.537159 4.5976982
-98.737778 55.567562 4.1736503
-98.730148 55.585369 3.7490218
-98.70932 55.572166 3.3237357
-98.687057 55.555534 2.8989041
-98.615562 55.494343 1.6272968
-98.799339 55.543304 3.7596464
-98.786407 55.54858 3.3345556
-98.768105 55.541241 2.9094696
-98.752274 55.53968 2.4847081
-98.731079 55.525509 2.0601904
-98.684967 55.452717 1.6370178
-98.676552 55.468529 1.2128139
-98.883591 55.538101 3.76547
-98.862846 55.525036 3.3394783
-98.848511 55.526932 2.9141417
-98.836655 55.534607 2.488956
-98.815483 55.52047 2.0639119
-98.781105 55.47533 1.6397259
-98.780571 55.509552 1.2142409
-98.923981 55.493309 2.9103298
-98.910568 55.532787 2.0592067
-98.856445 55.441681 1.635136
-99.243149 55.508167 3.7628727
-99.207802 55.53233 2.4801202
-99.159676 55.49152 1.6258721
-99.32061 55.462238 3.7617676
-99.323608 55.50428 3.3346269
-99.305206 55.497044 2.9064016
-99.293289 55.504723 2.4785109
-99.271935 55.490623 2.0507679
-99.229248 55.427212 1.6242182
-99.228767 55.461311 1.1961957
-99.423416 55.470165 3.7612381
-99.426468 55.512192 3.3333964
-99.408058 55.504959 2.9044733
-99.388168 55.494289 2.4758623
-99.362816 55.471008 2.0476727
-99.328026 55.425957 1.620363
-99.323608 55.450848 1.1919782
-99.496498 55.475594 2.9058657
-99.476601 55.464951 2.4769051
-99.475204 55.496704 2.0479069
-99.436348 55.442528 1.6198874
-99.615608 55.509155 2.9061036
-99.666939 55.421604 2.4716575
-99.661461 55.44421 2.0418646
-99.618317 55.380966 1.6132358
-99.782043 55.434826 2.4583046
-99.780334 55.466587 2.0276496
-99.914085 55.484215 2.4445176
-83.984322 56.802738 17.620604
-87.828506 56.546848 17.431494
-88.530647 56.567162 17.47114
-88.868103 56.529518 17.492622
-89.2071 56.497913 17.522842
-89.55574 56.483997 17.550526
-89.536842 56.497353 16.998592
-89.882874 56.455631 17.005598
-90.24131 56.439545 17.015459
-92.411758 56.311199 16.690775
-92.391296 56.317635 16.132576
-93.178398 56.294613 16.796423
-93.56385 56.284294 16.841509
-93.924278 56.197449 16.870678
-94.313095 56.179768 16.922432
-94.318245 56.252178 16.374096
-94.259888 56.219135 15.239203
-94.73185 56.232876 16.98822
-94.618591 56.178108 14.715449
-94.51194 56.078915 13.02565
-95.112999 56.176971 17.012691
-95.906342 56.133183 17.066933
-95.301682 55.797249 5.95296
-96.680252 56.058277 17.149748
-96.493538 56.021427 13.162788
-101.69457 55.809326 16.935175
-82.52787 56.329594 5.2631216
-82.504921 56.308434 4.6019278
-82.49456 56.303391 4.2722664
-82.48558 56.305325 3.9431186
-82.474129 56.294624 3.6138892
-82.46405 56.290916 3.2850492
-82.455353 56.294201 2.9563622
-82.442253 56.275043 2.6278386
-82.706047 56.332333 5.5537181
-82.693077 56.31599 5.2214818
-82.683495 56.31636 4.8908005
-82.669411 56.294304 4.5594606
-82.662636 56.30859 4.230063
-82.645477 56.271046 3.8992915
-82.637589 56.279678 3.5701582
-82.629135 56.285496 3.2409766
-82.616203 56.268879 2.9117849
-82.604668 56.259251 2.5828502
-82.586723 56.217388 2.2546601
-82.962135 56.394135 7.8441133
-82.938591 56.378971 7.1703558
-82.929977 56.386478 6.8363266
-82.912743 56.352097 6.498776
-82.902977 56.353806 6.1655674
-82.892632 56.352642 5.832634
-82.879707 56.338837 5.4993262
-82.870224 56.341713 5.1676965
-82.856155 56.322174 4.8352423
-82.845535 56.319351 4.504169
-82.838333 56.333271 4.1739783
-82.822578 56.305187 3.8427346
-82.820221 56.342842 3.5131872
-82.801331 56.299286 3.1825497
-82.789856 56.292099 2.8526781
-82.777817 56.282093 2.5229871
-83.175446 56.414738 8.8028259
-83.169228 56.436504 8.4664955
-83.156265 56.426277 8.1262064
-83.142715 56.413067 7.7865582
-83.130623 56.406605 7.4487576
-83.119972 56.406929 7.1125722
-83.104652 56.384865 6.7747507
-83.088753 56.359863 6.4376783
-83.082474 56.380699 6.1055412
-83.0756 56.398685 5.7733364
-83.05999 56.374756 5.438457
-83.047874 56.367481 5.1053991
-83.037216 56.367123 4.7731824
-83.025978 56.363914 4.441174
-83.012123 56.348072 4.1090899
-83.001755 56.348961 3.777884
-82.979279 56.342239 3.1158283
-82.917023 56.19342 2.1265757
-83.356796 56.435513 8.7394037
-83.345741 56.437542 8.3995275
-83.331993 56.42691 8.0587645
-83.311401 56.384197 7.71491
-83.304771 56.406433 7.3803678
-83.289215 56.386898 7.0415401
-83.273071 56.364414 6.7034407
-83.258408 56.348724 6.3669949
-83.251457 56.369118 6.0344067
-83.239754 56.367153 5.700305
-83.227455 56.362309 5.3665142
-83.214569 56.354599 5.0330606
-83.195297 56.369694 4.3687754
-83.178581 56.343639 4.0358472
-83.167465 56.344078 3.7041411
-83.084618 56.215683 2.0499485
-83.795418 56.63961 14.715517
-83.711235 56.609516 12.535307
-83.454407 56.39212 6.6338053
-83.432625 56.346813 6.2939978
-83.420784 56.347256 5.9592867
-83.412552 56.364323 5.6262779
-83.3974 56.349266 5.2913823
-83.387962 56.360619 4.9585977
-83.375809 56.359352 4.6253881
-83.36306 56.355236 4.2923985
-83.34761 56.338493 3.9593835
-83.335762 56.338451 3.6271789
-83.24881 56.207691 1.9707617
-83.231323 56.180889 1.6407895
-84.057503 56.712353 16.558695
-84.032379 56.663826 16.163019
-83.975365 56.655018 14.670253
-83.615005 56.371082 6.5728116
-83.594704 56.33514 6.2336149
-83.582352 56.335197 5.8984876
-83.571518 56.342121 5.5643444
-83.56221 56.35593 5.2309504
-83.405846 56.200626 1.9049226
-83.394066 56.202721 1.5734205
-84.132324 56.629971 14.630123
-83.998085 56.567871 11.373894
-83.770432 56.348434 6.5281935
-83.741753 56.331379 5.8547559
-83.730812 56.337982 5.5200868
-83.725739 56.370953 5.1873369
-83.591629 56.266388 2.1855121
-83.573906 56.241638 1.8537302
-83.559845 56.233589 1.5216404
-83.932724 56.333279 6.4922071
-83.918663 56.325935 6.1548381
-83.906174 56.325409 5.8186727
-83.895241 56.33173 5.4834747
-83.890266 56.364403 5.1501679
-83.746986 56.218178 2.1445694
-83.744354 56.261436 1.8105929
-84.585495 56.695103 17.236336
-84.527481 56.632195 16.068342
-84.524979 56.68071 15.708106
-84.499611 56.633331 15.317588
-84.471245 56.572891 14.925986
-84.47094 56.629757 14.573913
-84.463264 56.655476 14.213396
-84.157639 56.420494 7.4750547
-84.093781 56.308651 6.4465904
-84.08387 56.320438 6.1105504
-84.071075 56.31963 5.7738748
-84.055412 56.306206 5.4368501
-84.608253 56.625061 13.417734
-84.260193 56.304745 6.3823066
-84.24968 56.316139 6.0457478
-84.236259 56.314941 5.7085757
-84.2267 56.330299 5.3729854
-84.731567 56.523701 12.60884
-84.443237 56.326283 6.6573253
-84.416679 56.27235 6.3136635
-84.41011 56.302731 5.9784331
-84.393707 56.291431 5.640151
-84.39267 56.34523 5.3066826
-84.999443 56.533466 14.738726
-85.00705 56.626293 14.396708
-84.899292 56.499866 12.537027
-84.860138 56.523361 11.46959
-84.603622 56.303745 6.5828605
-84.578697 56.259033 6.2398419
-84.57402 56.298607 5.9049087
-84.55938 56.296532 5.566834
-84.555656 56.340107 5.2320704
-84.765701 56.279747 6.508307
-84.74736 56.263577 6.1675649
-84.742462 56.302612 5.8319569
-84.727463 56.300018 5.4932928
-85.049812 56.33429 8.8628922
-85.018738 56.330353 8.1717768
-85.008125 56.347954 7.8301749
-84.984848 56.314426 7.482862
-84.975227 56.335766 7.1430945
-84.960121 56.334881 6.8013558
-84.927597 56.263386 6.453639
-84.920662 56.29528 6.1166286
-84.903481 56.285583 5.7764254
-84.89753 56.321423 5.4399519
-85.162544 56.292591 7.7771912
-85.148193 56.297356 7.4344993
-85.130707 56.289528 7.091085
-85.105255 56.249779 6.7452674
-85.074043 56.248306 6.0642438
-85.058586 56.248035 5.7246337
-85.056908 56.302963 5.3891511
-85.334167 56.294044 7.7257862
-85.314278 56.279301 7.3802261
-85.29612 56.271202 7.0364208
-85.234955 56.219498 6.0076361
-85.226204 56.247944 5.6698337
-85.226494 56.312233 5.3343077
-85.538887 56.296555 8.3688288
-85.479927 56.260475 7.3289795
-85.468758 56.280972 6.9878983
-85.408562 56.238117 5.957952
-85.389542 56.227608 5.6165695
-85.389603 56.291534 5.2805338
-85.946358 56.41843 12.623463
-85.677414 56.311363 7.6534801
-85.661728 56.315495 7.3088436
-85.637756 56.287796 6.9614677
-85.592651 56.242672 6.2711792
-85.579056 56.254253 5.9302902
-85.562218 56.253277 5.5888338
-86.313065 56.519768 16.034403
-85.832321 56.326534 7.3205328
-85.813087 56.31831 6.9744549
-85.770218 56.220486 6.6204185
-85.730629 56.198689 5.9334955
-85.723679 56.236446 5.5946198
-86.429123 56.566116 14.579409
-86.24604 56.437733 11.601963
-85.986031 56.325878 7.0035005
-85.887848 56.216568 5.618464
-86.109642 56.237106 6.6773891
-86.080894 56.194679 6.3290567
-86.059204 56.17812 5.984201
-86.044548 56.187508 5.642067
-86.263817 56.217072 6.706727
-86.218979 56.177841 6.0140114
-86.209862 56.206707 5.6725764
-86.424698 56.21553 6.7351127
-86.377411 56.167229 6.0401764
-86.363228 56.177074 5.6967268
-86.366821 56.251366 5.357748
-86.579948 56.195007 6.7547207
-86.535263 56.156765 6.0595179
-86.526505 56.186028 5.7168803
-88.218971 56.179939 7.6061554
-88.206581 56.183216 7.2510505
-88.625244 56.341526 13.546503
-88.529991 56.34409 10.936203
-88.341843 56.170189 7.295568
-88.331947 56.180264 6.941196
-88.476494 56.158241 7.3308091
-88.464043 56.159042 6.9748244
-88.622162 56.175606 7.3569741
-88.60405 56.157593 6.998105
-88.736198 56.098747 7.3702517
-88.742859 56.156525 7.0194006
-89.132561 56.28693 13.328147
-89.130943 56.31992 12.957796
-88.877625 56.104298 7.4112134
-88.87545 56.133965 7.0565829
-89.02018 56.147575 7.1107798
-88.980186 56.061161 6.7439294
-89.169884 56.150509 7.5219121
-89.146843 56.114803 7.1581817
-89.11969 56.066559 6.7945714
-89.278397 56.102234 7.1988707
-89.26429 56.09201 6.8384118
-89.406357 56.070423 7.2332792
-89.40213 56.088722 6.8752513
-89.579277 56.10461 7.9988775
-89.56131 56.082237 7.6336708
-89.54232 56.056767 7.2693195
-89.531921 56.056496 6.9087567
-90.039917 56.007336 5.5531168
-90.31485 55.9758 5.5642638
-90.559509 56.079109 7.7690105
-90.530136 56.027077 7.3963752
-90.509758 55.999985 7.0280871
-90.457848 55.973618 5.5718966
-90.656418 56.007092 7.0376344
-90.81279 56.01405 7.4054427
-90.795502 55.996544 7.0368457
-90.950317 55.993744 7.4001794
-91.505493 56.182484 13.492578
-91.499107 56.198414 13.106553
-91.156471 55.91917 5.5557814
-91.610649 56.163696 12.319396
-91.402946 56.002186 7.7567
-91.944458 56.168579 13.485735
-91.885353 56.115707 12.301932
-91.895882 56.176434 11.929133
-91.719139 55.895535 5.5019755
-91.86515 55.902695 5.495604
-92.03611 55.975311 5.48667
-93.084099 55.904484 7.6313734
-93.228348 55.910488 7.6235275
-93.530937 55.837711 6.3039956
-93.50782 55.814526 5.9247899
-93.510399 55.852676 5.5509758
-93.645096 55.829845 5.9374266
-94.156715 56.11319 13.390683
-94.086472 56.047775 12.172132
-93.848068 55.904186 7.0956883
-93.786484 55.821819 6.3273349
-94.175537 55.986191 11.78629
-94.166153 56.06052 10.618242
-93.895279 55.80484 5.9609876
-94.219093 55.842724 7.5265183
-94.216019 55.866112 7.1458988
-94.199814 55.858997 6.7625127
-94.139374 55.809799 5.6151767
-94.308083 55.818851 6.7809315
-94.251892 55.779259 5.6331897
-94.392853 55.811771 5.6629181
-94.56218 55.818169 6.8395977
-94.502319 55.771027 5.6866894
-94.683441 55.804523 6.859962
-94.627464 55.767189 5.7058954
-94.950317 55.802773 7.2734518
-94.934196 55.79694 6.8862295
-94.873627 55.751534 5.7273121
-94.888489 55.815327 5.3479271
-95.085892 55.825089 7.3009109
-95.073868 55.828606 6.9136772
-95.036102 55.774418 6.5216584
-95.20945 55.81892 7.3335929
-95.205757 55.840855 6.947567
-95.168045 55.786987 6.5546422
-95.128258 55.788353 5.3967671
-95.619095 55.98476 13.376432
-95.305534 55.780731 6.9697247
-95.445847 55.780815 7.3767262
-95.366432 55.723957 5.8186231
-95.603828 55.705582 5.4515505
-95.727074 55.690414 5.4700041
-96.533112 55.977989 13.968071
-96.120209 55.692719 5.4825673
-96.30484 55.720997 6.6441402
-96.480598 55.755692 7.4223981
-96.452515 55.724182 7.0237732
-96.431473 55.70747 6.6279454
-97.515747 55.711216 7.3543181
-97.499733 55.706577 6.9530392
-97.460228 55.654026 6.5481153
-97.62999 55.675774 7.3650951
-97.62281 55.68911 6.9652333
-97.587639 55.645668 6.5605335
-97.760735 55.675274 7.3860774
-97.749229 55.679867 6.9845076
-97.714043 55.636639 6.5790982
-97.659653 55.637356 4.9818535
-97.898064 55.682808 7.4053669
-97.882133 55.678688 7.0019994
-97.851318 55.644608 6.596643
-97.796913 55.646034 4.9959192
-97.925034 55.63718 5.0046692
-98.492386 55.847557 10.761817
-98.419113 55.571354 5.0744133
-98.439308 55.638016 4.6753664
-98.872597 55.7687 11.693527
-98.85331 55.81348 10.445475
-98.533455 55.565968 4.6922216
-98.520546 55.567265 4.2897248
-98.515137 55.583237 3.8879592
-98.499046 55.578262 3.4857795
-98.405296 55.500317 1.8808411
-98.62973 55.521748 4.2993708
-98.606239 55.502167 3.8962474
-98.603928 55.523941 3.4945569
-98.581802 55.506989 3.092324
-98.580841 55.531422 2.6905386
-98.564636 55.52602 2.2886987
-98.704742 55.487877 3.0997488
-98.685616 55.476768 2.6973875
-98.664894 55.462528 2.295378
