# .PCD v0.7 - Point Cloud Data file format
VERSION 0.7
FIELDS x y z
SIZE 4 4 4
TYPE F F F
COUNT 1 1 1
WIDTH 945
HEIGHT 1
VIEWPOINT 0 0 0 1 0 0 0
POINTS 945
DATA ascii
-94.110046 55.804649 5.4628305
-99.369514 24.261 6.223403
-99.366196 23.888105 6.1956563
-99.538605 22.481857 9.5319347
-99.595352 22.968016 3.0845878
-99.584648 22.973686 2.7784908
-99.563217 22.163349 9.8010616
-99.570297 22.21176 9.1809654
-99.634285 21.970083 9.156683
-99.577301 21.001371 18.209162
-99.646721 20.761425 18.152882
-99.704872 21.12134 13.481401
-99.771599 21.697517 5.4699922
-99.780693 21.727213 5.1709723
-99.756752 21.716175 4.8675675
-99.675537 20.474974 18.061266
-99.760338 20.596621 17.774632
-99.761475 20.619246 17.428072
-99.731018 20.604294 17.061874
-99.874939 21.60154 3.662077
-99.849457 21.64356 2.4649904
-99.873703 21.691631 2.1660347
-99.852074 21.68342 1.8664999
-99.710159 20.195204 17.971962
-99.736366 20.247011 17.644188
-99.748741 20.282536 17.308279
-99.77314 20.352797 16.642254
-99.844978 21.251377 3.3450859
-99.855362 21.282049 3.0489545
-99.845711 21.306581 2.454916
-99.838409 21.315847 2.1578352
-100.18241 17.964756 18.125017
-100.19221 18.051632 16.782162
-100.20776 18.086891 16.46101
-100.1947 18.11025 15.796544
-100.17851 18.111467 15.46198
-100.17911 18.130373 15.139995
-100.1394 18.106312 14.79657
-100.14204 18.127136 14.480275
-100.14472 17.620775 18.354956
-100.28345 18.126572 12.012917
-100.28136 18.141354 11.708679
-100.251 18.126085 11.393847
-100.25822 18.150576 11.096597
-100.20408 18.109837 10.775989
-100.22076 18.144207 10.485243
-100.20909 18.148403 10.184681
-100.4473 18.148033 4.1489325
-100.45147 18.167978 3.8664906
-100.44021 18.171627 3.5829406
-100.42038 18.166206 3.2992232
-100.40572 18.166227 3.0162401
-100.38938 18.164442 2.7335296
-100.38508 18.17539 2.4513826
-100.37909 18.184546 2.1692026
-100.4677 18.030676 1.3214467
-101.51839 9.8297825 18.682037
-101.53883 9.6232901 18.63401
-101.549 9.4105396 18.584978
-101.62971 9.4251862 14.571102
-101.84117 10.187348 0.90529871
-101.68275 9.2375231 14.55475
-101.85853 9.9106989 2.1728108
-101.86176 9.9241791 1.9202286
-101.86315 9.9364119 1.6674787
-101.85451 9.9417162 1.4147851
-101.85226 9.9514484 1.1618447
-101.83176 9.9485655 0.90955269
-101.8341 9.9614735 0.65611994
-101.67968 9.0007458 14.799704
-101.85477 9.6015797 3.9306645
-101.87081 9.6236 3.6799645
-101.86023 9.6275845 3.4274874
-101.83955 9.6247072 3.1748457
-101.85063 9.6545048 2.6724968
-101.84104 9.6591263 2.420891
-101.84618 9.6737566 2.1695406
-101.84949 9.6871576 1.9180033
-101.83446 9.6880674 1.6665351
-101.85892 9.7158957 1.4142396
-101.83199 9.7086983 1.1630483
-101.82803 9.7171612 0.91113019
-101.82224 9.7243872 0.65912139
-101.89253 9.322094 5.6885443
-101.89661 9.3360281 5.4357109
-101.85049 9.4054756 3.1663923
-101.85282 9.418129 2.9159212
-101.84503 9.4239922 2.6651521
-101.74535 8.0205441 22.487877
-101.92735 9.0402355 2.4001958
-101.93252 9.0548077 2.1505897
-101.91077 9.0517378 1.9009092
-101.90363 9.0694256 1.4015809
-101.76659 7.81143 22.427904
-101.80131 7.6147113 22.391869
-101.80698 7.4093523 22.343569
-101.98433 7.3600378 16.720978
-102.22626 7.4443617 3.9274232
-102.23515 7.4600978 3.6811247
-102.23498 7.2530942 3.6826444
-102.28812 4.7315073 21.994162
-102.27434 4.7690854 20.921341
-102.28223 4.7873597 20.58173
-102.25687 4.7892003 20.22106
-102.35043 4.7741323 17.01368
-102.384 4.5395017 18.245907
-102.39377 4.3325019 18.533274
-93.726685 56.328129 15.713856
-93.752251 55.981918 18.201696
-93.747604 56.007439 17.774555
-93.78936 56.230614 16.555384
-93.786125 56.259285 16.135994
-93.761299 56.230438 15.70016
-93.821938 55.98093 18.226736
-93.823982 56.024372 17.80563
-93.801193 56.002022 17.362751
-93.783684 55.99337 16.927742
-93.801842 56.078884 16.527258
-93.801865 56.116295 16.111719
-93.780273 56.09626 15.679564
-93.770859 56.108299 15.259961
-93.777092 56.161728 14.854617
-93.848022 55.994488 16.952082
-93.852928 56.082005 16.12335
-93.83139 56.062069 15.691026
-93.825439 56.083187 15.274017
-93.811371 56.082626 14.85235
-93.819809 56.141602 14.449923
-93.796295 56.115639 14.024824
-93.880318 56.028625 15.703223
-93.881317 56.067783 15.291576
-93.85038 56.022278 14.856165
-93.807816 55.945713 14.414876
-93.834755 56.089092 13.622259
-93.859375 55.516182 19.008221
-93.874184 56.027847 13.629859
-93.865395 56.040016 13.219045
-93.851883 56.039528 12.806676
-93.850845 56.07201 12.403919
-93.834785 56.064472 11.993066
-93.858543 55.787117 14.006212
-93.919693 55.983971 13.644983
-93.907616 55.987137 13.231735
-93.894249 55.986725 12.819363
-93.893364 56.019272 12.416611
-93.884331 56.030113 12.009935
-93.87059 56.028313 11.601891
-93.910454 55.724625 14.430333
-93.890732 55.707447 14.009653
-93.946884 55.994305 12.434189
-93.934563 55.996105 12.025163
-93.914215 56.044903 10.815923
-93.930305 55.647903 14.011004
-93.930504 56.021114 7.6350427
-98.978668 24.888302 18.995193
-98.995354 24.687643 18.929132
-99.095657 25.291725 10.136506
-98.997757 24.472794 18.856405
-99.130836 25.106022 10.115903
-99.129692 25.118584 9.8650436
-99.018829 24.274775 18.799196
-99.1138 24.87422 9.823308
-99.05484 24.088276 18.748844
-99.152504 24.674055 10.048086
-99.151108 24.686157 9.7992411
-99.115715 23.926107 18.717499
-99.164108 23.752264 18.674557
-99.289177 24.575516 6.1543221
-99.227997 23.598059 18.647285
-99.290611 24.348612 6.1299524
-99.312004 24.47377 4.2583847
-99.309258 24.483551 4.0245652
-99.31192 24.499144 3.7913198
-99.306396 24.50592 3.5575297
-99.297989 24.522301 3.0904853
-99.2593 23.412205 18.597197
-99.368195 24.100557 8.0243616
-99.374611 24.12027 7.7867541
-99.379578 24.138428 7.5492482
-99.349304 24.119326 7.3027515
-99.35363 24.200459 5.8872151
-99.347099 24.206205 5.6514583
-99.345963 24.217651 5.4171047
-99.336609 24.220343 5.1818204
-99.346291 24.243258 4.9497204
-99.334122 24.24292 4.7148089
-99.334198 24.25559 4.481812
-99.332878 24.266768 4.2488284
-99.323341 24.269175 4.0152664
-99.307747 23.241875 18.565531
-99.382416 23.79833 9.694294
-99.385818 23.815014 9.45117
-99.380989 23.82308 9.2058458
-99.374619 23.829479 8.9610157
-99.373444 23.841238 8.7190342
-99.377495 23.858412 8.4796667
-99.386826 23.881052 8.2426786
-99.367645 23.873877 7.9974413
-99.367249 23.886278 7.7589502
-99.372169 23.904203 7.5226417
-99.35527 23.899256 7.2809887
-99.336884 23.892689 7.0399919
-99.344231 23.913055 6.8062725
-99.343353 23.924767 6.5709968
-99.337303 23.943604 6.1010566
-99.345802 23.965099 5.869041
-99.33239 23.963533 5.6332765
-99.351768 23.996445 5.4036179
-99.335526 23.99185 5.1683288
-99.338417 24.007385 4.9363976
-99.339912 24.021441 4.7044458
-99.400414 23.483269 11.652447
-99.396492 23.492836 11.397707
-99.410767 23.520987 11.153112
-99.403564 23.527044 10.899414
-99.401367 23.53816 10.649398
-99.397552 23.547548 10.399918
-99.385445 23.548338 10.148156
-99.385101 23.561167 9.9026508
-99.369781 23.558495 9.6522369
-99.366287 23.567955 9.4077873
-99.374725 23.589664 9.1688185
-99.368172 23.595854 8.9251728
-99.360077 23.600397 8.682045
-99.363998 23.617311 8.4439507
-99.359657 23.625635 8.2039118
-99.367409 23.646435 7.9684372
-99.360092 23.651598 7.7290645
-99.364929 23.669308 7.4939528
-99.347839 23.664248 7.2535019
-99.37822 23.167152 12.870179
-99.378456 23.222372 11.844949
-99.389137 23.246767 11.597663
-99.358414 23.229031 11.331151
-99.379082 23.263439 11.09129
-99.384895 23.282688 10.845257
-99.375748 23.28665 10.593566
-99.36496 23.288858 10.342582
-99.379387 23.31671 10.103672
-99.372116 23.32238 9.8565855
-99.370003 23.333244 9.612772
-99.359573 23.335556 9.3668318
-99.372292 22.993826 11.792032
-99.369492 23.00444 11.539226
-99.431221 22.5446 17.168739
-99.462799 22.35771 17.131735
-99.472214 22.514856 14.349871
-99.480385 22.537033 14.08805
-99.473694 22.544533 13.818645
-99.500755 22.626478 12.791256
-99.478287 22.617958 12.521981
-99.487175 22.640247 12.271771
-99.503899 22.183937 17.105591
-99.451126 22.265064 14.555827
-99.473946 22.30131 14.303042
-99.462402 22.304081 14.029748
-99.461998 22.317574 13.765596
-99.45974 22.329161 13.502172
-99.468826 22.351702 13.247305
-99.469543 22.366011 12.989073
-99.573425 22.586803 10.777094
-99.557182 22.583767 10.524228
-99.482224 22.166388 12.951652
-99.593651 22.504171 8.5845175
-99.633194 22.60387 7.4229703
-99.594612 22.578037 7.1800632
-99.610634 22.605829 6.9521995
-99.597115 22.604532 6.7175713
-99.603218 22.622522 6.4881563
-99.565613 22.59742 6.2499247
-99.646935 22.340483 8.5735397
-99.595062 22.074955 8.5265636
-99.683548 21.943621 8.5249014
-100.04398 18.188734 18.013954
-100.11574 18.03466 18.614826
-100.19121 18.220037 15.818101
-100.17982 18.22311 15.539009
-100.17307 18.229706 15.265745
-100.17107 18.23992 14.998107
-100.15989 18.242817 14.726842
-100.13947 18.238325 14.452211
-100.12886 18.26413 13.673959
-100.26788 18.250292 12.220961
-100.2634 18.2575 11.974706
-100.27171 18.274704 11.736322
-100.26353 18.278864 11.491391
-100.24609 18.275671 11.243833
-100.21937 18.265074 10.993917
-100.22786 18.282162 10.761363
-100.19741 18.268475 10.513367
-100.18748 18.270895 10.275802
-100.14388 17.668459 18.836599
-100.39128 18.29262 4.7332001
-100.39409 18.304302 4.5174541
-100.38759 18.308634 4.3009491
-100.37177 18.305595 4.0839629
-100.3623 18.307547 3.8679669
-100.37486 18.326889 3.6537378
-100.34676 18.314096 3.4371233
-100.32501 18.306303 3.2214625
-100.32532 18.315939 3.0070078
-100.45306 18.273838 1.9303482
-101.20647 11.781327 19.016029
-101.18359 11.62282 18.99017
-101.22622 11.498229 19.016008
-101.20156 11.34197 18.989147
-101.27332 11.391258 18.746126
-101.27632 11.251432 18.742788
-101.27069 11.10783 18.735569
-101.27856 10.970531 18.740265
-101.27915 10.831092 18.73782
-101.37811 10.30975 23.026573
-101.38384 10.176341 23.012348
-101.36766 10.028958 22.965605
-101.38235 9.8959732 22.940454
-101.57907 10.436755 11.978416
-101.57427 10.443981 11.73979
-101.3829 9.7588501 22.90185
-101.52711 10.055529 17.339581
-101.56467 10.171964 14.921956
-101.56225 10.181298 14.661601
-101.57347 10.196984 14.41128
-101.56623 10.203859 14.15264
-101.55656 10.209493 13.894979
-101.55264 10.217754 13.642643
-101.53001 10.217065 13.382696
-101.55423 10.238513 13.148948
-101.55167 10.247179 12.903239
-101.56342 10.262583 12.666332
-101.53986 10.261111 12.414227
-101.53899 10.27036 12.174815
-101.55272 10.286504 11.943635
-101.56443 10.301637 11.71286
-101.55731 10.307716 11.47531
-101.5481 10.312725 11.238534
-101.56221 10.328835 11.012869
-101.54891 10.331767 10.777463
-101.55911 10.345904 10.55272
-101.55886 10.354981 10.325154
-101.5481 10.358954 10.095035
-101.56113 10.374312 9.874732
-101.54649 10.376311 9.6458654
-101.54716 10.385628 9.4234991
-101.58057 10.410696 9.2127018
-101.54668 10.412132 8.761898
-101.64478 10.580866 5.7884021
-101.38485 9.6265688 22.873184
-101.47935 9.683527 22.612162
-101.52251 9.8723135 18.470608
-101.53329 9.9241457 17.31996
-101.56147 9.9485884 17.057545
-101.5698 10.029206 15.164757
-101.56973 10.039722 14.903661
-101.55112 10.041478 14.6342
-101.53798 10.045685 14.370525
-101.55473 10.063794 14.125856
-101.53672 10.065532 13.864113
-101.5489 10.081343 13.620806
-101.54248 10.088344 13.369582
-101.54197 10.098042 13.123422
-101.53923 10.106609 12.878031
-101.54254 10.117959 12.637436
-101.5437 10.128222 12.397501
-101.52602 10.129519 12.150568
-101.54799 10.149475 11.923464
-101.53437 10.152551 11.68189
-101.53546 10.162517 11.448426
-101.53451 10.171453 11.215576
-101.53152 10.179366 10.983362
-101.53502 10.190302 10.755157
-101.47764 9.5497055 22.587442
-101.5038 9.7302103 18.437206
-101.54266 9.7598333 18.172169
-101.55623 9.7777996 17.890934
-101.56699 9.7943687 17.610556
-101.51369 9.7814531 17.288006
-101.54939 9.8092012 17.03126
-101.56718 9.828639 16.76441
-101.55904 9.8360577 16.482769
-101.56376 9.8492699 16.212467
-101.55799 9.8575459 15.938056
-101.54029 9.892045 14.870374
-101.5536 9.9086342 14.619891
-101.54842 9.9165745 14.360924
-101.54893 9.9270535 14.107383
-101.53892 9.9325628 13.850272
-101.51833 9.9330502 13.589854
-101.53632 9.9514179 13.351816
-101.54395 9.9648886 13.11005
-101.53284 9.9695482 12.860741
-101.53606 9.9808149 12.620383
-101.54545 9.9949026 12.384606
-101.53603 10.000122 12.141677
-101.48895 9.4215307 22.577261
-101.53239 9.4549026 22.270605
-101.52367 9.4648972 21.919518
-101.55793 9.533824 20.623943
-101.52939 9.6083784 18.439259
-101.56079 9.6344767 18.168543
-101.57437 9.6523952 17.887306
-101.55461 9.6550751 17.585108
-101.49336 9.6387596 17.257481
-101.54433 9.6732903 17.011711
-101.56203 9.6925993 16.745079
-101.56155 9.7035303 16.468822
-101.53484 9.7023811 16.178335
-101.55244 9.7213354 15.919402
-101.53422 9.7556381 14.852637
-101.54743 9.7721205 14.602385
-101.53405 9.7762957 14.339102
-101.5344 9.7866936 14.085872
-101.54871 9.8034372 13.842255
-101.48427 9.2900343 22.553585
-101.53459 9.3262005 22.253616
-101.54678 9.345396 21.921959
-101.51543 9.4718008 18.412569
-101.54671 9.4976606 18.142134
-101.56015 9.5153999 17.861181
-101.53255 9.5145731 17.553825
-101.5373 9.5394812 16.991774
-101.56266 9.5621319 16.730591
-101.5543 9.5694532 16.449324
-101.55097 9.5789356 16.174313
-101.55283 9.5906525 15.90536
-101.48363 9.1627893 22.538559
-101.53397 9.1986837 22.238714
-101.5461 9.2177296 21.907187
-101.55292 9.3721209 18.134602
-101.55875 9.3863544 17.848196
-101.53571 9.4102268 16.979223
-101.55328 9.4292231 16.712954
-101.54925 9.4493656 16.162201
-101.56686 9.4680777 15.903411
-101.51028 9.0608711 22.207527
-101.52225 9.0797167 21.876331
-101.51032 8.9355621 22.204958
-101.51534 8.9512892 21.867397
-101.61083 9.0627594 17.021189
-101.61336 9.0748243 16.744011
-101.60527 9.0821476 16.462664
-101.69703 8.9750338 17.07799
-101.70006 8.9872694 16.80007
-101.68459 8.991394 16.512814
-101.68201 9.0009766 16.237043
-101.66083 9.0023775 15.952304
-101.65273 9.0093365 15.678816
-101.64993 9.0184994 15.411301
-101.64226 9.0456972 14.624082
-101.7746 9.0085602 10.565906
-101.79219 9.0250902 10.344125
-101.78177 9.0293427 10.113258
-101.76058 9.0288363 9.8801117
-101.76361 9.0388651 9.6567039
-101.76473 9.0480156 9.4337444
-101.89145 8.9835691 2.660459
-102.02271 8.339222 4.538238
-101.99241 7.7298951 13.753757
-102.03442 8.0982399 4.5463257
-101.98348 7.6075048 13.756923
-102.06152 7.9713502 4.9759092
-102.05085 7.9749537 4.7646756
-101.98393 7.4884987 13.762361
-102.04697 7.8439941 4.9792085
-102.0425 7.8579412 4.5592108
-101.9936 7.2522197 16.958637
-102.0013 7.2964821 15.859171
-101.99688 7.3148651 15.320242
-102.02362 7.3349686 15.071121
-101.97068 7.3628869 13.754524
-102.0251 7.3931904 13.530947
-101.99662 7.1341071 16.956944
-101.9827 7.1393218 16.667734
-101.97384 7.1463208 16.38492
-101.97829 7.1582174 16.113325
-101.96375 7.1628585 15.832769
-101.95452 7.1693978 15.558331
-101.95896 7.1809993 15.2946
-101.95682 7.2094188 14.508663
-101.96771 7.2231283 14.257488
-101.95943 7.2294765 13.998171
-101.96918 7.2519464 13.499529
-102.04767 7.0336299 16.986534
-102.05004 7.0449524 16.707211
-102.05765 7.0581188 16.433977
-102.0463 7.0641165 16.1516
-102.03207 7.0689259 15.870439
-102.03952 7.0817394 15.605119
-102.02792 7.0873265 15.331049
-102.00532 7.0886831 15.05343
-102.01308 7.1013379 14.795688
-102.01003 7.1098442 14.534148
-102.01279 7.1204534 14.278028
-102.00469 7.1268888 14.018318
-101.98941 7.1398563 13.50616
-102.09976 7.0425558 14.067211
-102.03441 7.0368295 13.527864
-102.05307 7.0530486 13.287405
-102.04387 7.0587626 13.035134
-102.05273 7.0802083 12.549144
-102.06242 7.0928187 12.31099
-102.06994 7.1045542 12.073371
-102.04919 7.1055751 11.825262
-101.99947 6.6252832 21.236416
-102.17555 7.1041846 10.010401
-102.25595 4.9187655 22.348097
-102.24881 4.9287057 21.993061
-102.23286 4.9591699 20.962364
-102.25507 4.9774985 20.650265
-102.24332 4.9851956 20.315046
-102.27831 4.7858295 22.723759
-102.25797 4.927875 18.455
-102.32277 4.999053 17.032183
-93.926064 56.271538 6.4935279
-93.916656 56.303871 5.9590759
-99.274849 24.599916 6.3678174
-99.289871 24.636215 6.0287938
-99.331856 24.283142 6.3439088
-99.299217 24.268526 5.9990187
-99.263718 23.136955 18.368292
-99.443665 23.827015 3.2585654
-99.504967 23.929621 2.5882595
-99.463165 23.983353 0.90323144
-99.46769 23.515596 2.5718145
-99.510727 23.637383 1.2319957
-99.46978 22.238789 18.159634
-99.600967 23.180931 4.2308483
-99.597054 23.196329 3.8968928
-99.591087 23.209641 3.5629649
-99.525673 21.926897 18.089735
-99.636589 22.844604 4.2138309
-99.646759 22.874083 3.8824477
-99.605484 22.852007 3.5478466
-99.6045 22.870289 3.2161322
-99.608528 22.893599 2.8845625
-99.58934 22.893606 2.5522916
-99.589272 22.912813 2.2205212
-99.575356 21.616148 18.023813
-99.598877 22.131193 9.518569
-99.592995 22.144941 9.1795006
-99.640686 22.480223 4.1983829
-99.586952 21.272552 17.94413
-99.638504 21.788651 9.8267136
-99.699448 21.886131 9.1698856
-99.705597 21.911341 8.835494
-99.681305 21.907053 8.4944105
-99.651001 22.048708 5.5049219
-99.752708 22.317957 2.5500212
-99.743958 22.347206 1.8901451
-99.740067 22.362309 1.5600188
-99.615273 20.945354 17.882067
-99.657799 21.006399 17.533268
-99.657478 21.02721 17.161572
-99.647789 21.039085 16.78709
-99.728127 21.318216 13.244256
-99.675819 21.482058 9.4664631
-99.684128 21.508993 9.1339922
-99.676079 21.520269 8.7980566
-99.744629 21.922606 2.8835363
-99.69593 20.932068 13.182427
-99.721512 20.975466 12.846126
-100.11938 18.178181 18.184092
-100.19354 18.471487 13.951976
-100.15404 18.456814 13.592101
-100.15568 18.476656 13.251816
-100.12566 18.469717 12.900511
-100.1151 18.479073 12.559034
-100.12416 18.504902 12.226666
-100.15945 17.838711 18.486879
-100.40258 18.534252 2.8906045
-100.37624 18.529203 2.574456
-100.34016 18.515921 2.2587049
-100.35552 18.545935 1.9435757
-100.33818 18.548412 1.6283051
-101.37407 10.317535 18.58379
-101.47412 9.743577 18.521296
-101.57841 9.5042791 18.172125
-101.5803 9.6733503 14.765862
-101.57999 9.6893673 14.437552
-101.63438 9.2217455 18.15016
-101.60341 9.3717747 14.733457
-101.60301 9.3875818 14.405878
-101.65757 8.9242086 18.105289
-101.78151 9.4140501 9.4106731
-101.77569 9.4403076 8.8048325
-101.77782 9.4560537 8.5045824
-101.76892 9.4658651 8.2028475
-101.74895 9.4697132 7.8999095
-101.75266 9.486166 7.6027317
-101.72794 9.4873629 7.3010588
-101.7444 9.5105705 7.0076756
-101.72369 9.5138292 6.7086043
-101.60198 8.3721056 22.457802
-101.7818 8.2831087 19.869532
-101.78105 8.3175631 19.141195
-101.75439 7.8772035 21.682341
-101.74593 7.8911676 21.294834
-101.76484 7.9182301 20.928919
-101.78812 7.9472718 20.568913
-101.76092 7.9516048 20.180576
-101.79309 7.9846725 19.832355
-101.7666 7.9890022 19.451784
-101.76831 8.0069246 19.091494
-101.82696 8.151516 16.673716
-101.77604 7.6012354 21.257763
-101.81052 7.6353683 20.902403
-101.79462 7.6453323 20.51807
-101.88084 7.8700533 16.655893
-101.93508 6.7280006 21.121994
-102.36023 4.926259 18.161913
-102.56264 5.3411226 4.5675993
-93.810226 55.353634 19.080864
-93.880638 55.9132 14.695058
-93.850281 56.01585 12.710323
-93.811066 55.434761 18.901457
-93.902077 56.02755 14.527527
-93.841835 55.953644 13.697135
-93.849983 56.238892 10.588961
-93.871605 55.246933 19.289295
-94.002167 56.139984 8.6620884
-94.03698 55.806164 6.3569341
-94.014091 55.783474 5.9750905
-99.422943 23.960415 6.3514476
-99.443237 23.856184 6.5903344
-99.442963 23.866518 6.3492703
-99.453323 23.778093 3.479347
-99.462845 23.796276 3.2430577
-99.413399 22.337105 18.754171
-99.42482 22.240944 18.738516
-99.442719 22.150742 18.727442
-99.439445 22.04653 18.70027
-99.541031 22.499037 9.9335966
-99.52652 22.498367 9.6797218
-99.607155 22.925089 1.1261364
-99.447205 21.95266 18.686296
-99.532928 22.390816 9.9217672
-99.510719 22.384205 9.6656494
-99.622734 22.813263 1.5997093
-99.460724 21.863443 18.678976
-99.468285 21.768827 18.665705
-99.455864 21.660007 18.63448
-99.505173 21.598003 18.648943
-99.497299 21.4956 18.624254
-99.600105 21.928431 10.14878
-99.514252 21.413031 18.623734
-99.698921 21.914595 9.9305782
-99.669075 21.902458 9.6718664
-99.532837 21.331169 18.620228
-99.549576 21.245007 18.604595
-99.593285 21.456842 14.270407
-99.545547 21.142559 18.57408
-99.634811 21.398703 14.000298
-99.572212 21.064104 18.575182
-99.596931 20.987469 18.577255
-99.60202 20.897188 18.560535
-99.616478 20.810238 18.547129
-99.653496 20.737387 18.54808
-99.899475 21.58485 2.0702486
-99.669731 20.650272 18.532284
-99.831909 21.109247 10.116042
-99.908997 21.45311 2.9963887
-99.916428 21.467957 2.7638116
-99.906113 21.469753 2.530875
-99.894157 21.470339 2.2980974
-99.904724 21.487509 2.0652008
-99.664055 20.549227 18.501162
-99.822083 21.003139 10.097137
-99.918304 21.340687 3.4560289
-99.896751 21.334274 3.222573
-99.889687 21.338446 2.9900694
-99.897125 21.353226 2.7580125
-99.902924 21.366812 2.5257487
-99.931274 21.396942 2.2932565
-99.917664 21.396318 2.06057
-99.67099 20.456438 18.483639
-99.723122 20.667578 14.179461
-99.726898 20.681139 13.910719
-99.88868 21.191574 4.1476822
-99.872009 21.188797 3.9141893
-99.902161 21.220039 3.6841557
-99.922607 21.244244 3.4530737
-99.909096 21.243744 3.220216
-99.91819 21.259693 2.9883835
-99.941803 21.286236 2.7566483
-99.935623 21.300415 2.2916083
-99.930077 21.30571 2.0590837
-99.683868 20.36808 18.472378
-99.778763 20.446527 18.235182
-99.815598 20.800842 10.072151
-99.817619 20.851379 8.8488159
-99.933182 21.123835 4.1483445
-99.940781 21.138653 3.9164672
-99.938644 21.146427 3.6839597
-99.942963 21.158865 3.4519453
-99.921356 21.152519 3.2188396
-99.922386 21.162567 2.986933
-99.905594 21.159683 2.7546546
-99.927628 21.184973 2.5230606
-99.915649 21.185577 2.2909827
-99.902031 21.184988 2.0590823
-99.694809 20.281832 18.461637
-99.782799 20.355131 18.219379
-99.77948 20.389069 17.308626
-99.845535 20.715508 10.321329
-99.83683 20.729074 9.8231401
-99.809677 20.739046 9.0804358
-99.95282 21.039198 4.1474276
-99.936165 21.036463 3.9138467
-99.934059 21.044195 3.6816864
-99.930313 21.050734 3.4495971
-99.924919 21.05608 3.2175968
-99.917885 21.060236 2.9857028
-99.917313 21.069056 2.7540939
-99.907005 21.070833 2.5223787
-99.886955 21.065559 2.2908368
-99.779564 20.25836 18.199282
-99.795158 20.281261 17.905199
-99.80822 20.302303 17.611874
-99.761734 20.282024 17.279455
-99.821556 20.611603 10.055713
-99.831894 20.628677 9.8128948
-99.956192 20.942822 4.1460867
-99.947662 20.945904 3.9133627
-99.969933 20.971075 3.6829054
-99.941879 20.960125 3.44946
-99.928398 20.959623 3.2172973
-99.888931 20.940422 2.9846704
-99.888405 20.9492 2.7536714
-99.793488 20.168932 18.187075
-99.801949 20.186907 17.888004
-99.793594 20.19319 17.579723
-99.746819 20.172871 17.247761
-99.790222 20.214577 16.981661
-99.917824 20.890469 2.2898424
-99.775261 20.05283 18.146784
-99.804665 20.085199 17.863642
-99.756172 20.076103 17.228998
-99.789642 19.961054 18.135771
-99.797714 19.978872 17.837378
-99.77739 19.989286 17.223429
-99.782318 19.862 18.121469
-99.776154 19.870089 17.813105
-100.10136 18.174189 18.299925
-100.12637 18.201931 18.012371
-100.1196 18.209959 17.704912
-100.12467 18.225185 17.408775
-100.09756 18.220402 17.093704
-100.14908 18.26412 16.834105
-100.1314 18.264936 16.531071
-100.096 18.254641 16.219908
-100.10282 18.270395 15.938459
-100.08454 18.270472 15.644052
-100.18216 18.248327 15.413163
-100.2048 18.273567 15.147007
-100.19459 18.278391 14.863849
-100.15886 18.267294 14.568936
-100.15906 18.278366 14.296617
-100.14145 18.278297 14.016883
-100.14473 18.291111 13.750448
-100.09076 17.969414 18.577671
-100.23598 18.274954 13.256872
-100.24074 18.288431 12.995767
-100.25123 18.305397 12.739021
-100.21214 18.291521 12.460937
-100.21036 18.300722 12.202147
-100.19849 18.303585 11.940596
-100.18446 18.305031 11.679945
-100.16028 18.300077 11.41691
-100.13412 17.902691 18.592741
-100.2428 18.296228 10.440781
-100.25706 18.314913 10.199139
-100.245 18.317179 9.9492874
-100.21462 18.307974 9.6947327
-100.19855 18.307621 9.4465876
-100.20513 18.321335 9.2069321
-100.17738 17.836302 18.606947
-100.11825 17.695557 18.855724
-100.34429 18.320745 6.6196198
-100.34599 18.331001 6.386704
-100.22415 17.668453 18.921362
-100.38193 18.322596 4.7692299
-100.3867 18.334597 4.5396495
-100.38979 18.345528 4.3100734
-100.3573 18.334255 4.0778356
-100.36543 18.348314 3.8492537
-100.35492 18.350729 3.6195612
-100.3427 18.352066 3.3901179
-100.3288 18.352327 3.1609411
-100.33015 18.362129 2.9325197
-100.43495 18.349972 2.4753621
-100.43125 18.356581 2.2459779
-100.41737 18.356829 2.0167124
-100.43249 18.279877 1.7860748
-100.47107 18.218327 1.5524457
-100.45211 18.215357 1.3233875
-100.46541 18.232399 1.0927231
-100.57211 17.455229 0.86291689
-101.65125 10.203427 5.0581999
-101.65791 10.141659 5.056118
-101.60921 9.4463978 18.646063
-101.60396 9.3830471 18.646826
-101.80082 9.9517708 3.2228878
-101.62293 9.3285351 18.663351
-101.68151 9.4738331 14.840016
-101.60822 9.2640276 18.659485
-101.82758 9.8457298 3.226541
-101.59348 9.2005663 18.655851
-101.70271 9.3641376 14.860368
-101.64711 9.1509132 19.011698
-101.58825 9.1412477 18.655006
-101.68893 9.3020163 14.855227
-101.5705 9.0670233 18.961067
-101.56742 9.0763779 18.64212
-101.69247 9.2457371 14.857239
-101.88799 9.735774 2.0637345
-101.88478 9.7498865 1.5977696
-101.86622 9.7507963 1.3652509
-101.87969 9.7709856 0.89782727
-101.58854 9.0239954 18.654402
-101.68039 9.1827793 14.849338
-101.89538 9.674674 2.293066
-101.8825 9.6777182 2.0601823
-101.88862 9.6953087 1.5939573
-101.88881 9.7030725 1.3606547
-101.86828 9.7033501 1.1281239
-101.88341 9.7165346 0.89375806
-101.68717 9.1244612 14.847891
-101.90101 9.6045942 2.7534692
-101.89027 9.6162729 2.287374
-101.89614 9.626153 2.0543134
-101.88128 9.6285772 1.8214526
-101.87392 9.6336956 1.5885373
-101.88344 9.6449041 1.3549714
-101.89104 9.6554298 1.1211286
-101.86852 9.6550932 0.88860631
-101.604 8.9056854 18.651096
-101.89874 9.5320005 3.211673
-101.90278 9.5413046 2.9786332
-101.89549 9.5465565 2.745373
-101.90511 9.5578566 2.5124149
-101.89399 9.5617323 2.2792785
-101.87154 9.5615425 2.0464115
-101.88483 9.5741634 1.8131894
-101.86797 9.5759697 1.5804591
-101.87741 9.5872269 1.3468921
-101.88493 9.5978022 1.1130488
-101.88111 9.60431 0.87947655
-101.89718 9.467804 3.4346974
-101.89362 9.4744778 3.2012999
-101.87873 9.477107 2.9677565
-101.88076 9.4857559 2.7348394
-101.89029 9.4970827 2.501966
-101.88848 9.5043678 2.2689126
-101.89417 9.5143347 2.035764
-101.88853 9.5202532 1.8026451
-101.87156 9.5221157 1.5698355
-101.88091 9.5334044 1.336179
-101.87891 9.5406389 1.102693
-101.8656 9.5438147 0.86965662
-101.89122 9.3551798 5.0652356
-101.90976 9.3938093 4.1289167
-101.9025 9.3992434 3.8945389
-101.90273 9.4073153 3.6608977
-101.89162 9.4113617 3.4269037
-101.88799 9.4180546 3.1935081
-101.89187 9.4274054 2.9604671
-101.90325 9.4394245 2.7275372
-101.88445 9.440711 2.4941769
-101.89199 9.4513693 2.2611115
-101.89761 9.4613495 2.0278745
-101.87307 9.4605722 1.7950454
-101.87486 9.4691868 1.5617796
-101.86531 9.4737587 1.3287569
-101.88206 9.4877396 1.0944616
-101.85928 9.4875784 0.86187851
-101.90353 9.3056288 5.0637732
-101.88377 9.3147564 4.5921807
-101.91797 9.3348236 4.3607459
-101.92419 9.3530531 3.8928018
-101.90557 9.3544846 3.6578813
-101.89443 9.3585443 3.4238014
-101.90021 9.368577 3.1906538
-101.89465 9.3745937 2.9571905
-101.88715 9.3799238 2.7238512
-101.88718 9.3879118 2.4907267
-101.90412 9.4019127 2.2575593
-101.87203 9.3984957 2.0245521
-101.88514 9.4111404 1.7911465
-101.86806 9.4130507 1.5582576
-101.86791 9.4209852 1.3248733
-101.89406 9.4383097 1.0900385
-101.91613 9.3126764 3.4241197
-101.9125 9.3193798 3.1903756
-101.89751 9.3220682 2.9564905
-101.89945 9.3307295 2.7232239
-101.89005 9.3353767 2.4898517
-101.87873 9.3393393 2.2566392
-101.88434 9.3492985 2.023401
-101.86918 9.3518963 1.7903866
-101.87095 9.3604994 1.5570329
-101.8708 9.3684244 1.3235612
-101.86871 9.3756714 1.0899892
-101.88351 9.388938 0.85525978
-101.91904 9.3166723 1.7875881
-101.90907 9.3371325 1.0860723
-101.8768 9.333683 0.85359621
-101.74696 8.0124846 22.928253
-101.74909 7.9753327 22.941393
-101.77161 7.9220562 23.001289
-101.79089 7.8901591 22.697872
-101.77113 7.8606787 22.702305
-101.76991 7.833921 22.715977
-101.78546 7.8081908 22.740417
-101.75497 7.9076567 19.272358
-101.76449 7.7687078 22.734119
-101.77028 7.7398911 22.754774
-101.72963 7.7201476 22.760183
-101.87357 7.9436927 17.193043
-101.70844 7.695457 22.774281
-101.79092 7.7328944 22.474556
-101.86476 7.9208851 17.209669
-101.7811 7.6993937 22.485025
-101.87777 7.8650026 18.161781
-101.86521 7.8894835 17.223812
-101.78239 7.6648479 22.49774
-101.87228 7.8281655 18.167526
-101.85988 7.8526793 17.22933
-101.78485 7.6276765 22.510607
-101.78746 7.5907149 22.523367
-101.79032 7.5562625 22.534042
-101.86768 7.7157607 18.188017
-101.87249 7.7458692 17.258625
-101.78997 7.5197434 22.533676
-101.79384 7.4805212 22.529337
-101.7879 7.4373808 22.521624
-101.78673 7.3975234 22.523706
-101.77785 7.3573017 22.519333
-101.78329 7.323534 22.526852
-101.79424 7.293365 22.543022
-101.7879 7.2578726 22.550114
-102.0589 6.9489131 16.965885
-102.05859 6.9190273 16.959154
-102.00811 6.7334294 21.540531
-102.06693 6.8909407 16.957939
-102.00404 6.7040572 21.542124
-102.07117 6.8646121 16.963182
