# .PCD v0.7 - Point Cloud Data file format
VERSION 0.7
FIELDS x y z
SIZE 4 4 4
TYPE F F F
COUNT 1 1 1
WIDTH 947
HEIGHT 1
VIEWPOINT 0 0 0 1 0 0 0
POINTS 947
DATA ascii
-102.04555 17.839828 18.103998
-102.10683 18.036621 4.813087
-102.11527 18.06097 4.5199594
-102.07925 18.041492 4.2227044
-102.08402 18.06221 3.9297397
-102.05855 18.053062 3.634701
-102.0668 18.077185 3.3422103
-102.03767 18.064384 3.0479052
-102.02806 18.070847 2.7548807
-101.95166 16.270941 18.671476
-101.94546 15.991549 18.586243
-101.93764 15.711932 18.501226
-101.8703 15.362926 18.718323
-101.89109 15.115152 18.655149
-101.8681 14.832696 18.566893
-101.84228 14.553143 18.477358
-101.82071 14.261221 18.734955
-101.8685 14.318959 18.426083
-101.73086 13.150284 18.716669
-101.74659 12.904204 18.642239
-101.74673 12.646057 18.559481
-101.5948 11.048225 18.71623
-101.61443 10.596925 18.605442
-101.59719 10.353947 18.532547
-101.60005 10.126556 18.473778
-101.52492 9.7972727 4.672473
-101.49608 8.9211626 18.763605
-101.58688 9.6121969 4.6694217
-101.54532 9.6060505 4.1647749
-101.44791 8.6714706 18.668964
-101.53136 9.3715858 4.1531825
-101.47318 8.4674892 18.62327
-101.54991 9.1382284 4.6389408
-101.59087 9.1875725 4.146163
-101.43407 8.2195501 18.530035
-101.41573 7.9709516 18.774803
-101.474 8.0218134 18.492466
-101.42445 7.7573719 18.716282
-101.4679 7.7986736 18.424454
-101.45116 7.351511 18.6376
-101.39949 6.9201312 18.530817
-101.38881 6.7182083 18.499407
-101.39405 6.5265942 18.474722
-101.24986 4.5126643 18.553099
-102.06819 18.031214 22.213255
-102.03778 18.024969 21.836231
-102.0625 18.058361 21.514568
-102.06465 18.075264 21.176125
-102.06371 18.089746 20.838934
-102.04642 18.092188 20.49161
-102.03262 18.096958 20.151556
-102.06314 17.823153 22.147303
-102.07119 17.844769 21.807041
-102.04356 17.777185 18.478319
-102.07084 17.969265 14.729368
-102.04829 17.965427 14.443278
-102.05285 17.981134 14.174994
-102.05527 17.995197 13.9074
-102.04814 18.002234 13.636558
-102.05373 18.018431 13.374394
-102.04232 18.022175 13.105227
-102.05126 18.040646 12.848197
-102.04316 18.046633 12.584376
-102.04808 18.062033 12.32853
-102.04346 18.0704 12.069749
-102.03683 18.077229 11.811703
-102.02058 18.076958 11.551098
-102.03287 18.09746 11.304383
-102.03864 17.793221 13.871428
-102.04423 17.821415 13.343913
-102.04764 17.835836 13.083086
-102.03395 17.837847 12.815441
-102.03322 17.849119 12.556076
-102.03046 17.858852 12.297399
-102.02568 17.867048 12.039434
-102.04937 17.895765 11.795813
-101.92036 17.126474 18.603565
-101.89224 16.739134 22.843811
-101.96019 16.801107 22.554079
-101.92675 16.952459 18.579641
-101.89465 16.569527 22.799789
-101.94958 16.622189 22.498089
-101.91945 16.77479 18.536552
-101.93777 16.48595 22.458792
-101.96382 16.518616 22.133089
-101.8995 16.630857 18.496231
-101.95255 16.680012 18.232401
-101.95279 16.706215 17.632717
-101.91327 16.692179 17.309149
-101.91633 16.293686 22.391287
-101.94206 16.325874 22.066339
-101.8875 16.444004 18.448826
-101.9334 16.487936 18.180368
-101.96288 16.520754 17.901609
-101.94017 16.518353 17.587313
-101.90028 16.504232 17.26442
-101.85226 16.05744 22.638145
-101.93303 16.125694 22.363022
-101.93893 16.144642 22.019976
-101.8815 16.260662 18.408739
-101.9273 16.304195 18.140879
-101.94244 16.327232 17.852283
-101.93365 16.334194 17.549017
-101.90777 16.329626 17.236856
-101.86216 15.887629 22.600782
-101.91668 15.938271 22.301201
-101.91561 15.952581 21.952692
-101.88893 16.088522 18.376905
-101.94176 16.136374 18.11478
-101.94257 16.14982 17.816122
-101.89776 16.133005 17.487667
-101.89301 16.142494 17.191608
-101.85898 15.71089 22.549067
-101.91333 15.76104 22.250023
-101.91857 15.77937 21.908211
-101.94717 15.812608 21.591976
-101.91445 15.820437 20.890535
-101.89975 15.825122 20.548176
-101.90907 15.845201 20.230593
-101.90318 15.922298 18.348639
-101.92049 15.946581 18.060425
-101.9281 15.964413 17.767725
-101.89005 15.952231 17.445087
-101.92108 15.985144 17.174963
-102.05647 16.772825 1.0329244
-101.85883 15.539313 22.506302
-101.8867 15.572136 22.182873
-101.90484 15.598581 21.854109
-101.9332 15.631406 21.538496
-101.93842 15.649245 21.205612
-101.93365 15.660514 20.868006
-101.93244 15.673881 20.537664
-101.92807 15.685043 20.208626
-101.86496 15.72476 18.285492
-101.90331 15.762461 18.014034
-101.91067 15.780004 17.722002
-101.87945 15.772395 17.405178
-101.95374 15.833121 17.166054
-101.83945 15.357944 22.456718
-101.88037 15.398763 22.146347
-101.8984 15.424934 21.818069
-101.93176 15.475069 21.170555
-101.91326 15.477535 20.821554
-101.91181 15.490656 20.491848
-101.92781 15.51472 20.180847
-101.87106 15.558352 18.265671
-101.88802 15.582031 17.978716
-101.88806 15.594736 17.682062
-101.84213 15.577763 17.355612
-101.8445 15.191697 22.434406
-101.87219 15.223914 22.111952
-101.89013 15.249841 21.784163
-101.91834 15.282063 21.46954
-101.91653 15.295246 21.131622
-101.91822 15.310458 20.801006
-101.90304 15.314851 20.459906
-101.89828 15.325644 20.132
-101.81351 15.338459 18.502621
-101.88268 15.395213 18.253366
-101.87104 15.400553 17.945534
-101.87093 15.413085 17.649475
-101.83198 15.400744 17.328751
-101.84574 15.022177 22.402151
-101.86005 15.045876 22.067669
-101.82712 15.176453 18.486351
-101.8607 15.210387 18.210554
-101.88467 15.238176 17.929871
-101.87009 15.241551 17.623665
-101.81641 15.22011 17.293081
-101.83494 14.84584 22.353735
-101.86233 14.877479 22.032244
-101.8343 15.01113 18.46106
-101.86066 15.040362 18.18026
-101.85574 15.049964 17.878832
-101.8625 15.06672 17.589039
-101.80847 15.045354 17.258974
-101.83665 14.679002 22.317095
-101.8238 14.685923 21.958675
-101.80502 14.824991 18.407734
-101.85982 14.871603 18.149158
-101.8547 14.881097 17.848175
-101.83954 14.884233 17.543156
-101.80695 14.87643 17.22921
-101.8316 14.508555 22.273796
-101.83853 14.527495 21.934525
-101.81115 14.661406 18.381268
-101.82277 14.68127 18.090828
-101.83896 14.703813 17.806553
-101.81623 14.702374 17.496902
-101.81979 14.716924 17.209379
-101.8187 14.347919 21.879509
-101.80901 14.492722 18.349619
-101.83488 14.521175 18.07037
-101.82924 14.530395 17.770494
-101.82079 14.537774 17.471815
-101.82421 14.55223 17.184668
-101.79857 14.321007 18.312178
-101.81703 14.344872 18.02807
-101.8329 14.367064 17.744684
-101.80966 14.3656 17.435928
-101.83488 14.393181 17.164755
-101.82015 14.183593 18.001133
-101.82862 14.201269 17.712818
-101.83758 14.231506 17.138933
-101.82023 14.0253 17.974426
-101.81397 14.03417 17.675882
-101.80042 14.050879 17.087585
-101.83067 14.105 16.260996
-101.83078 14.116911 15.983826
-101.82839 14.127227 15.707603
-101.84628 14.149503 15.446445
-101.83141 14.152183 15.16736
-101.83699 14.166934 14.90309
-101.83256 14.175628 14.635115
-101.83213 14.197758 14.110626
-101.82072 14.20199 13.845401
-101.84602 14.228117 13.601939
-101.83619 14.286457 12.092381
-101.83915 14.298697 11.848834
-101.85616 14.319341 11.612877
-101.85516 14.329079 11.370354
-101.81255 13.915113 16.788803
-101.82505 13.934414 16.51528
-101.81259 13.938922 16.227718
-101.80502 13.946178 15.94623
-101.80243 13.956265 15.670618
-101.81257 13.973752 15.405377
-101.81273 13.985255 15.136222
-101.8105 13.995245 14.867952
-101.81359 14.008288 14.605061
-101.79736 14.020819 14.073053
-101.8091 14.038731 13.821218
-101.78735 14.068734 12.796194
-101.77245 14.070398 12.540195
-101.78722 14.089663 12.300184
-101.77605 14.093391 12.049552
-101.7868 14.110141 11.810564
-101.79561 14.125668 11.571999
-101.78634 14.130327 11.327034
-101.7993 14.148228 11.092884
-101.78605 14.150374 10.849285
-101.78705 14.161001 10.612878
-101.78614 14.170427 10.377002
-101.76698 14.168836 10.135661
-101.77863 14.185697 9.9069319
-101.77204 14.191549 9.67278
-101.79652 14.216054 9.4502792
-101.78506 14.238209 8.7600889
-101.83806 14.392826 5.878376
-101.85054 14.409693 5.6615682
-101.85292 14.420392 5.4434624
-101.75953 13.49334 22.35268
-101.8236 13.767053 16.776129
-101.82363 13.790639 16.215496
-101.80833 13.816229 15.384445
-101.80142 13.845782 14.580824
-101.79034 13.914553 12.78309
-101.77539 13.916162 12.527408
-101.78219 13.93054 12.283973
-101.76294 13.929446 12.030076
-101.78168 13.950766 11.795161
-101.78241 13.961359 11.553498
-101.77306 13.965914 11.309022
-101.76977 13.974004 11.068684
-101.75639 13.976029 10.825741
-101.76544 13.991331 10.593168
-101.76446 14.000612 10.357871
-101.76157 14.008709 10.123129
-101.77484 14.036096 9.6639223
-101.75758 13.337587 22.323454
-101.77317 13.360911 21.992458
-101.765 13.370583 21.643867
-101.75079 13.17865 22.28499
-101.76617 13.201736 21.954401
-101.74072 13.334628 18.415442
-101.71039 13.366348 17.22258
-101.75386 13.02545 22.248625
-101.75546 13.040745 21.905785
-101.7265 13.171289 18.372232
-101.74221 13.217001 17.502459
-101.72466 13.219098 17.202333
-101.7491 12.883246 21.86467
-101.72447 13.016046 18.34128
-101.75181 13.043707 18.065275
-101.73978 13.049248 17.762976
-101.72483 13.053004 17.462006
-101.72184 13.063324 17.172852
-101.72814 12.862526 18.318892
-101.74806 12.885945 18.037735
-101.74321 12.895525 17.741177
-101.69842 12.882811 17.419313
-101.73241 12.913671 17.15687
-101.70805 13.087951 12.652067
-101.74254 12.727858 18.012726
-101.72272 12.729266 17.705791
-101.76373 12.775991 17.159092
-101.61958 12.305563 22.697565
-101.72862 12.566748 17.981194
-101.72338 12.57618 17.685444
-101.61413 12.153324 22.665623
-101.69558 12.211155 22.393684
-101.81532 12.920634 7.1276517
-101.81219 12.92805 6.9084034
-101.81593 12.939296 6.6912365
-101.61974 12.009012 22.648674
-101.66737 12.04864 22.344812
-101.70513 12.082946 22.035074
-101.7914 12.952857 2.4127901
-101.80424 12.968975 2.200537
-101.79803 12.974348 1.9882917
-101.77283 12.96896 1.7765939
-101.7721 12.977429 1.5642575
-101.59417 11.847905 22.61006
-101.67565 11.904862 22.33882
-101.69983 11.931884 22.016506
-101.71381 11.953422 21.688828
-101.67577 11.961481 20.98757
-101.68631 11.980675 20.669975
-101.67948 11.990601 20.341442
-101.65503 11.991099 20.002428
-101.66283 12.008352 19.694551
-101.64876 12.051992 18.463053
-101.61389 11.709598 22.619184
-101.66162 11.748784 22.315825
-101.67889 11.772115 21.987495
-101.71017 11.816573 21.340302
-101.70333 11.826907 21.002905
-101.70704 11.842521 20.679157
-101.69324 11.848877 20.344603
-101.69022 11.860645 20.02351
-101.68392 11.870535 19.703735
-101.63361 11.895341 18.444263
-101.59369 11.550595 22.588703
-101.65498 11.596463 22.298632
-101.66535 11.616186 21.964214
-101.69987 11.648082 21.656193
-101.68953 11.670704 20.980661
-101.69314 11.686243 20.657265
-101.70761 11.707199 20.347153
-101.69753 11.715354 20.020176
-101.68518 11.785705 18.178886
-101.66161 11.797873 17.578844
-101.59821 11.407687 22.583838
-101.64599 11.446417 22.281052
-101.68384 11.47998 21.972383
-101.677 11.490738 21.626568
-101.6874 11.510043 21.300966
-101.69443 11.527457 20.976517
-101.69102 11.539393 20.647165
-101.68419 11.5494 20.319187
-101.63532 11.298613 22.263575
-101.65942 11.325034 21.942448
-101.6802 11.349616 21.622252
-101.68371 11.379131 20.960146
-101.68735 11.394567 20.637169
-101.68052 11.404545 20.309397
-101.66311 11.408994 19.977085
-101.64715 11.176996 21.927141
-101.60444 11.348751 17.238447
-101.60911 11.160138 18.400438
-101.63125 11.183424 18.122164
-101.63573 11.197754 17.833651
-101.63737 11.210535 17.546152
-101.62106 11.214177 17.249063
-101.61774 11.023118 18.404032
-101.63255 11.042641 18.120298
-101.6221 11.049502 17.820995
-101.63126 11.065968 17.539186
-101.59978 11.062098 17.231672
-101.60459 10.879224 18.387836
-101.62687 10.902247 18.109941
-101.63894 10.92014 17.827265
-101.63314 10.929115 17.534662
-101.59406 10.921549 17.221962
-101.60498 10.591072 22.206118
-101.59079 10.739424 18.368324
-101.62801 10.769485 18.101805
-101.61756 10.776202 17.802858
-101.61166 10.785001 17.510618
-101.59525 10.788526 17.214252
-101.61726 10.479157 21.861778
-101.57774 10.599976 18.347094
-101.61495 10.629737 18.080862
-101.61948 10.643603 17.793146
-101.58327 10.637624 17.479454
-101.60477 10.659448 17.210152
-101.58265 10.47641 18.041098
-101.60957 10.500931 17.770304
-101.58076 10.49861 17.462305
-101.6022 10.520272 17.193222
-101.58438 10.325248 18.311138
-101.59139 10.340356 18.023087
-101.59554 10.353975 17.736023
-101.56641 10.351652 17.4284
-101.57998 10.369499 17.154356
-101.63901 10.44213 16.086548
-101.48387 9.9569874 22.685646
-101.59541 10.202186 17.99448
-101.58417 10.208587 17.696703
-101.56793 10.223927 17.115778
-101.61704 10.25842 16.869114
-101.62521 10.273496 16.596687
-101.59963 10.272498 16.304745
-101.60239 10.284787 16.034372
-101.60347 10.328202 14.971845
-101.59344 10.333907 14.706235
-101.61301 10.353626 14.459939
-101.58195 10.349111 14.187227
-101.60497 10.37031 13.946788
-101.60958 10.382645 13.698071
-101.60986 10.412699 12.956296
-101.61373 10.424382 12.714591
-101.59258 10.462279 11.51273
-101.61736 10.483666 11.289476
-101.61491 10.491855 11.056035
-101.6274 10.507206 10.829967
-101.62946 10.517469 10.600965
-101.47744 9.8162518 22.640673
-101.59505 10.075655 17.673595
-101.61198 10.117949 16.835947
-101.59663 10.121988 16.548319
-101.58621 10.128206 16.267094
-101.57256 10.165111 15.18799
-101.57941 9.9681969 16.790401
-101.57146 9.9756975 16.508463
-101.57634 9.9890347 16.237864
-101.52802 10.196195 10.524198
-101.57352 10.586034 1.4203683
-101.52442 10.004238 11.899616
-101.53589 10.019108 11.669479
-101.52847 10.025054 11.432582
-101.53283 10.045785 10.97144
-101.53627 10.056662 10.743399
-101.52013 10.067396 10.282512
-101.54665 9.8617659 12.373147
-101.52877 9.8630934 12.126542
-101.53386 9.8750057 11.892239
-101.53687 9.8858976 11.658505
-101.52937 9.8918343 11.421772
-101.53362 9.9124842 10.960956
-101.53701 9.923317 10.733078
-101.5213 9.9251766 10.499183
-101.52071 9.9340429 10.272524
-101.52235 9.9529352 9.8239202
-101.51895 9.7832613 10.715637
-101.50844 9.8056793 10.033073
-101.5144 9.678277 10.027992
-101.50211 9.7080946 9.1364489
-101.50742 9.7193108 8.9189777
-101.4739 9.0312901 22.52017
-101.47384 8.9061537 22.51753
-101.48904 9.0776539 18.370491
-101.4824 9.1203918 17.213703
-101.46073 9.1757317 15.561687
-101.47202 8.7824106 22.515877
-101.51563 8.8146133 22.209879
-101.52079 8.8302851 21.872316
-101.48825 8.9530554 18.369719
-101.3969 8.6142244 22.792988
-101.47841 8.6622725 22.519592
-101.50118 8.6854305 22.19409
-101.5063 8.700964 21.856728
-101.47332 8.8225737 18.356394
-101.50469 8.8474798 18.08683
-101.49001 8.8747168 17.216904
-101.56963 9.1008301 12.35738
-101.56873 9.1280861 11.647847
-101.56135 9.1339169 11.411511
-101.54376 9.1530523 10.713974
-101.55395 9.1664324 10.490534
-101.39086 8.4883623 22.780579
-101.44462 8.524437 22.481039
-101.4882 8.5561266 22.17544
-101.50031 8.5744858 21.844711
-101.41025 8.6597004 18.598581
-101.47448 8.6984911 18.351561
-101.48305 8.7135038 18.065262
-101.4837 8.7361412 17.49017
-101.49125 8.7503595 17.212355
-101.51389 9.2219324 5.3211179
-101.48726 9.2656555 3.8805373
-101.39395 8.3630371 22.773336
-101.44775 8.3989201 22.47386
-101.47733 8.424633 22.155319
-101.49639 8.4458199 21.831224
-101.46212 8.5662661 18.333931
-101.49348 8.5908556 18.064653
-101.4838 8.5980015 17.768272
-101.48646 8.6102381 17.484104
-101.48623 8.621129 17.200981
-101.57671 9.1144009 5.5348625
-101.57958 9.1237173 5.3279185
-101.56265 9.1241875 5.1188059
-101.58035 9.1400843 4.9144206
-101.55097 9.1349611 4.7049785
-101.54719 9.1412411 4.4988894
-101.54175 9.1467695 4.2929888
-101.54377 9.1556234 4.0880055
-101.53505 9.1596556 3.8824434
-101.53379 9.1670256 3.6776559
-101.52179 9.1695652 3.4724953
-101.52638 9.1795464 3.2683311
-101.52023 9.1846991 3.0638247
-101.53069 9.1973181 2.8598232
-101.51217 9.1968937 2.6553051
-101.51025 9.2039423 2.4511487
-101.51583 9.2143707 2.2469177
-101.50156 9.2158422 2.0428431
-101.50388 9.2248087 1.8384788
-101.50457 9.2330446 1.6339841
-101.50363 9.2405491 1.4293746
-101.50106 9.2473211 1.2246658
-101.42422 8.2583942 22.440964
-101.45359 8.2839508 22.122757
-101.40923 8.4024763 18.580717
-101.47353 8.4408445 18.33391
-101.50494 8.4653893 18.064632
-101.48755 8.469408 17.762726
-101.48245 8.4784327 17.473177
-101.48991 8.4926014 17.195585
-101.57996 9.1395311 1.6317607
-101.59723 9.1552725 1.4257016
-101.5946 9.1621046 1.2202104
-101.58124 9.164113 1.0152309
-101.3661 8.0916777 22.727005
-101.44065 8.1356726 22.447691
-101.46309 8.1583605 22.122919
-101.47487 8.1765442 21.792727
-101.46597 8.1991243 21.117062
-101.46675 8.2122746 20.790785
-101.47124 8.2267742 20.472002
-101.48694 8.2457123 20.166641
-101.40362 8.2714729 18.569418
-101.46793 8.3096409 18.322754
-101.48399 8.3277531 18.042421
-101.48181 8.3381844 17.751863
-101.46889 8.3440228 17.457006
-101.49181 8.3646307 17.190401
-101.3588 7.9648137 22.714581
-101.4334 8.0085239 22.435402
-101.4699 8.0367737 22.123764
-101.48175 8.0549212 21.793571
-101.45927 8.0848064 20.779165
-101.45641 8.096282 20.454353
-101.47203 8.1151009 20.1492
-101.47701 8.1294422 19.83902
-101.39571 8.1438885 18.558773
-101.45244 8.1786861 18.30658
-101.4531 8.1903887 18.015261
-101.48927 8.2165613 17.752708
-101.45313 8.2128725 17.441486
-101.49156 8.239768 17.185865
-101.3569 7.8439775 22.70952
-101.4316 7.887394 22.430408
-101.45406 7.9098277 22.105833
-101.45874 7.9249797 21.769402
-101.47939 7.9720173 20.7932
-101.46939 7.9805694 20.462084
-101.48515 7.9993248 20.156862
-101.39413 8.0221119 18.554583
-101.45857 8.0597782 18.308136
-101.46697 8.0745668 18.022417
-101.47243 8.0880346 17.737677
-101.34795 7.7195401 22.696749
-101.4227 7.7626557 22.417765
-101.44514 7.7849488 22.093321
-101.45689 7.8028369 21.763458
-101.46754 7.8582129 20.456408
-101.47596 7.8739343 20.145157
-101.47361 7.8851976 19.829018
-101.39978 7.9027853 18.555067
-101.4338 7.9279242 18.285925
-101.44976 7.9456797 18.006096
-101.44742 7.9559259 17.716042
-101.4226 7.6374598 22.410721
-101.43796 7.6569109 22.07984
-101.44964 7.6747417 21.750111
-101.45766 7.690959 21.421579
-101.45482 7.702723 21.087986
-101.46281 7.7185826 20.768282
-101.45998 7.7300043 20.443605
-101.45359 7.7398434 20.120302
-101.39167 7.7746768 18.543112
-101.44096 7.8057947 18.28546
-101.44926 7.8204489 18.000029
-101.44688 7.8307056 17.710051
-101.41666 7.5097671 22.396284
-101.43901 7.5319176 22.072039
-101.45573 7.5777349 21.080389
-101.46079 7.6050377 20.436148
-101.39208 7.650032 18.536089
-101.43372 7.6779814 18.272833
-101.44965 7.6956549 17.993149
-101.44722 7.7059355 17.703243
-101.41403 7.3893566 22.388687
-101.42221 7.4059234 22.051502
-101.3892 7.5290799 18.529303
-101.42321 7.5538502 18.260443
-101.43138 7.5683799 17.975298
-101.44435 7.5846763 17.696665
-101.40018 7.2690268 22.377523
-101.40127 7.2827368 22.033966
-101.37524 7.4074373 18.519751
-101.41696 7.4349861 18.256706
-101.42518 7.4494071 17.971634
-101.38277 7.1487098 22.370571
-101.39812 7.1676836 22.04015
-101.3813 7.2947364 18.531649
-101.42324 7.3221297 18.268543
-101.42391 7.3335099 17.977795
-101.39989 7.0540981 22.053988
-101.36238 7.1722527 18.527462
-101.4044 7.1994429 18.264511
-101.42061 7.2166624 17.985117
-101.35259 7.0525937 18.527018
-101.41012 7.0854483 18.275507
-101.41101 7.0967436 17.984829
-101.36449 7.1005893 17.379574
-101.36225 6.9387264 18.533585
-101.39682 6.9627204 18.264963
-101.37453 6.9866481 17.385847
-101.3913 6.8437104 18.257652
-101.35323 6.861659 17.367828
-101.2821 6.5201044 22.639187
-101.39367 6.727335 18.255871
-101.29654 6.4093518 22.652988
-101.27083 6.2904415 22.63559
-101.26836 6.181953 22.634859
-101.40466 6.4820952 15.757497
-101.41666 6.5602655 13.712351
-101.27222 6.0695219 22.629715
-101.32704 6.1011367 22.331808
-101.38389 6.3585563 15.73721
-101.39107 6.3705897 15.477057
-101.37289 6.3826408 14.944899
-101.36392 6.3885708 14.68283
-101.37733 6.4025216 14.435721
-101.37163 6.4094644 14.180136
-101.37181 6.4184637 13.929995
-101.37801 6.429575 13.68509
-101.34796 6.4274192 13.423616
-101.37487 6.4459319 13.193192
-101.38258 6.4573898 12.95473
-101.37947 6.4648356 12.712811
-101.37407 6.4713755 12.4717
-101.34911 6.4706879 12.223577
-101.36512 6.4849315 11.995844
-101.37035 6.4951773 11.764748
-101.37346 6.504591 11.534232
-101.35694 6.5067358 11.297121
-101.36457 6.5177011 11.071515
-101.36136 6.5246248 10.842957
-101.35606 6.5307298 10.615069
-101.36643 6.5425658 10.394414
-101.35707 6.5470691 10.167763
-101.37241 6.5606585 9.9511633
-101.35903 6.5635858 9.725749
-101.3526 6.5690331 9.5040483
-101.37116 6.5837078 9.2915459
-101.41479 6.7131791 6.1281857
-101.42324 6.7237134 5.9232821
-101.42999 6.7335963 5.7184572
-101.27443 5.9487123 22.613018
-101.32915 5.9801402 22.315151
-101.33039 5.9929218 21.972229
-101.37943 6.2639804 14.934789
-101.35085 6.3337297 12.686386
-101.34522 6.3402262 12.445598
-101.35462 6.3521018 12.21348
-101.34087 6.3638654 11.739611
-101.34378 6.3732138 11.509418
-101.33581 6.3785472 11.276236
-101.34328 6.3894491 11.05087
-101.33989 6.3963428 10.822559
-101.32558 6.3991914 10.59157
-101.34465 6.4141908 10.374507
-101.33511 6.4186854 10.148108
-101.31461 6.419107 9.9193411
-101.31887 6.4285564 9.700552
-101.32121 6.4372597 9.4822073
-101.32162 6.4452186 9.2643251
-101.31111 6.4491177 9.0441561
-101.32577 6.4622431 8.8327103
-101.31144 6.4646554 8.6136465
-101.32243 6.4763641 8.4028387
-101.31341 6.4806604 8.1873875
-101.31165 6.4875989 7.9748592
-101.34612 6.7054133 2.2532978
-101.35082 6.7144141 2.0515945
-101.35388 6.7227945 1.849745
-101.36462 6.7341061 1.6474302
-101.36437 6.7412443 1.4452474
-101.37179 6.7513137 1.2424558
-101.37755 6.7607603 1.0394057
-101.28639 5.8284121 22.600504
-101.32675 5.8548217 22.289463
-101.3349 5.8700547 21.953156
-101.32338 5.9484191 19.667969
-101.33279 6.2885704 10.3548
-101.3409 6.2995577 10.134917
-101.32442 6.3095298 9.6873436
-101.33563 6.3215194 9.4719133
-101.32695 6.3262348 9.2510862
-101.32535 6.3334818 9.0336723
-101.32184 6.3399959 8.816761
-101.30719 6.3654537 7.9591999
-101.30347 6.3717113 7.7471695
-101.28631 5.7150269 22.574211
-101.33459 5.7565713 21.926767
-101.29993 5.913496 17.264118
-101.3356 6.187499 10.107267
-101.27455 5.6509032 22.482302
-101.31485 5.676909 22.171383
-101.30845 5.6870823 21.822227
-101.34155 5.7103677 21.513201
-101.342 5.7225032 21.179543
-101.34599 5.735673 20.853567
-101.34631 5.7474389 20.528891
-101.28803 5.8462467 17.175341
-101.24815 5.5297685 22.464228
-101.29559 5.5578723 22.160067
-101.29638 5.5703206 21.817533
-101.32956 5.59339 21.508572
-101.33736 5.6078486 21.181337
-101.33443 5.6300902 20.524454
-101.32366 5.637845 20.19503
-101.32876 5.6618457 19.570892
-101.31696 5.7214303 17.769226
-101.28445 5.7305636 17.177092
-101.2611 5.4156384 22.477598
-101.29439 5.4388905 22.160183
-101.28079 5.4465418 21.804659
-101.32848 5.4742389 21.508686
-101.33309 5.4992123 20.849176
-101.32607 5.5083623 20.518339
-101.33022 5.5210676 20.201296
-101.2815 5.5696812 18.326727
-101.3082 5.5889831 18.053284
-101.31633 5.6019497 17.769327
-101.32146 5.6137948 17.486364
-101.27592 5.6084461 17.171743
-101.31477 5.6314425 16.918177
-101.30292 5.6372194 16.633169
-101.30644 5.6671443 15.821479
-101.24289 5.2871866 22.452415
-101.29755 5.3172855 22.154865
-101.2911 5.327343 21.805838
-101.32156 5.3842449 20.50679
-101.32561 5.3969221 20.189816
-101.29278 5.4083314 19.535591
-101.30289 5.4648051 18.042303
-101.30307 5.4751148 17.752827
-101.32389 5.4921842 17.481043
-101.27825 5.4869823 17.166433
-101.31712 5.5098619 16.912857
-101.31325 5.5183716 16.63315
-101.31297 5.5375762 16.087456
-101.31676 5.5483518 15.821236
-101.29973 5.5613356 15.281756
-101.29148 5.594902 14.249025
-101.26728 5.1711688 22.467365
-101.2718 5.1849937 22.123707
-101.29404 5.2043571 21.800909
-101.31054 5.2905025 19.5427
-101.29419 5.3280888 18.322231
-101.2974 5.339551 18.031723
-101.30537 5.3524609 17.747908
-101.31824 5.366879 17.470604
-101.27246 5.3618288 17.15608
-101.30328 5.3819456 16.897198
-101.31537 5.3957877 16.628233
-101.29232 5.3978863 16.339214
-101.315 5.4150429 16.082541
-101.31059 5.4231129 15.811248
-101.31158 5.4328866 15.546029
-101.29337 5.4361644 15.271925
-101.31379 5.4522309 15.023339
-101.29844 5.4562736 14.756237
-101.2971 5.4649081 14.499718
-101.31003 5.4782372 14.25335
-101.29521 5.4821939 13.99401
-101.29476 5.4908848 13.74472
-101.27296 5.5681338 11.350347
-101.27408 5.0497231 22.473392
-101.27837 5.1996584 18.310186
-101.28934 5.2136521 18.025482
-101.31306 5.2316833 17.752916
-101.30221 5.2383504 17.458992
-101.28021 5.2412519 17.160946
-101.32715 5.266561 16.912729
-101.31044 5.299952 15.810675
-101.31145 5.3097506 15.545457
-101.30148 5.3158388 15.276276
-101.31366 5.3291416 15.022768
-101.29829 5.3332601 14.755668
-101.28858 5.3391509 14.494458
-101.30149 5.3524489 14.248167
-101.30354 5.3620758 13.997979
-101.28614 5.3651662 13.739696
-101.30028 5.3786545 13.500093
-101.295 5.3856149 13.252448
-101.29589 5.3945618 13.009927
-101.27719 5.3968987 12.759884
-101.28464 5.4163365 12.287066
-101.285 5.4248428 12.051666
-101.2744 5.4296079 11.813148
-101.27911 5.4394479 11.583005
-101.27286 5.4455533 11.349789
-101.26779 5.4681334 10.665128
-101.23809 4.9074874 22.800667
-101.2674 5.1179686 17.157763
-101.29878 5.3095322 12.061719
-101.28828 5.3143392 11.823038
-101.2843 5.32125 11.58899
-101.27863 5.3356547 11.126749
-101.27702 5.3431811 10.898439
-101.27329 5.3499532 10.670784
-101.25959 5.3612461 10.217523
-101.26466 5.3786292 9.7764015
-101.2597 5.3847456 9.5550957
-101.26183 5.3931947 9.337326
-101.25117 5.4049611 8.9004526
-101.25663 5.4144182 8.6868963
-101.25107 5.4201264 8.4711103
-101.25278 5.4282527 8.2583704
-101.21294 4.9335923 18.572887
-101.25976 4.8317986 18.618599
-101.25261 4.7102766 18.621958
-101.36306 5.2771506 3.3511379
-101.3685 5.2859697 3.1494746
-101.34383 5.2846756 2.9469492
-101.34593 5.2923627 2.7454383
-101.34636 5.299489 2.5438957
-101.34711 5.3206959 1.9390627
-101.32192 5.3191733 1.7379737
-101.32348 5.3266883 1.5362469
-101.3405 5.3464479 1.1314309
-101.36283 5.1829214 2.5437906
-102.08751 18.358929 11.579051
-102.0667 18.361414 11.227796
-102.10874 18.414364 4.1687465
-102.10591 18.430336 3.8404837
-102.08519 18.432081 3.5114322
-102.04659 18.419567 3.1821396
-102.06208 17.835505 0.86153609
-101.88485 16.364588 18.308777
-101.92619 16.051489 18.247427
-101.79155 14.922016 18.309137
-101.83282 14.612833 18.249937
-101.70559 13.498528 18.291559
-101.72427 13.151635 18.578808
-101.73718 13.179222 18.221039
-101.63527 12.387246 19.095354
-101.64719 11.764648 18.610394
-101.5535 9.5358381 4.3487692
-101.59112 9.5702543 4.0615191
-101.40786 8.4708796 18.262295
-101.43071 8.1771469 18.229773
-101.46461 7.8919754 18.208725
-102.09002 18.138157 14.29085
-102.07906 18.142586 14.001433
-102.0656 18.145475 13.713057
-102.07373 18.160872 13.436895
-102.05541 18.160769 13.15044
-102.0508 18.168581 12.872216
-102.04385 18.174963 12.594818
-102.03929 18.192991 12.049221
-102.03715 18.185251 9.6715727
-102.02881 18.190125 9.4114895
-102.12136 18.194529 8.1565571
-102.10946 18.197134 7.9011731
-102.11594 18.225323 4.6741638
-102.09662 18.232519 4.1830983
-102.07988 18.23192 3.9377041
-102.0785 18.240364 3.6936977
-102.04947 18.232473 3.4485378
-102.04441 18.238726 3.2049494
-102.07195 18.264248 2.9623995
-102.02881 18.247967 2.7181098
-102.04347 18.10816 1.5011107
-102.07082 18.036692 1.2584999
-102.11744 17.967251 1.2562786
-101.94954 16.001413 18.817778
-101.93195 15.89834 18.804018
-101.86182 14.33178 18.82036
-101.854 14.231404 18.803431
-101.84474 14.130748 18.788876
-101.82936 14.016091 19.093657
-101.69988 11.699291 18.837517
-101.69862 11.60609 18.834036
-101.63365 10.963301 18.804852
-101.62247 10.878525 18.808392
-101.62112 10.796486 18.814928
-101.61567 10.710172 18.811562
-101.62654 10.630085 18.81691
-101.60326 10.540607 18.80344
-101.61638 10.470521 18.819193
-101.60776 10.259517 4.8243384
-101.61564 10.269904 4.5938916
-101.54758 10.179792 4.5850081
-101.63517 10.070483 5.0540328
-101.64014 10.094855 4.3598485
-101.64503 10.035475 4.3634019
-101.63493 9.9496918 5.0614042
-101.64406 9.9162598 4.3699341
-101.51882 9.6886826 4.5943017
-101.5224 9.6332445 4.596889
-101.51691 9.5749397 4.5960779
-101.50569 9.3451805 4.5775614
-101.5045 8.8013763 18.890356
-101.60591 9.3170347 4.8088045
-101.60433 9.3243647 4.576808
-101.50336 8.7442093 18.882641
-101.49008 8.6857748 18.873808
-101.47506 8.6283588 18.867537
-101.47675 8.5762644 18.871256
-101.4688 8.5223227 18.870573
-101.46522 8.4736118 18.879656
-101.47487 8.4324389 18.902838
-101.46162 8.3827133 18.907455
-101.46009 8.3332911 18.913752
-101.45261 8.279048 18.912846
-101.46838 8.2328701 18.928196
-101.44354 8.1760921 18.916815
-101.48959 8.1451578 18.954706
-101.48581 8.1001015 18.961201
-101.49009 8.0596857 18.97278
-101.46616 7.7345395 18.835012
-101.45763 7.7007155 18.844688
-101.45193 7.6639571 18.850645
-101.42049 7.1353574 18.879015
-101.41118 7.0947123 18.873854
-101.40726 7.0593834 18.877329
-101.39993 7.0261712 18.885159
-101.36657 6.9567337 18.891918
-101.36881 6.9276767 18.901993
-101.39003 6.8813796 18.945951
-101.4192 6.9006329 18.644487
-101.41589 6.8761406 18.660521
-101.41653 6.8344865 18.6954
-101.39462 6.7328882 19.058294
-101.40053 6.7443619 18.739891
-101.39672 6.6996622 18.764761
-101.38494 6.6693482 18.758978
-101.39332 6.6416063 18.75827
-101.39376 6.610383 18.753134
-101.3896 6.5811782 18.754301
