# .PCD v0.7 - Point Cloud Data file format
VERSION 0.7
FIELDS x y z
SIZE 4 4 4
TYPE F F F
COUNT 1 1 1
WIDTH 447
HEIGHT 1
VIEWPOINT 0 0 0 1 0 0 0
POINTS 447
DATA ascii
-84.191109 56.710415 10.058212
-84.046043 56.577965 6.4076176
-99.393532 20.437346 18.311476
-99.47319 20.214552 18.258127
-99.541855 19.9774 18.193905
-99.696579 19.546576 17.738806
-99.710167 19.582893 17.406517
-99.703705 19.596146 17.062256
-99.677002 19.586077 16.70677
-99.708176 19.642122 16.393063
-99.668701 19.345827 15.284953
-99.660912 19.356581 14.956495
-99.651047 19.364838 14.628996
-99.645279 19.377634 14.306021
-99.643684 19.39506 13.987356
-99.652534 19.424278 13.676157
-99.653252 19.444139 13.362096
-99.658287 19.468826 13.051858
-99.220116 19.530247 3.5471773
-99.169456 19.590519 1.5697548
-99.623581 19.177675 12.038557
-99.620766 19.192846 11.732742
-99.597031 19.184225 11.419157
-99.59684 19.202188 11.117518
-99.601219 19.225262 10.818982
-99.603813 19.246248 10.520785
-99.59182 19.250595 10.218048
-99.571609 19.245495 9.9136715
-99.581688 19.274796 9.6216326
-99.531914 19.037094 7.5274363
-99.393196 18.897421 2.134341
-99.348495 18.879696 1.5754294
-100.22119 18.119801 16.14035
-100.12982 18.132036 14.157578
-100.11549 18.134558 13.835912
-100.09905 18.13471 13.515309
-100.09988 18.153179 13.205683
-100.0858 18.155619 12.890264
-100.06969 18.155771 12.575832
-100.05805 18.16061 12.265465
-100.01132 18.16185 11.339757
-99.99015 18.172905 10.735278
-99.884209 18.191069 8.3656826
-99.686684 18.078251 1.3281362
-99.687576 18.09477 1.0505791
-100.58016 17.499939 18.49966
-102.21729 13.59422 18.035326
-102.23611 13.362274 17.630648
-102.2183 13.380342 16.958248
-102.24063 13.414303 16.645212
-102.22153 13.260402 14.041767
-102.60509 12.977612 20.852943
-102.21113 13.026012 13.370792
-102.68246 12.766496 21.193417
-102.44161 12.674421 13.987265
-102.42731 12.678243 13.675959
-102.71068 12.028061 16.174179
-102.72105 12.051067 15.861008
-102.69221 12.044877 15.528359
-102.71229 12.074875 15.224913
-102.72263 12.097555 14.918028
-102.71574 12.107331 14.604181
-102.72129 12.12626 14.298737
-102.67966 12.109937 13.972187
-102.67289 12.119469 13.665075
-102.67876 12.138355 13.365808
-102.70921 11.913846 13.337061
-102.69022 11.942401 12.435559
-102.93507 11.686964 16.517323
-105.60622 5.1590791 16.460947
-105.60744 5.1730719 16.139118
-105.59739 5.1818814 15.814156
-105.58434 5.1892266 15.490367
-105.53584 5.2063737 14.530167
-105.50462 5.2430263 13.297626
-105.45693 5.2585487 12.385444
-105.28993 5.3131814 9.1841488
-105.21845 5.3489704 7.5161595
-105.00987 5.4186001 3.4835777
-105.66594 4.9764624 16.475149
-105.6508 4.9830623 16.144848
-105.65756 4.9992805 15.828195
-105.63636 5.0029612 15.500283
-105.60372 5.00143 15.169778
-105.60167 5.0134177 14.856343
-105.59679 5.0240493 14.543859
-105.97025 4.719161 21.119043
-105.9834 4.7397981 20.761412
-105.69063 4.8069839 15.830776
-105.68629 4.8180485 15.511096
-105.67902 4.8277259 15.19246
-105.66039 4.8323131 14.871019
-105.6388 4.8354926 14.55085
-105.64825 4.8522377 14.246861
-105.66354 4.8714771 13.947197
-105.66764 4.8857155 13.644528
-105.62619 4.8797545 13.325225
-106.01344 4.5295048 21.118544
-106.05033 4.560008 20.776587
-106.03654 4.5688381 20.404531
-106.01899 4.575912 20.034067
-105.83418 4.6345005 16.524925
-105.85293 4.655683 16.210783
-105.79355 4.6430573 15.860204
-105.80632 4.6614561 15.548127
-105.79099 4.6676164 15.224886
-105.77267 4.6723762 14.90288
-105.75987 4.6794209 14.585942
-105.76121 4.6925011 14.277586
-105.74269 4.6968784 13.962795
-105.73149 4.7165866 13.350755
-106.16753 4.340054 22.31077
-106.08357 4.2544866 18.254906
-106.19323 4.0713859 18.619427
-84.322006 56.912849 16.974434
-84.168015 56.957043 13.223311
-84.423782 56.87661 16.975599
-84.37014 56.864304 15.81827
-84.300476 56.849541 14.309137
-84.065445 56.859619 8.9242105
-84.04541 56.838554 8.5723953
-84.033325 56.853016 8.2272863
-84.012032 56.825787 7.8769932
-84.005112 56.863262 7.5365925
-84.191849 56.752464 9.9667206
-84.138741 56.792706 8.5745564
-84.085129 56.593216 6.1398611
-84.745895 56.062305 19.079252
-84.56382 56.238884 14.176639
-84.838913 56.050453 19.101412
-98.822502 22.035206 19.101315
-98.808548 21.809059 19.010071
-98.879639 21.89452 18.772099
-98.939919 21.740892 18.758419
-98.973167 21.565176 18.723549
-99.011078 21.398752 18.691319
-99.056114 21.238136 18.66226
-99.115204 21.086868 18.643126
-98.964226 21.159937 14.336983
-99.151443 20.911484 18.600676
-98.999405 20.997494 14.045599
-99.102356 20.66987 14.265913
-99.0849 20.666964 13.996665
-98.949234 20.145559 1.7336237
-98.931557 20.140175 1.5234044
-98.927284 20.147026 1.3125334
-98.923592 19.923063 1.7420868
-100.24491 18.174572 17.833323
-100.24039 18.209309 16.965843
-100.23174 18.215038 16.677122
-100.22747 18.224073 16.394554
-100.21399 18.225763 16.108128
-100.10973 18.226379 14.174479
-100.11317 18.240467 13.919658
-100.08549 18.241096 13.395604
-100.09005 18.255796 13.147325
-100.08549 18.263218 12.895687
-100.07176 18.263296 12.640959
-100.06329 18.267448 12.391028
-100.05289 18.269993 12.14195
-100.04057 18.270933 11.893747
-100.04099 18.281897 11.653584
-100.03226 18.285534 11.410531
-100.01433 18.281788 11.164856
-100.00191 18.282345 10.923477
-100.00249 18.293167 10.689412
-99.979073 18.284828 10.446394
-99.968712 18.28681 10.210569
-99.956596 18.287336 9.9754772
-99.942757 18.286417 9.7411394
-99.934685 18.290041 9.5104027
-99.932449 18.298271 9.2830381
-99.951157 18.323206 9.0641298
-99.923065 18.310667 8.8297729
-99.908371 18.308788 8.6014233
-99.88446 18.299467 8.371377
-99.889244 18.313087 8.1515131
-99.862068 18.301041 7.922946
-99.84848 18.299837 7.6996193
-99.863823 18.321827 7.4851723
-99.839485 18.311907 7.2607789
-99.844154 18.325268 7.0447893
-99.816689 18.312737 6.8217249
-99.818336 18.323597 6.6064148
-99.810806 18.327045 6.3896627
-99.801788 18.329254 6.173295
-99.791267 18.330223 5.9573288
-99.76384 18.317516 5.7390246
-99.765755 18.328466 5.5266695
-99.750778 18.325747 5.3120112
-99.757507 18.340551 5.1011791
-99.747337 18.341673 4.8882508
-99.735718 18.341595 4.6756525
-99.745865 18.359138 4.4659767
-99.70813 18.337851 4.2515149
-99.707664 18.346762 4.0413766
-99.713524 18.3608 3.8318844
-99.683998 18.373861 2.9917362
-99.663864 18.223198 1.7374744
-99.685226 18.249697 1.5272558
-99.658569 18.237309 1.319098
-100.54295 17.59194 19.072065
-100.60563 17.652262 18.820019
-101.53411 15.29065 19.222187
-101.78097 15.136897 22.725855
-101.88018 14.122405 16.574085
-101.74859 14.010728 9.886035
-101.74986 14.030855 9.4252005
-101.74774 14.039211 9.1954794
-101.74132 13.878153 9.1846867
-101.73988 13.896309 8.7300863
-101.74065 13.906208 8.5046577
-101.7369 13.922751 8.0549631
-101.73239 13.929402 7.8307347
-101.55184 13.845857 3.4739435
-101.93839 12.919559 5.1946168
-101.93513 12.935708 4.764256
-101.91364 12.932634 4.5475693
-101.89919 12.933477 4.332202
-101.89178 12.938256 4.1179099
-102.41714 12.648219 14.489045
-102.41704 12.659189 14.225326
-102.43477 12.559381 13.196567
-102.07352 12.586232 4.1510601
-102.41718 12.187979 7.4989223
-102.41364 12.093427 6.1730514
-102.42381 11.815917 5.963305
-102.42038 11.823118 5.7437959
-102.41523 11.829408 5.5245514
-105.21864 5.3987374 10.367129
-104.85991 5.5525985 2.5733666
-105.1319 5.1680074 4.6717997
-105.92208 4.7021713 21.356804
-105.90184 4.7086539 20.99127
-105.90972 4.7227373 20.64953
-105.86538 4.7222676 20.276407
-105.70804 4.7891874 16.952024
-105.36464 4.9551983 9.1072283
-106.0532 4.580606 22.553183
-84.359581 56.932766 17.158398
-83.936646 57.004868 6.6769247
-83.911736 56.988354 6.1645546
-83.87545 56.918633 5.6497855
-84.661125 56.452667 18.159855
-99.108185 21.124916 18.492361
-99.481087 20.102997 18.032394
-99.600479 19.885963 17.660778
-99.608887 19.913717 17.297855
-99.559837 19.889435 16.905161
-99.583542 19.93074 16.555645
-99.556023 19.635429 15.047094
-99.539146 19.639271 14.689178
-99.54084 19.659657 14.342169
-99.518944 19.65876 13.986376
-99.501617 19.66184 13.634899
-99.545662 19.720009 13.311509
-99.530693 19.725021 12.964436
-99.514969 19.747557 12.281555
-99.525436 19.42445 11.89782
-99.507957 19.426798 11.558596
-99.502609 19.439867 11.225318
-99.480515 19.437914 10.887863
-99.477867 19.453249 10.558402
-99.480278 19.47303 10.231716
-99.480499 19.490801 9.9054213
-99.478539 19.506567 9.5795441
-99.474411 19.52033 9.2541103
-99.446198 19.512434 8.9234457
-99.445038 19.528738 8.6010532
-99.44175 19.543083 8.2790136
-99.18306 19.631348 2.2632592
-99.394539 19.233074 6.6545744
-99.385925 19.242319 6.3381338
-99.397491 19.26951 6.0254331
-99.414444 19.301491 5.7136374
-99.39222 19.298521 5.39679
-99.390221 19.313562 5.0831494
-99.393608 19.333403 4.7703991
-99.365219 19.324812 4.4548388
-99.342209 19.320999 4.1405649
-99.235931 19.325975 2.2677498
-99.185295 19.330496 1.3354946
-99.194099 19.355133 1.0240934
-99.200867 19.377958 0.71224147
-99.775948 18.540625 6.0042696
-99.762985 18.546478 5.6891079
-101.88072 14.308935 18.19268
-102.02279 13.23278 7.8884225
-102.61575 12.517465 15.902713
-102.58665 12.536183 15.191772
-102.70419 12.255781 15.545334
-102.67739 12.27562 14.840425
-102.59244 12.31234 13.110917
-102.72727 12.008029 14.134288
-105.7821 5.2417831 21.085846
-105.49957 5.3453684 16.408464
-105.50636 5.3643188 16.052687
-105.49244 5.3754444 15.690598
-105.48396 5.388483 15.333253
-105.45461 5.393621 14.970155
-105.47488 5.4171939 14.628597
-104.89299 5.6831203 3.8407884
-104.90226 5.7008152 3.533392
-105.84803 4.9344335 21.089893
-105.85604 4.9555483 20.697456
-105.86023 4.9751449 20.306217
-105.8522 4.9902105 19.911751
-105.59243 5.0511069 16.423807
-105.59946 5.0701656 16.067795
-105.59447 5.0847478 15.709059
-105.57739 5.0948143 15.34788
-105.5923 5.1164365 15.001683
-105.57756 5.1271381 14.64609
-105.54183 5.1300502 14.285136
-105.5473 5.1479344 13.941626
-105.54079 5.1613417 13.595757
-105.5312 5.1735253 13.250824
-84.32859 56.598385 10.963487
-84.136559 56.439419 6.7977314
-99.405441 20.549173 18.667208
-99.428268 20.46752 18.656681
-99.450043 20.386545 18.646677
-99.442917 20.284622 18.618229
-99.476303 20.211271 18.622898
-99.486969 20.125534 18.612011
-99.504356 20.044024 18.607388
-99.711678 19.712183 18.371307
-99.718185 19.625696 18.364939
-99.764069 19.668682 18.093014
-99.70752 19.524303 18.337664
-99.760406 19.571789 18.071323
-99.768318 19.589096 17.77413
-99.733116 19.589151 17.152588
-99.758347 19.474234 18.048023
-99.766113 19.491423 17.751129
-99.744972 19.500978 17.140173
-99.21666 19.651896 4.077055
-99.126335 19.659414 2.3034585
-99.728371 19.393154 17.107588
-99.22541 19.56315 4.073101
-99.204132 19.610048 2.5221064
-99.12661 19.56517 2.3009207
-99.146172 19.587486 2.080142
-99.225952 19.468552 4.0670829
-99.196342 19.509596 2.5178397
-99.14653 19.492775 2.0764828
-99.180161 19.40354 2.5113187
-99.37558 19.293812 3.8289936
-99.368408 19.192179 3.8179462
-99.402809 19.118078 3.8082931
-99.650444 18.933109 7.6648784
-99.630188 18.864595 6.7383943
-99.624275 18.869951 6.5091705
-99.396118 18.92697 1.3586192
-99.358948 18.836782 1.3636827
-99.372009 18.854342 1.1413015
-100.26216 18.191742 18.099104
-100.24872 18.195723 17.785324
-100.27647 18.224895 17.503214
-100.23527 18.211548 17.176828
-100.2949 18.260141 16.920925
-100.24803 18.243042 16.597301
-100.23557 18.247015 16.299376
-100.243 18.263149 16.016699
-100.21773 18.258987 15.716458
-100.11459 18.28306 13.468891
-100.10546 18.287992 13.200372
-100.11763 18.306103 12.944195
-100.11983 18.317936 12.684779
-100.08037 18.30372 12.407835
-100.05439 18.297815 12.139512
-100.06592 18.315254 11.889777
-100.05151 18.316427 11.630277
-100.03497 18.316191 11.371707
-100.01631 18.314552 11.114093
-100.01967 18.326641 10.866901
-99.980736 18.312159 10.604897
-99.996239 18.331749 10.36512
-99.95314 18.314499 10.10528
-99.964775 18.331566 9.8665476
-99.941986 18.326946 9.617156
-99.925369 18.326145 9.3713655
-99.947708 18.349819 9.1391935
-99.910904 18.336203 8.8896637
-99.913177 18.347157 8.6532888
-99.897179 18.346544 8.4126616
-99.871063 18.339495 8.1705351
-99.867836 18.346851 7.9357376
-99.862816 18.353039 7.701364
-99.847717 18.352816 7.465467
-99.814224 18.340897 7.2264395
-99.820427 18.354084 6.9973898
-99.79995 18.35033 6.7633672
-99.794365 18.355978 6.5332861
-99.79538 18.365797 6.30511
-99.761292 18.353287 6.0713396
-99.767227 18.366179 5.8453197
-99.754753 18.36734 5.616818
-99.732193 18.362055 5.3875647
-99.66375 18.297667 1.1385305
-100.61908 17.648312 18.851473
-99.894501 17.607107 0.88775998
-99.906219 17.521397 0.88756776
-101.88524 14.440252 18.847055
-102.1864 14.158101 22.804213
-102.18336 14.059794 22.795637
-102.47158 13.159082 21.443443
-102.44569 13.16042 21.075085
-102.43559 13.180679 20.382853
-102.6187 13.03336 21.544479
-102.62191 12.938718 21.537651
-102.45512 12.8175 15.094738
-102.43591 12.819843 14.798409
-102.4139 12.82089 14.503348
-102.41438 12.831444 14.221629
-102.68687 12.375468 16.976278
-102.68703 12.281584 16.973057
-102.68602 12.187731 16.970192
-102.70945 12.208282 16.67979
-102.73015 12.227645 16.389992
-102.73157 12.239093 16.091846
-102.73015 12.249291 15.794676
-102.7337 12.12282 16.691025
-102.73803 12.135538 16.391935
-102.73949 12.147008 16.09379
-102.72979 12.153868 15.792208
-102.71719 12.159455 15.491788
-102.72686 12.173977 15.205333
-102.64531 11.861552 12.643254
-102.71781 11.769197 13.501663
-102.87592 11.722225 14.138104
-102.59704 11.766837 9.7472906
-102.88655 11.629691 14.43379
-102.87795 11.636535 14.145535
-102.87063 11.663821 13.301833
-102.87961 11.58238 13.314843
-102.85521 11.487593 13.310568
-102.79517 11.442803 9.0603352
-102.79798 11.360657 9.0630417
-102.76725 11.3578 8.8020458
-102.79063 11.314032 8.0592623
-102.65202 11.311238 4.3798018
-102.7541 11.016633 5.3901072
-102.70081 11.020924 4.6588383
-102.68835 11.024331 4.4168563
-102.71819 10.95557 4.6684856
-102.71516 10.962498 4.4270949
