# .PCD v0.7 - Point Cloud Data file format
VERSION 0.7
FIELDS x y z
SIZE 4 4 4
TYPE F F F
COUNT 1 1 1
WIDTH 1558
HEIGHT 1
VIEWPOINT 0 0 0 1 0 0 0
POINTS 1558
DATA ascii
-102.33643 17.849239 17.859226
-102.37951 17.910088 17.536276
-102.36144 17.911692 17.176302
-102.32764 17.897896 16.809664
-102.35137 17.958372 16.139656
-102.32991 17.956091 15.788521
-102.31929 17.964201 15.446167
-102.3063 17.96987 15.104896
-102.31106 17.992676 14.775366
-102.13574 18.014463 11.169065
-102.12806 18.023935 10.855509
-102.11834 18.031326 10.542629
-102.09967 18.029833 10.228076
-102.08588 18.03307 9.9167128
-102.07009 18.03425 9.6061068
-102.05926 18.040239 9.2984047
-102.01857 18.016726 8.9831944
-102.41852 17.393436 22.260492
-102.49777 17.489561 21.938065
-102.50581 17.518185 21.55962
-102.40648 17.604408 18.176407
-101.82508 17.949314 1.2958491
-101.81887 17.959028 1.0048307
-102.42056 17.105835 22.15893
-102.43797 16.838533 22.071859
-102.23519 14.190228 22.227016
-102.23687 13.934402 22.146526
-102.18819 14.087872 18.173082
-102.24125 13.681691 22.057978
-102.25359 13.763813 20.592733
-102.25581 13.783216 20.234566
-102.24861 13.429137 21.963886
-102.13047 12.027753 22.147078
-102.02631 12.137795 18.198898
-102.11211 11.772411 22.057014
-102.13187 11.891953 19.91448
-102.05927 11.919921 18.160673
-102.04999 10.992756 22.154661
-101.93157 11.090122 18.226444
-102.05325 10.761557 22.082579
-101.97346 10.885869 18.193869
-101.9998 10.670423 18.152189
-101.99741 9.7915831 22.108717
-101.86139 9.8736887 18.203753
-101.91577 9.6877375 18.18561
-101.80112 9.7514277 15.000315
-101.51973 10.021329 4.6780276
-101.41014 9.9558544 4.415091
-101.51083 10.037915 4.1741438
-101.92535 9.4708576 18.140505
-101.41497 9.7323399 4.4103861
-101.46698 9.7796316 4.1658006
-101.71825 9.2480125 14.868074
-101.44367 9.5253315 4.4042311
-101.70484 9.0302687 14.519943
-101.49057 9.3219652 4.6464744
-101.39629 9.2692337 4.3882475
-101.92744 8.6201839 22.06912
-101.82455 8.7215872 18.218987
-101.47184 9.0970869 4.3826694
-101.87355 8.5265236 18.187824
-101.87051 8.2984028 18.121258
-101.87571 7.8943868 22.155096
-101.86192 7.6676326 22.078592
-101.74266 7.5553732 18.197714
-101.76449 7.3638229 18.173923
-101.77382 7.1674066 18.150244
-101.77905 6.9715695 18.130524
-101.64448 6.0977826 18.223764
-101.66358 5.9089217 18.189997
-101.68426 5.7224646 18.150734
-101.72089 5.5458441 18.118324
-101.57872 4.8846307 18.191725
-101.64688 4.73703 18.19784
-101.8597 18.194994 2.1253228
-101.79589 18.157789 1.8998636
-101.81981 17.725466 3.5014431
-101.81391 17.731174 3.2762702
-101.88361 17.812063 2.6024101
-101.87364 17.824871 2.1510217
-101.88241 17.841337 1.9249816
-101.88152 17.85074 1.6988987
-101.80645 17.805836 1.4759096
-101.89085 17.571373 3.96082
-101.89635 17.585266 3.7359121
-101.85163 17.562939 3.5083203
-101.87896 17.602489 3.0598783
-101.89429 17.623486 2.8352654
-101.89182 17.631622 2.6101072
-101.88776 17.638609 2.384933
-101.87485 17.649118 1.934605
-101.83939 17.643274 1.4851272
-102.36868 16.966852 21.496044
-101.91202 17.301081 6.4490199
-101.89877 17.341679 5.3098359
-101.9058 17.35663 5.084589
-101.895 17.358881 4.8574061
-101.89882 17.371517 4.6322875
-101.89291 17.377214 4.4063945
-101.90163 17.393335 4.1820793
-101.90063 17.402521 3.9570236
-101.87366 17.393139 3.7304714
-101.88572 17.411631 3.5066657
-101.89619 17.428991 3.2826016
-101.88067 17.427763 3.0575278
-101.87169 17.431202 2.8329213
-101.86925 17.439318 2.6085377
-101.85709 17.440466 2.3841438
-101.86771 17.457958 2.159647
-101.86861 17.468483 1.9349995
-101.85167 17.4662 1.7107474
-101.84937 17.47444 1.4860133
-101.91351 17.154034 6.6650419
-101.88191 17.141748 6.4303203
-101.88095 17.150948 6.2023802
-101.87835 17.158964 5.9746675
-101.87409 17.165802 5.7472005
-101.89255 17.188608 5.5236311
-101.89317 17.198843 5.2975736
-101.85964 17.184992 5.0674896
-101.87326 17.204359 4.8439503
-101.86901 17.211107 4.6184955
-101.87128 17.222456 4.3939962
-101.83937 17.209625 4.1667562
-101.84658 17.224436 3.943269
-101.84405 17.232346 3.7191474
-101.85622 17.250669 3.4959576
-101.82603 17.238976 3.2707984
-101.83501 17.255035 3.0475452
-101.83426 17.264189 2.8238997
-101.8319 17.272209 2.6002214
-101.8198 17.273306 2.376534
-101.83871 17.29645 2.152647
-101.81528 17.289484 1.9291604
-101.80656 17.292978 1.7055213
-101.81253 17.306938 1.4812239
-101.80875 17.313969 1.25709
-101.8115 17.325665 1.0323386
-101.7639 17.301426 0.81104261
-101.8983 16.931791 7.3391547
-101.88612 16.952997 6.6494737
-101.8868 16.96331 6.4218407
-101.87771 16.966799 6.1929469
-101.86268 16.975874 5.7376776
-101.85676 16.981487 5.5111661
-101.86549 16.997313 5.2871861
-101.87263 17.012009 5.063159
-101.86183 17.014164 4.8371992
-101.8739 17.032295 4.6141682
-101.85171 17.026436 4.3878574
-101.84422 17.030857 4.1634722
-101.85149 17.045599 3.9405067
-101.8408 17.04775 3.7163908
-101.84486 17.060246 3.4933813
-101.84734 17.071621 3.270288
-101.84821 17.081877 3.0471282
-101.83115 17.079506 2.8235826
-101.83701 17.093269 2.6005952
-101.82494 17.094398 2.3774309
-101.81944 17.100163 2.1543484
-101.81236 17.104803 1.9312842
-101.82001 17.11985 1.7077191
-101.80157 17.116484 1.4849232
-101.80602 17.12929 1.2610437
-101.80071 17.135204 1.0374315
-101.7938 17.139996 0.81374842
-102.18392 16.670847 13.798242
-102.16895 16.67215 13.5262
-102.15936 16.676979 13.259131
-102.14755 16.680237 12.993001
-102.13358 16.681927 12.727837
-102.12513 16.687279 12.467321
-102.12231 16.696365 12.21124
-102.11744 16.703991 11.955875
-102.11831 16.715443 11.704667
-102.0782 16.698992 11.437407
-102.09848 16.723492 11.197583
-102.07771 16.720026 10.942085
-102.0785 16.731163 10.696839
-101.92605 16.848284 5.5164776
-101.91756 16.86183 5.0650105
-101.91073 16.876467 4.6153302
-101.90489 16.882078 4.390749
-101.89744 16.886557 4.1663632
-101.8859 16.89781 3.7187662
-101.85388 16.933193 2.3803446
-101.84023 16.933271 2.1576169
-101.83273 16.94726 1.7119544
-101.81431 16.943991 1.4895933
-101.80541 16.957027 1.0435034
-101.87483 16.437122 5.9413471
-102.18045 14.950791 17.171495
-102.21507 14.802444 17.167477
-101.95549 14.304649 13.403486
-101.96626 14.354189 12.400192
-101.90867 14.371671 11.151836
-101.8688 14.269341 9.2437935
-101.78593 14.248333 8.5334778
-101.85992 14.302619 8.3282804
-101.78236 14.265269 8.0814123
-101.7696 14.267033 7.8538275
-101.76342 14.272745 7.6289315
-101.75551 14.277366 7.40449
-101.78783 14.306356 7.1900773
-101.76811 14.303758 6.9643474
-101.7719 14.315397 6.7445173
-101.79088 14.336247 6.5281787
-101.81667 14.361237 6.3132653
-101.82395 14.374963 6.0950913
-101.73192 14.114517 7.1715508
-101.73271 14.133484 6.7313538
-101.71793 14.133774 6.509172
-101.7268 14.148303 6.2922421
-101.7171 14.151607 6.0723958
-101.72268 14.16411 5.8557515
-101.71815 14.170485 5.6378803
-101.71196 14.17584 5.4202809
-101.70414 14.180181 5.202971
-101.7287 14.20412 4.9901662
-101.70911 14.201303 4.7721758
-101.71344 14.212964 4.5573277
-101.71616 14.223641 4.3424888
-101.71726 14.233336 4.127676
-101.7253 14.247235 3.9135208
-101.74026 14.265352 3.6997786
-101.73498 13.949509 7.3876066
-101.72527 13.952965 7.1645765
-101.71385 13.955355 6.942039
-101.72607 13.971827 6.7252374
-101.69472 13.971368 6.2822771
-101.70195 13.984792 6.0660858
-101.70754 13.997223 5.8499603
-101.6945 13.998468 5.6312966
-101.6883 14.003793 5.4143023
-101.71454 14.02856 5.2021475
-101.68804 14.021664 4.9833016
-101.69401 14.034244 4.7689819
-101.69837 14.045849 4.5546556
-101.69258 14.051341 4.3395486
-101.68517 14.055846 4.1246414
-101.67616 14.059366 3.909951
-101.6741 14.06706 3.6960227
-101.67043 14.073783 3.4821701
-101.66515 14.079533 3.2684093
-101.66684 14.089481 3.0550241
-101.66694 14.098466 2.8415892
-101.66544 14.106486 2.6281207
-101.6709 14.118722 2.4146409
-101.65765 14.119631 2.2011476
-101.66846 14.135124 1.987339
-101.66913 14.144471 1.7734685
-101.6511 14.142476 1.5601567
-101.71975 13.783691 7.3753371
-101.71842 13.792114 7.1547332
-101.7154 13.799501 6.9344516
-101.71275 13.816207 6.4965835
-101.71317 13.825549 6.2788606
-101.6949 13.823795 6.0583925
-101.68346 13.826054 5.8399057
-101.71297 13.852608 5.6283984
-101.68971 13.847801 5.4091301
-101.68185 13.852121 5.1927724
-101.68945 13.865619 4.9788227
-101.67833 13.867963 4.7629228
-101.67413 13.874413 4.5482407
-101.67689 13.884994 4.3345323
-101.66947 13.889496 4.1201477
-101.66045 13.893022 3.9059796
-101.66695 13.905821 3.6931031
-101.6323 13.902887 3.2652977
-101.65974 13.928214 3.0534124
-101.64272 13.926901 2.8400533
-101.64982 13.940053 2.6272883
-101.63818 13.941958 2.41432
-101.64209 13.953202 2.2013624
-101.63583 13.958341 1.988414
-101.62798 13.962522 1.7754971
-101.6271 13.970899 1.5622847
-101.64173 13.988631 1.3481016
-101.72179 13.619117 7.5833178
-101.71225 13.631919 7.1405768
-101.70915 13.639248 6.9207234
-101.69585 13.640571 6.6994734
-101.6982 13.660102 6.264853
-101.68835 13.663359 6.0463872
-101.6683 13.66058 5.8269391
-101.68073 13.676892 5.6133261
-101.683 13.687208 5.3984199
-101.69219 13.701597 5.1847668
-101.69122 13.709973 4.9700265
-101.68004 13.712317 4.7544756
-101.66723 13.713674 4.5392661
-101.66138 13.719122 4.3252034
-101.67966 13.738842 4.1134443
-101.66201 13.737285 3.8989251
-101.66852 13.750023 3.6863947
-101.58219 13.716554 3.2571774
-101.66985 13.777451 3.0480149
-101.64417 13.77107 2.8347423
-101.65129 13.784165 2.622324
-101.64821 13.791204 2.4097104
-101.65213 13.802411 2.1970129
-101.63727 13.802433 1.9844977
-101.64658 13.816863 1.7714151
-101.64569 13.825227 1.5583766
-101.62605 13.822392 1.3460921
-101.67899 13.475912 6.6856837
-101.68945 13.491066 6.470438
-101.68974 13.500278 6.2536607
-101.67982 13.503523 6.0356278
-101.66822 13.505761 5.8180075
-101.65496 13.506996 5.6008182
-101.67432 13.527254 5.388957
-101.65776 13.526525 5.1723347
-101.66531 13.539863 4.9593349
-101.64547 13.537168 4.743433
-101.64978 13.548586 4.5306673
-101.66969 13.569139 4.3194857
-101.66219 13.573627 4.105886
-101.66169 13.582207 3.8931167
-101.65958 13.589838 3.680408
-101.65588 13.59652 3.4677761
-101.65918 13.607323 3.2555881
-101.64366 13.607041 3.0428071
-101.65239 13.621031 2.8308561
-101.6509 13.629008 2.6186087
-101.64782 13.636045 2.4063444
-101.64314 13.642138 2.1940799
-101.62826 13.642204 1.9820031
-101.62039 13.646411 1.7698733
-101.62814 13.659854 1.5570986
-101.61707 13.662178 1.3449068
-101.68029 13.330543 6.4619255
-101.66343 13.329856 6.2424488
-101.67056 13.34299 6.0279789
-101.66748 13.350208 5.8121843
-101.66274 13.356449 5.5966487
-101.64777 13.356742 5.3801684
-101.66553 13.375967 5.1686864
-101.65588 13.379301 4.9538546
-101.65321 13.386662 4.7403078
-101.65753 13.398067 4.5278039
-101.66024 13.408533 4.3153114
-101.65272 13.413043 4.1021476
-101.63496 13.411581 3.8885906
-101.65874 13.434283 3.6780674
-101.64639 13.435955 3.4653473
-101.64108 13.441712 3.2532451
-101.63417 13.446528 3.0412524
-101.64293 13.460491 2.8297384
-101.61555 13.453344 2.61766
-101.63839 13.475539 2.406101
-101.63372 13.481663 2.1942737
-101.61021 13.476745 1.9828068
-101.6196 13.491106 1.7706823
-101.61877 13.499482 1.558604
-101.68648 13.143669 7.329514
-101.68491 13.151939 7.1106234
-101.66811 13.16059 6.6721005
-101.67023 13.179928 6.2400665
-101.64304 13.173395 6.019938
-101.6571 13.190451 5.8075366
-101.65234 13.196711 5.5924344
-101.64593 13.202002 5.3776078
-101.65511 13.216223 5.1653419
-101.63681 13.214645 4.9498968
-101.64275 13.226977 4.7378335
-101.64707 13.238377 4.5257654
-101.6498 13.248843 4.3137097
-101.6509 13.258376 4.1016822
-101.65041 13.266976 3.8896995
-101.63966 13.269651 3.6772513
-101.63596 13.276381 3.4654932
-101.622 13.277176 3.2534769
-101.6324 13.292048 3.0425372
-101.6239 13.295986 2.8310201
-101.6138 13.298993 2.6196446
-101.61942 13.311099 2.4084327
-101.62342 13.322287 2.1970458
-101.61719 13.327531 1.9856715
-101.62664 13.341894 1.7738115
-101.6172 13.345287 1.5623424
-102.07475 12.816005 16.783646
-102.08012 12.830807 16.505201
-102.06764 12.835729 16.217796
-102.02178 12.822229 15.912229
-102.02689 12.836531 15.641926
-102.01405 12.840883 15.363066
-101.99085 12.839429 15.080757
-101.97283 12.840699 14.804342
-101.96795 12.849088 14.538082
-101.94308 12.857253 14.004131
-101.92307 12.857003 13.736654
-101.91658 12.864119 13.478662
-101.89981 12.865463 13.217505
-101.89677 12.874312 12.965412
-101.89153 12.881866 12.714113
-101.89219 12.892614 12.467462
-101.88263 12.897619 12.217747
-101.88718 12.910386 11.976233
-101.87338 12.912883 11.728119
-101.86563 12.918673 11.484426
-101.8394 12.914096 11.23467
-101.84395 12.926596 10.999398
-101.83829 12.933349 10.761367
-101.83893 12.943557 10.527191
-101.81274 12.938712 10.284282
-101.80113 12.941957 10.048447
-101.81261 12.958063 9.822134
-101.79719 12.959053 9.5875664
-101.80498 12.973005 9.3620615
-101.79416 12.976475 9.1315184
-101.79831 12.9883 8.9068174
-101.77535 12.984849 8.6749487
-101.78433 12.999307 8.4536352
-101.77462 13.003211 8.2278652
-101.78857 13.020405 8.0094233
-101.77531 13.022229 7.7845654
-101.76026 13.023001 7.5603194
-101.74344 13.022723 7.3367043
-101.73338 13.026233 7.1156487
-101.73872 13.038405 6.8987384
-101.74236 13.049605 6.6820002
-101.72717 13.050111 6.4621463
-101.70168 13.044736 6.2412772
-101.70886 13.05786 6.0270696
-101.70579 13.065147 5.8115373
-101.69244 13.066573 5.5949559
-101.67742 13.067019 5.3788233
-101.68665 13.081235 5.1665592
-101.68562 13.089601 4.9532104
-101.66566 13.087166 4.7380919
-101.66136 13.093635 4.5252385
-101.67276 13.10905 4.3141451
-101.63924 13.098808 4.0994053
-101.65609 13.117319 3.8890853
-101.64533 13.120048 3.6768994
-101.64163 13.126806 3.4654038
-101.64501 13.137608 3.2543533
-101.62944 13.137547 3.0427086
-101.62094 13.141531 2.8315415
-101.63686 13.159531 2.6207867
-101.6165 13.156693 2.4096541
-101.61188 13.162898 2.1987016
-101.597 13.163198 1.9879361
-101.59785 13.172552 1.7768593
-101.60577 13.185983 1.5653101
-101.86479 12.825719 10.061017
-101.77544 12.307129 10.479893
-101.81578 12.338557 10.263485
-101.82925 12.355461 10.037768
-101.80927 12.175719 10.491783
-101.84141 12.202585 10.27221
-101.82977 12.206003 10.037448
-101.80292 12.04464 10.027648
-101.80361 11.889856 10.257871
-101.81723 11.906573 10.033004
-101.91167 11.516255 17.168121
-101.9061 11.369105 17.163151
-102.09371 11.139725 21.645372
-102.09613 11.168552 20.978765
-102.08495 11.176608 20.64142
-102.063 11.179186 20.299637
-101.93094 11.23865 17.177732
-101.70587 11.406992 10.229074
-101.70252 11.414688 9.9997358
-101.91811 11.093067 17.163082
-101.70079 11.263983 10.225983
-101.72296 11.284563 10.006002
-101.95042 10.973786 17.176558
-101.70451 11.119038 10.452105
-101.73711 11.144696 10.235095
-101.69987 11.135203 9.9936848
-101.96822 10.847124 17.177794
-101.75793 11.008366 10.466072
-101.75362 11.024549 10.006984
-101.74938 10.882792 9.9968872
-101.86594 10.572469 15.688685
-101.75075 10.725119 10.438908
-101.75793 10.737814 10.212697
-101.72043 10.72858 9.9717112
-101.70662 10.47877 12.516756
-101.73147 10.500447 12.287043
-101.6722 10.547391 10.388472
-101.67903 10.559879 10.163249
-101.68396 10.571404 9.9384308
-101.57481 10.434561 8.5515289
-101.60996 10.460383 8.3434687
-101.56475 10.447264 8.1139441
-101.55627 10.460575 7.6805339
-101.53189 10.466024 7.2469101
-101.53028 10.473836 7.0338378
-101.52695 10.480782 6.8210979
-101.5396 10.495488 6.6122198
-101.56832 10.518016 6.4067063
-101.58655 10.535424 6.1993041
-101.60314 10.552026 5.9917855
-101.47999 10.356927 5.9589305
-101.48586 10.368189 5.751277
-101.49007 10.378638 5.5437145
-101.48372 10.383941 5.3350239
-101.48988 10.42866 4.3019576
-101.50954 10.446563 4.0975409
-101.50068 10.450554 3.890939
-101.4902 10.453737 3.6845729
-101.49606 10.464891 3.4793646
-101.50029 10.475259 3.2740753
-101.49703 10.205385 6.5824771
-101.49039 10.219123 6.1616044
-101.48008 10.222599 5.9508896
-101.477 10.229521 5.7420006
-101.48118 10.239917 5.5346956
-101.45689 10.236595 5.3237996
-101.47181 10.285389 4.2936974
-101.46453 10.290157 4.0874863
-101.45562 10.294126 3.8814952
-101.46307 10.306002 3.6768172
-101.45092 10.308381 3.4711401
-101.44615 10.314325 3.2660949
-101.44876 10.323848 3.0614359
-101.43179 10.323849 2.856348
-101.44017 10.336176 2.6518826
-101.43796 10.34335 2.4472089
-101.44313 10.354123 2.2424607
-101.43771 10.359735 2.0377102
-101.43067 10.364564 1.8329879
-101.43102 10.372995 1.6279763
-101.43871 10.385032 1.4224293
-101.43582 10.3919 1.217117
-101.42234 10.393594 1.0123161
-101.38934 10.385723 0.80898541
-101.48118 10.081158 6.1532607
-101.46768 10.091548 5.7341766
-101.47184 10.101904 5.5271301
-101.4443 10.138663 4.286099
-101.46395 10.156365 4.0824566
-101.43702 10.151715 3.8753936
-101.45345 10.167868 3.6715991
-101.45028 10.174601 3.4666352
-101.45449 10.184884 3.2621279
-101.4571 10.194392 3.0575557
-101.44009 10.194446 2.8525579
-101.44848 10.20674 2.6481781
-101.44625 10.213919 2.4435923
-101.44242 10.220321 2.2390039
-101.41898 10.217241 2.03475
-101.43893 10.235147 1.8296343
-101.43027 10.239217 1.6250449
-101.42001 10.24251 1.4205154
-101.41712 10.249382 1.215552
-101.39465 10.246758 1.0116982
-101.37957 10.247714 0.80744177
-101.49149 9.9284563 6.7774158
-101.47728 9.9302235 6.5643106
-101.47939 9.9480457 6.1460452
-101.47793 9.9557371 5.937253
-101.47478 9.962616 5.7287097
-101.46101 9.9644499 5.5191154
-101.45131 10.009556 4.2812362
-101.44397 10.01431 4.0755482
-101.45303 10.026851 3.8713257
-101.44244 10.03004 3.6659222
-101.42543 10.038363 3.2562499
-101.4551 10.060732 3.0529325
-101.44708 10.065116 2.8482978
-101.44646 10.073036 2.6439035
-101.4262 10.071554 2.4394674
-101.44041 10.086567 2.2350771
-101.43497 10.092175 2.0306764
-101.43693 10.101337 1.8260549
-101.41925 10.101079 1.6219773
-101.41798 10.1087 1.4172863
-101.40611 10.111222 1.2130077
-101.41061 10.12163 1.0076241
-101.48517 9.7777481 7.1931658
-101.48521 9.81141 6.3514075
-101.47502 9.8233299 5.932272
-101.47188 9.8301678 5.7239003
-101.45808 9.831996 5.5144787
-101.44843 9.8768415 4.2776332
-101.45011 9.8858252 4.0728269
-101.4592 9.8982964 3.8686893
-101.44862 9.9014807 3.6633725
-101.42522 9.9149075 3.0495489
-101.42624 9.9235449 2.845535
-101.42564 9.9314184 2.6414881
-101.43248 9.9428158 2.4374349
-101.42867 9.9491653 2.2332814
-101.42325 9.9547501 2.0291414
-101.43427 9.9681578 1.8245293
-101.4166 9.9679203 1.6206267
-101.40634 9.9712105 1.4165337
-101.41251 9.9823303 1.2114924
-101.381 9.9754915 1.0085907
-101.31191 9.9506884 0.80888885
-101.47083 9.6490984 6.9768739
-101.46722 9.6558056 6.7656746
-101.46381 9.6708956 6.3460169
-101.46403 9.6792994 6.1374207
-101.4536 9.6827431 5.9275689
-101.45045 9.6895399 5.7195411
-101.46362 9.7038927 5.514411
-101.45415 9.7486219 4.2780809
-101.44684 9.7533541 4.0726528
-101.4379 9.7573099 3.8674459
-101.43637 9.7647238 3.6630108
-101.40609 9.7586613 3.4573128
-101.42847 9.7772598 3.2543929
-101.43114 9.7866287 3.0505142
-101.42316 9.7909899 2.8464012
-101.42261 9.7988415 2.6425281
-101.42045 9.8059359 2.4386373
-101.42572 9.8165302 2.2346687
-101.40224 9.8135881 2.0310285
-101.41335 9.826932 1.8267649
-101.41377 9.8352594 1.6225348
-101.39452 9.8342962 1.4190396
-101.40535 9.8556948 1.0092216
-101.4793 9.5323219 6.7695508
-101.46509 9.5341005 6.5569568
-101.45809 9.5391598 6.3465676
-101.45837 9.5475273 6.1381426
-101.46593 9.5592327 5.9314404
-101.45387 9.5618839 5.7220082
-101.4491 9.567874 5.5143318
-101.4399 9.6124067 4.2795577
-101.44168 9.6213217 4.075098
-101.4509 9.6336756 3.8713088
-101.42226 9.6284676 3.6652656
-101.42823 9.6393051 3.4616182
-101.43259 9.6493921 3.2578907
-101.42628 9.6545143 3.0538247
-101.42741 9.6630974 2.8500714
-101.42693 9.6709299 2.6462848
-101.41576 9.6737843 2.4424675
-101.42112 9.6843386 2.2386734
-101.40674 9.6856833 2.0350418
-101.39981 9.6905041 1.8313643
-101.40938 9.703042 1.627059
-101.40826 9.7105961 1.422888
-101.40553 9.7173977 1.2186183
-101.3831 9.7149687 1.0154599
-101.35907 9.7117825 0.81258208
-101.44258 9.4042711 6.346417
-101.45188 9.4166813 6.1398268
-101.43253 9.4160147 5.928823
-101.42948 9.4227495 5.7212243
-101.43377 9.4328175 5.5152106
-101.43398 9.4812737 4.2827883
-101.43583 9.4901466 4.0785022
-101.43606 9.4982681 3.8742635
-101.42559 9.501462 3.6695499
-101.40443 9.4997158 3.4646385
-101.40887 9.5097475 3.2612596
-101.41169 9.5190372 3.0578163
-101.4129 9.5275812 2.8543239
-101.40342 9.531188 2.650696
-101.41048 9.5424356 2.4472537
-101.39778 9.5445452 2.2437797
-101.41068 9.5585089 2.0400133
-101.40382 9.5633259 1.8364207
-101.38629 9.5631895 1.6332062
-101.39433 9.5749245 1.4289615
-101.39169 9.581708 1.2249515
-101.38743 9.5877438 1.0208579
-101.52366 9.1965322 9.362215
-101.52229 9.2044983 9.1418161
-101.50514 9.2138596 8.6999168
-101.4751 9.2339697 7.8304529
-101.46971 9.2398548 7.6160851
-101.46255 9.2449064 7.4021726
-101.46081 9.2605743 6.9796286
-101.45215 9.273015 6.5584321
-101.45422 9.2820864 6.3500471
-101.43661 9.2822456 6.1387205
-101.42628 9.2856617 5.9294639
-101.43229 9.2964439 5.723443
-101.43665 9.3064623 5.5175152
-101.43031 9.3116226 5.3104634
-101.40421 9.3078003 5.1014156
-101.40357 9.3155069 4.8962111
-101.41553 9.3368864 4.4880648
-101.42813 9.3505859 4.2848077
-101.42097 9.3552809 4.0799818
-101.42126 9.3633585 3.8760028
-101.43809 9.3789778 3.6731646
-101.41696 9.3772726 3.4682491
-101.42147 9.3872643 3.2648699
-101.39709 9.3840446 3.0605936
-101.38928 9.3883858 2.8571715
-101.40713 9.4044762 2.6541994
-101.40517 9.4115038 2.4508286
-101.4107 9.4219618 2.2473834
-101.38734 9.4191666 2.0442519
-101.39872 9.4323196 1.8405148
-101.38123 9.43221 1.6374711
-101.37122 9.4355326 1.4342408
-101.3826 9.4566727 1.0256428
-101.34055 9.4452305 0.82437825
-101.83099 8.9066553 17.163776
-101.84969 8.9471598 16.339598
-101.81341 8.9421721 16.043327
-101.82201 8.9563723 15.778348
-101.812 8.9624567 15.504452
-101.80736 8.9707499 15.236476
-101.76771 8.9638243 14.95069
-101.76586 8.9731169 14.68971
-101.76969 8.9847736 14.434201
-101.7629 8.9917469 14.175012
-101.7454 8.9939842 13.912402
-101.74192 9.0022173 13.659588
-101.71946 9.0021152 13.399172
-101.69452 9.0008364 13.139972
-101.68385 9.0056801 12.890177
-101.67925 9.013092 12.645334
-101.67241 9.0194502 12.401311
-101.68026 9.0321531 12.16581
-101.66052 9.0327368 11.91958
-101.65556 9.0397081 11.681758
-101.64846 9.0456772 11.44469
-101.63924 9.0506487 11.208399
-101.61929 9.0508518 10.969475
-101.64895 9.0727806 10.751643
-101.61621 9.0672369 10.510953
-101.59865 9.0682955 10.277832
-101.59642 9.0760479 10.051806
-101.59223 9.0828876 9.8263597
-101.59484 9.092679 9.6044502
-101.58679 9.0977163 9.3801394
-101.60316 9.113512 9.1647778
-101.58252 9.1128864 8.9388285
-101.57757 9.1191645 8.7189302
-101.57961 9.128499 8.50208
-101.57983 9.1369934 8.2856102
-101.56936 9.1407013 8.0671902
-101.55705 9.1435518 7.8493576
-101.56966 9.1574535 7.6386662
-101.55376 9.1586285 7.4218068
-101.54498 9.1629448 7.2075977
-101.5434 9.170434 6.9958005
-101.5311 9.1731119 6.7825022
-101.54401 9.1870232 6.5749817
-101.52824 9.1880903 6.3624926
-101.51973 9.192378 6.1521416
-101.50951 9.1958704 5.9421945
-101.49759 9.1985693 5.7326689
-101.48396 9.2004776 5.5235815
-101.4788 9.2141523 5.110229
-101.48733 9.2259655 4.9054775
-101.47607 9.2288599 4.6987619
-101.47224 9.2350798 4.4932799
-101.47584 9.2446442 4.2887874
-101.43596 9.2740479 3.0622005
-101.36152 9.3269243 0.82446122
-101.63996 6.6504579 16.722298
-101.52537 6.6440263 12.549053
-101.53553 6.6563525 12.315185
-101.46651 6.6727099 11.119036
-101.44604 6.6733046 10.882622
-101.44986 6.6828752 10.657269
-101.43395 6.68505 10.425893
-101.51361 6.7228045 10.230494
-101.47596 6.7167816 9.9937592
-101.37888 6.5943341 9.0764151
-101.36669 6.5975237 8.8562384
-101.37066 6.6066818 8.6419563
-101.38185 6.6184978 8.4305639
-101.40941 6.6363931 8.2242613
-101.34418 6.6196489 7.9943414
-101.34988 6.6293178 7.784163
-101.39034 6.6519656 7.5829821
-101.36506 6.6500072 7.366734
-101.35625 6.6541772 7.1553254
-101.38241 6.6714215 6.9521122
-101.37927 6.6776705 6.7432055
-101.39281 6.6901584 6.5381637
-101.38619 6.6950545 6.3298159
-101.31377 6.5109816 7.344079
-101.31239 6.5254021 6.9266319
-101.29985 6.5281668 6.7165771
-101.30398 6.5371056 6.5105515
-101.30639 6.5453839 6.3047295
-101.29783 6.5495539 6.0975509
-101.29679 6.5565081 5.892272
-101.30332 6.5662699 5.6886516
-101.2896 6.5684471 5.4824905
-101.30205 6.5803909 5.2804847
-101.31283 6.5917072 5.078434
-101.29401 6.5919232 4.8731775
-101.31078 6.6054626 4.672317
-101.29792 6.6078782 4.4686289
-101.31137 6.6201673 4.2677016
-101.31385 6.6283259 4.0659223
-101.30534 6.6323395 3.8635671
-101.29516 6.6357155 3.6614506
-101.29268 6.6419816 3.4600382
-101.30733 6.4033327 6.9113278
-101.29465 6.4061513 6.7013521
-101.28944 6.4116879 6.4936514
-101.30097 6.4233818 6.2896442
-101.29228 6.4275947 6.0825424
-101.28185 6.4311395 5.8758507
-101.28827 6.4408917 5.6723847
-101.28371 6.4465647 5.4677038
-101.28674 6.4550385 5.2645359
-101.26948 6.4559646 5.0592179
-101.26915 6.4631562 4.8564987
-101.26715 6.4697146 4.6539412
-101.26348 6.4756398 4.451561
-101.26749 6.4844117 4.2501659
-101.26984 6.4925618 4.0488062
-101.26119 6.4966011 3.8468769
-101.26024 6.5035033 3.6457193
-101.25764 6.5097842 3.4446428
-101.26276 6.5189452 3.24402
-101.25687 6.5239863 3.0430641
-101.24934 6.5284066 2.8422351
-101.2589 6.5392299 2.6417406
-101.24809 6.5424132 2.4410372
-101.23564 6.5449753 2.2405066
-101.24963 6.5574775 2.0396674
-101.18685 6.5773091 0.83671719
-101.30637 6.2635546 7.7215676
-101.29334 6.2817225 7.0899057
-101.30078 6.292016 6.8833966
-101.28802 6.2949185 6.6734076
-101.29197 6.303894 6.4674315
-101.2942 6.3122206 6.2616615
-101.27615 6.3131123 6.0529761
-101.2935 6.326931 5.8508039
-101.29057 6.3333163 5.6457496
-101.28594 6.339057 5.4409666
-101.27962 6.3441534 5.2364707
-101.27158 6.3486075 5.0322785
-101.26186 6.3524199 4.8284059
-101.2598 6.3590322 4.6258316
-101.25606 6.3650165 4.4234357
-101.26 6.3738246 4.2220225
-101.24358 6.3751049 4.0192399
-101.25358 6.3861313 3.818702
-101.26193 6.3965511 3.6180561
-101.24991 6.3994241 3.4164355
-101.25497 6.4086194 3.2157938
-101.24902 6.4137287 3.0148237
-101.23205 6.4147415 2.8138013
-101.25093 6.4290671 2.613466
-101.24943 6.4358211 2.4127553
-101.23691 6.4384751 2.2121258
-101.24149 6.4474964 2.0113463
-101.17832 6.467834 0.80831981
-101.2815 6.2078824 7.009551
-101.28896 6.2180128 6.8032432
-101.2762 6.2208138 6.5934563
-101.28943 6.2329879 6.3894215
-101.29169 6.2411761 6.1837673
-101.27365 6.241991 5.9751997
-101.28174 6.2522535 5.7716603
-101.26952 6.2551298 5.5654135
-101.2649 6.2607398 5.3609195
-101.27722 6.2724986 5.1591578
-101.25054 6.2700472 4.9528112
-101.25017 6.2771521 4.7502775
-101.25747 6.2870464 4.5488687
-101.25375 6.292912 4.3465891
-101.25773 6.301578 4.1452913
-101.23195 6.2993507 3.9419253
-101.25135 6.3136444 3.7422037
-101.25037 6.3204718 3.5411458
-101.23835 6.3232474 3.3397295
-101.23406 6.3288484 3.1389377
-101.24689 6.3407359 2.9387901
-101.2487 6.3485746 2.7382426
-101.23009 6.3488984 2.5374813
-101.20985 6.3486056 2.3370528
-101.22549 6.3615394 2.1366403
-101.23012 6.3704147 1.9360638
-101.23309 6.3786883 1.7353426
-101.22504 6.3828917 1.5348368
-101.29733 6.0654073 7.8541942
-101.29361 6.0715466 7.6422601
-101.28075 6.0891809 7.0111957
-101.27905 6.095921 6.8029742
-101.27557 6.1020045 6.5950966
-101.25179 6.1007886 6.3840995
-101.26334 6.1122069 6.1804409
-101.26389 6.1196671 5.975265
-101.27203 6.1298366 5.7718101
-101.25986 6.1326818 5.5656466
-101.2646 6.1415963 5.362546
-101.24899 6.1431618 5.157115
-101.25034 6.150826 4.9544325
-101.24067 6.1544943 4.7508478
-101.25739 6.1676826 4.5504866
-101.25372 6.1734996 4.3482046
-101.23901 6.1753058 4.1453271
-101.24139 6.1832833 3.9442372
-101.2421 6.1906548 3.7431979
-101.20363 6.1837893 3.5401137
-101.22496 6.2057195 3.1401858
-101.22846 6.2140841 2.9398577
-101.23972 6.2252731 2.7396619
-101.23055 6.2290173 2.5390766
-101.21973 6.2321558 2.3386495
-101.22606 6.2415524 2.1382313
-101.22134 6.2469196 1.9378226
-101.22438 6.2551217 1.7371867
-101.20673 6.2628527 1.3364046
-101.20482 6.2692561 1.1356007
-101.27216 5.9654832 7.0092673
-101.2612 5.9689221 6.7992191
-101.26698 5.9782648 6.593338
-101.25246 5.9803872 6.3841667
-101.26405 5.9917498 6.1805077
-101.24603 5.9925704 5.9721951
-101.24486 5.9993639 5.7674298
-101.26064 6.0121746 5.5657115
-101.25608 6.017725 5.3613009
-101.24046 6.0193119 5.1559558
-101.24184 6.0269456 4.9533596
-101.24153 6.0339665 4.7509103
-101.24892 6.0437293 4.5495858
-101.25465 6.0528913 4.3482656
-101.24934 6.0580878 4.1461768
-101.22357 6.055934 3.9428937
-101.2243 6.0632744 3.742028
-101.20459 6.0632567 3.5401733
-101.20719 6.0783072 3.1395371
-101.22953 6.0934148 2.9399149
-101.22202 6.0977616 2.7393606
-101.23167 6.1083021 2.5391326
-101.23026 6.1148548 2.3387098
-101.21782 6.1174092 2.1383688
-101.20372 6.1193638 1.9382167
-101.19739 6.1241255 1.7380116
-101.20821 6.1351094 1.537163
-101.19315 6.1508636 0.93537074
-101.26361 5.8335962 7.2103486
-101.26363 5.8409595 7.0019703
-101.27114 5.8509245 6.7958288
-101.25835 5.8537474 6.5862136
-101.27164 5.8657041 6.3823447
-101.26463 5.8705049 6.1752076
-101.25587 5.8746648 5.9684653
-101.26401 5.8847594 5.7650943
-101.25179 5.8876567 5.55902
-101.23782 5.8899174 5.3533907
-101.24085 5.8981576 5.1506629
-101.2422 5.9057899 4.9480662
-101.22311 5.9061766 4.7435236
-101.23046 5.9159083 4.5423708
-101.24554 5.9283752 4.3420963
-101.23078 5.9302511 4.1393094
-101.21435 5.9315114 3.9369066
-101.21505 5.938848 3.7361276
-101.23291 5.9522886 3.5364661
-101.23031 5.9584441 3.3356621
-101.19781 5.9539318 3.133903
-101.22015 5.9689693 2.9343624
-101.20318 5.969975 2.7337208
-101.23164 5.9872179 2.5338435
-101.22079 5.990407 2.3334191
-101.19888 5.9896278 2.1332538
-101.20356 5.9983764 1.9329352
-101.2066 6.0065389 1.7324724
-101.19858 6.0107346 1.5322273
-101.26806 5.698513 7.6253924
-101.26417 5.7120218 7.2054725
-101.24381 5.7197056 6.7852316
-101.2588 5.7322454 6.5813408
-101.25348 5.7377086 6.3739986
-101.27434 5.7522645 6.1719837
-101.25621 5.7532272 5.9635949
-101.26434 5.7633147 5.760222
-101.25206 5.7662683 5.5541515
-101.24741 5.7718625 5.3498306
-101.24105 5.7768402 5.1457982
-101.22361 5.7779188 4.9409399
-101.21384 5.7816615 4.7376204
-101.23055 5.7946787 4.5375109
-101.22681 5.8005147 4.3354912
-101.22141 5.8057504 4.1336665
-101.20492 5.8070755 3.9313552
-101.20558 5.8144231 3.730664
-101.214 5.824502 3.5305629
-101.21136 5.8306756 3.3299344
-101.22591 5.842916 3.1301012
-101.20112 5.8412538 2.928987
-101.20295 5.8489938 2.7288728
-101.20313 5.8561511 2.5287282
-101.20166 5.8627248 2.3285685
-101.20797 5.8720589 2.1283214
-101.19379 5.8741202 1.9282644
-101.19679 5.8822894 1.7278886
-101.19815 5.8898768 1.5273843
-101.18845 5.8935299 1.3272028
-101.26414 5.5898991 7.2049289
-101.24559 5.5909386 6.9925675
-101.26234 5.6040707 6.7885027
-101.25878 5.6102047 6.5807991
-101.26276 5.6189117 6.3751926
-101.24637 5.6205754 6.1664958
-101.2562 5.631258 5.9630556
-101.24564 5.6348848 5.7567296
-101.22397 5.6346488 5.5494423
-101.21929 5.6402588 5.3453817
-101.23166 5.6517553 5.1440449
-101.23297 5.6594129 4.9415359
-101.20441 5.656692 4.7360425
-101.22113 5.669672 4.5360193
-101.20798 5.6722636 4.3332171
-101.2308 5.6873574 4.1339178
-101.21431 5.6887593 3.9315209
-101.20555 5.6928444 3.7301338
-101.20457 5.6996269 3.5295103
-101.19249 5.7025304 3.3285344
-101.20705 5.7147384 3.1288755
-101.19167 5.7164693 2.9281983
-101.1935 5.7242212 2.7281721
-101.19368 5.7313957 2.5281153
-101.20165 5.7413039 2.3280427
-101.19854 5.7473245 2.1278839
-101.19378 5.7527657 1.9277402
-101.19679 5.7609458 1.727365
-101.18874 5.7652292 1.5272106
-101.27102 5.4419379 8.0508585
-101.26529 5.4549479 7.6270747
-101.24297 5.4622035 7.2029986
-101.25224 5.4727278 6.9967842
-101.24119 5.476316 6.7869129
-101.23764 5.482429 6.57938
-101.24165 5.4910927 6.3739448
-101.22525 5.4927764 6.1654177
-101.23512 5.5033984 5.9621496
-101.22456 5.5070281 5.7559948
-101.22164 5.5132432 5.5516601
-101.22638 5.5220652 5.3489027
-101.20126 5.5206375 5.1426072
-101.21198 5.5314822 4.9414892
-101.21164 5.5385175 4.7393007
-101.20961 5.5449619 4.5372758
-101.21532 5.5540586 4.3363008
-101.20994 5.5593286 4.134563
-101.20289 5.5640097 3.9330354
-101.21304 5.574616 3.7329543
-101.19321 5.5748682 3.5311966
-101.19061 5.5810556 3.3307424
-101.21468 5.5964723 3.131433
-101.18987 5.5949669 2.9304049
-101.17286 5.5961452 2.7300289
-101.19199 5.6098566 2.5303206
-101.17167 5.6098776 2.3302479
-101.19694 5.6257401 2.1300883
-101.19221 5.6311808 1.9299438
-101.1764 5.6327577 1.7300911
-101.17781 5.6403384 1.5297611
-101.16814 5.6440544 1.3297535
-101.67558 5.0253925 20.485836
-101.53253 5.1161246 16.506647
-101.4031 5.2091999 12.590183
-101.39761 5.2157831 12.348916
-101.37921 5.2426505 11.403452
-101.37005 5.2557406 10.94074
-101.35779 5.259666 10.708762
-101.35232 5.26578 10.480959
-101.35373 5.2741227 10.257107
-101.33511 5.2757797 10.027459
-101.35049 5.2886596 9.8110743
-101.32774 5.2888446 9.582921
-101.33013 5.2973304 9.3644838
-101.33057 5.3051324 9.1465111
-101.32909 5.3122516 8.9290237
-101.32568 5.3186913 8.712039
-101.29287 5.3152728 8.487813
-101.29475 5.3234 8.2746487
-101.31319 5.3370337 8.0667162
-101.3114 5.3438754 7.8541846
-101.2893 5.3438711 7.6375809
-101.30231 5.3556123 7.4304218
-101.28574 5.3573947 7.2171464
-101.29517 5.3678894 7.0105052
-101.28426 5.3715105 6.8002028
-101.27153 5.3744912 6.5904164
-101.27567 5.3831315 6.3846374
-101.27807 5.3911657 6.1790648
-101.26002 5.3922691 5.9705849
-101.24019 5.3927402 5.7626891
-101.26549 5.4084678 5.5623574
-101.2328 5.4045305 5.3539429
-101.22652 5.4095259 5.1499949
-101.22795 5.4171181 4.947484
-101.20886 5.4177198 4.7430282
-101.2069 5.424129 4.5410013
-101.19382 5.4267406 4.3382807
-101.1885 5.4319763 4.136714
-101.20038 5.4430742 3.9367554
-101.20116 5.4503798 3.7360628
-101.19083 5.4538803 3.5349123
-101.17884 5.4567986 3.3340187
-101.19354 5.4688554 3.1344483
-101.19715 5.4771094 2.9343791
-101.1991 5.484797 2.7342639
-101.16157 5.4789171 2.5337625
-101.19804 5.4984694 2.3339562
-101.16667 5.4946856 2.1340513
-101.19037 5.5098672 1.9336478
-101.18406 5.5147123 1.7335311
-101.1572 5.5124636 1.5341543
-101.62232 5.0069766 17.133451
-101.47714 5.1473608 11.684006
-101.47181 5.1537304 11.44884
-101.44652 5.1535292 11.20727
-101.46344 5.1670475 10.984332
-101.46049 5.1740274 10.754872
-101.4213 5.1769266 10.288211
-101.42097 5.1846085 10.064247
-101.40958 5.1886125 9.83776
-101.42331 5.2008252 9.6210546
-101.3904 5.2052631 9.1714411
-101.39827 5.215435 8.9561234
-101.37168 5.2216878 8.5161476
-101.36491 5.234333 8.0862694
-101.34531 5.2499213 7.4462743
-101.64251 4.8419881 18.611546
-101.63957 4.71627 18.611179
-101.66244 4.5846725 18.925768
-102.41816 18.107229 21.013706
-102.41706 18.128576 20.609737
-102.42697 18.158278 20.215727
-102.43379 18.185425 19.82268
-102.41604 18.193335 19.418024
-102.3305 18.232725 17.44499
-102.30125 18.230627 17.053228
-102.32934 18.293642 16.320854
-102.30608 18.29579 15.939916
-102.28799 18.321939 15.198821
-102.12855 18.372318 11.938964
-102.43097 17.719751 21.29883
-102.43941 17.748659 20.899811
-102.4304 17.76409 20.49297
-102.41097 17.77136 20.083172
-102.40977 17.79237 19.687811
-102.40543 17.810816 19.293621
-102.37906 17.876055 17.741024
-102.39607 17.910135 17.372049
-101.82301 18.350021 1.2222214
-102.40422 17.330938 21.159044
-102.4118 17.359118 20.762039
-102.3947 17.368559 20.352802
-102.39583 17.391533 19.958191
-102.40826 17.422848 19.573267
-102.39591 17.435328 19.176624
-102.3518 17.487494 17.62364
-102.36816 17.520906 17.256668
-102.34476 17.524027 16.871737
-102.34786 17.123125 17.525358
-102.34151 17.139317 17.148695
-102.33021 16.754763 17.428415
-102.20562 15.249017 17.796467
-102.18041 14.889753 17.702852
-102.19234 14.917456 17.342587
-102.18617 14.932633 16.975349
-102.16118 14.536714 17.611042
-102.18793 14.57407 17.260242
-102.18855 14.035836 20.939997
-102.22018 13.348639 21.152466
-102.23914 13.381355 20.774551
-102.21754 13.38801 20.374327
-102.20741 13.401795 19.984907
-102.02863 13.04477 17.93309
-102.067 13.088248 17.591732
-102.07168 13.110269 17.234596
-102.0501 13.115499 16.8666
-102.06642 12.751567 17.518345
-102.04739 12.758644 17.150476
-102.02524 12.763614 16.784008
-101.99788 12.359724 17.778545
-102.03579 12.401847 17.439953
-102.03971 12.423001 17.085606
-102.0015 12.418112 16.712572
-102.04963 11.908793 20.716736
-102.08153 11.947823 20.354898
-102.04192 11.943842 19.951973
-102.02916 11.955762 19.569294
-102.02068 11.97007 19.192543
-102.00059 12.034009 17.724295
-101.99939 12.051928 17.366404
-102.01868 12.0821 17.021576
-102.0351 12.110436 16.677359
-102.03959 11.55883 21.029657
-102.0292 11.572581 20.639381
-102.01527 11.584062 20.250591
-102.01311 11.602288 19.872597
-102.02293 11.627419 19.504974
-102.01414 11.641404 19.129389
-101.97732 11.694719 17.65752
-101.99151 11.721576 17.309145
-101.98703 11.737201 16.953501
-101.92696 11.323606 17.934158
-101.96738 11.365527 17.598995
-101.97353 11.387306 17.247725
-101.94505 11.388688 16.881338
-102.01485 10.883518 21.269661
-101.91438 10.9957 17.872866
-101.93895 11.027884 17.530556
-101.96064 11.058302 17.188807
-101.908 11.04579 16.811592
-102.05793 10.589123 21.229164
-101.90098 10.66854 17.808205
-101.91745 10.695684 17.462914
-101.93097 10.721044 17.118343
-101.90967 10.726554 16.758507
-101.9032 10.349105 17.750111
-101.91152 10.371383 17.401678
-101.90088 10.382981 17.045963
-101.87112 10.383782 16.683475
-101.91846 10.427442 16.361832
-101.90675 10.43806 16.013302
-101.89057 10.462954 15.32719
-101.91641 9.9480505 19.502895
-101.92463 9.9707232 19.141455
-101.87767 10.01644 17.680799
-101.88567 10.038283 17.333632
-101.86665 10.045207 16.975101
-101.8605 10.059045 16.625982
-101.88358 10.088778 16.29368
-101.87959 10.10355 15.950359
-101.88074 10.121041 15.611828
-101.87902 10.136835 15.274196
-101.534 10.466162 4.6694074
-101.46262 10.454638 4.0784416
-101.9399 9.5705423 20.954451
-101.92287 9.580164 20.565071
-101.92542 9.6000233 20.191681
-101.90897 9.6095896 19.810083
-101.90472 9.6434889 19.0744
-101.86433 9.6923599 17.622675
-101.86411 9.7095079 17.272449
-101.82864 9.707571 16.906937
-101.84635 9.7341042 16.571186
-101.88548 9.7720795 16.247854
-101.86504 9.7778378 15.897805
-101.86599 9.7950125 15.560401
-101.83278 9.8425846 14.216693
-101.47179 10.110742 4.6552672
-101.8333 9.3609705 17.554817
-101.84077 9.3819828 17.210018
-101.80489 9.3799438 16.845694
-101.82238 9.4059963 16.511137
-101.85325 9.4390354 16.18508
-101.8569 9.4575577 15.847846
-101.8331 9.4613924 15.500195
-101.81445 9.4678316 15.157619
-101.41579 9.7615595 4.6406794
-101.39655 9.7793131 4.0599365
-101.95229 8.9334154 21.214804
-101.79044 9.0100641 17.826035
-101.81668 9.0406647 17.49011
-101.79965 9.048707 17.133924
-101.78751 9.059144 16.783205
-101.77974 8.693676 17.765514
-101.80578 8.7237625 17.430609
-101.80459 8.7398682 17.083775
-101.77592 8.7418175 16.725761
-101.76346 8.3766584 17.712683
-101.79746 8.4102917 17.383043
-101.77983 8.4179726 17.02883
-101.79977 8.4443483 16.696424
-101.75 8.0648546 17.666704
-101.73521 8.0739746 17.312551
-101.72535 8.0853672 16.963919
-101.79865 7.6646304 20.149946
-101.78336 7.6745291 19.773453
-101.73043 7.7491717 17.609045
-101.73164 7.7659373 17.2644
-101.70516 7.7692113 16.908306
-101.84583 7.3217425 21.229023
-101.71706 7.4309378 17.539446
-101.70964 7.4435749 17.191584
-101.68594 7.0840187 17.797731
-101.69741 7.1056852 17.458588
-101.69758 7.1219931 17.116074
-101.66987 7.1252289 16.76215
-101.67449 6.7820277 17.378042
-101.68233 6.8018899 17.040865
-101.66225 6.808929 16.692142
-101.65024 6.4480529 17.650553
-101.66077 6.4691558 17.313444
-101.65992 6.485075 16.972984
-101.63933 6.4920511 16.625299
-101.66553 6.5197968 16.303438
-101.67214 6.5386863 15.974104
-101.65964 6.5646076 15.310364
-101.66581 6.5829744 14.987585
-101.62894 6.137548 17.591736
-101.63916 6.1583371 17.255566
-101.60477 6.159513 16.899155
-101.60033 6.1736317 16.561031
-101.63461 6.2045879 16.244345
-101.64091 6.2231874 15.916044
-101.62739 6.232976 15.580789
-101.63617 6.2524481 15.258219
-101.63358 6.2668214 14.932662
-101.61958 6.276051 14.604394
-101.62003 6.3218608 13.650522
-101.62162 5.8524933 17.204842
-101.57852 5.8501105 16.845078
-101.60725 5.8783503 16.524479
-101.59113 5.8872471 16.184034
-101.60555 5.9091368 15.860835
-101.6086 5.9260392 15.534431
-101.60021 5.9379077 15.205093
-101.60587 5.9557171 14.884328
-101.59157 5.9648137 14.557032
-101.6086 5.9873409 14.24521
-101.60571 6.0011659 13.926917
-101.59136 6.0099344 13.606091
-101.59988 5.5317602 17.494112
-101.58471 5.5414424 17.146681
-101.57462 5.5531063 16.804832
-101.57809 5.5703387 16.472513
-101.56165 5.5790815 16.13302
-101.58432 5.6041589 15.814759
-101.57868 5.6172147 15.485329
-101.58706 5.6360726 15.164601
-101.59256 5.6536169 14.844641
-101.56948 5.6589699 14.51449
-101.58637 5.6811395 14.203559
-101.57466 5.6910963 13.882661
-101.62031 5.2287431 17.813763
-101.65824 5.2603569 17.491838
-101.66821 5.2803993 17.157391
-101.58283 5.2611432 16.777372
-101.65025 4.9276118 18.14847
-102.46945 18.145353 22.57724
-102.47903 18.05644 22.576315
-102.52634 18.097313 22.24967
-102.5278 18.111925 21.889254
-102.47484 17.957771 22.563633
-102.53635 18.006523 22.248772
-102.5236 18.013012 21.877008
-102.32687 18.04159 18.024897
-102.31799 18.048492 17.703176
-102.30615 18.053574 17.38273
-102.35067 18.102638 16.791695
-102.34586 18.111456 16.483528
-102.33829 18.11858 16.176462
-102.29678 18.106026 15.853108
-102.29144 18.114225 15.552932
-102.29132 18.125345 15.257995
-102.14824 18.159946 12.090415
-102.14291 18.167099 11.817807
-102.13374 18.182098 11.277962
-102.10526 18.175535 11.001676
-102.11578 18.191721 10.741032
-102.07251 18.186293 10.201756
-102.06838 18.193743 9.9402046
-102.46051 17.850492 22.53491
-102.53613 17.907019 22.231968
-102.54471 17.925591 21.877548
-102.39914 17.971859 18.378227
-102.13663 18.174505 8.9237938
-102.09557 18.198528 7.6463895
-102.08817 18.203703 7.394021
-102.07882 18.207697 7.1421237
-102.05903 18.205511 6.8890963
-102.03727 18.202135 6.6367531
-102.02209 18.202595 6.3865638
-102.03914 18.222008 6.1423779
-101.99929 18.217184 5.6441507
-101.86756 18.259016 2.4744291
-101.85522 18.260839 2.2326851
-101.84966 18.266699 1.9910057
-102.46784 17.755692 22.522755
-102.53637 17.808023 22.214174
-102.53769 17.822493 21.854259
-101.85534 18.181967 1.7491423
-102.4595 17.655428 22.498386
-101.85219 18.110542 1.0233039
-102.47818 17.571968 22.498192
-102.46657 17.474243 22.476103
-102.45569 17.377634 22.451754
-102.47472 17.297148 22.448765
-102.46274 17.195705 22.412277
-102.46505 17.101097 22.387421
-102.34503 17.173784 18.537634
-102.40095 16.958929 22.677893
-102.47215 17.010777 22.370773
-102.35094 17.082649 18.5226
-102.40752 16.868834 22.661858
-102.35638 16.991535 18.508303
-102.46271 16.818005 22.322231
-102.37603 16.908096 18.504889
-102.19592 15.539955 18.557117
-102.20296 15.445948 18.537428
-102.21385 15.356812 18.526766
-102.2304 15.273406 18.522863
-102.24515 15.192031 18.520086
-102.24282 15.102547 18.508873
-102.2411 15.010755 18.498446
-102.25642 14.830732 18.484411
-102.27728 14.21311 22.514229
-102.27431 14.114558 22.505806
-102.27236 14.015878 22.496443
-102.27602 13.916589 22.480799
-102.27406 13.812619 22.456974
-102.22515 13.186386 22.687227
-102.06545 12.712846 18.497152
-102.02493 12.603436 18.471239
-102.05752 12.516603 18.473886
-102.05438 12.418503 18.459492
-102.0567 12.325698 18.452797
-102.06388 12.237504 18.455147
-102.05412 12.141222 18.448345
-102.06089 12.051431 18.451101
-102.06841 11.962269 18.45256
-102.14067 11.778075 21.839071
-102.10817 11.851539 19.438601
-102.07475 11.873083 18.454369
-102.13407 11.668613 22.186642
-102.00562 11.716894 19.36488
-102.06586 11.775878 18.445892
-102.05793 11.679307 18.435991
-102.12293 11.492733 21.813049
-102.04782 11.584533 18.426807
-102.05266 11.496572 18.429441
-102.04778 11.404489 18.430208
-102.04179 11.312387 18.431431
-102.04317 11.226118 18.437517
-102.0915 11.041578 21.811853
-102.0348 11.139556 18.439541
-102.00806 11.047816 18.432991
-102.00714 10.965009 18.439629
-102.00194 10.877983 18.436445
-102.01318 10.79728 18.441648
-102.06105 10.61455 21.808489
-102.01401 10.715956 18.444248
-101.99564 10.633307 18.439005
-101.99072 10.557856 18.445967
-101.97712 10.480169 18.448807
-102.04553 10.306258 22.199722
-101.97913 10.409883 18.462307
-101.94711 10.330072 18.455414
-102.03394 10.169271 22.222845
-101.95531 10.266204 18.474131
-101.93962 10.194833 18.476721
-102.02816 10.039752 22.25205
-101.93782 10.130172 18.49122
-102.024 9.9760456 22.267733
-102.01664 9.985178 21.904764
-101.91989 10.060486 18.495621
-101.89562 9.9898891 18.491554
-101.89024 9.9253817 18.492743
-101.89629 9.8627357 18.495142
-101.53976 10.169463 4.8148479
-101.89544 9.7954769 18.491938
-101.84433 9.8837385 15.177227
-101.47166 10.080227 4.8050699
-101.48876 10.094 4.5767045
-101.89935 9.7323122 18.497108
-101.747 9.7850513 15.129043
-101.84006 9.8272877 14.894417
-101.45817 10.012736 4.8041101
-101.48462 10.029956 4.5766988
-101.99429 9.5866671 22.272139
-101.89213 9.6707048 18.499964
-101.78249 9.7472706 14.871453
-101.48157 9.960474 4.8097248
-101.45199 9.9570246 4.5768514
-101.88395 9.6111555 18.503626
-101.47659 9.8991346 4.8132548
-101.46577 9.9025364 4.5821128
-101.86065 9.5437899 18.495388
-101.48963 9.8450813 4.817348
-101.46949 9.8450947 4.5851622
-101.87967 9.4885683 18.511827
-101.48453 9.7843618 4.8181844
-101.49247 9.7946615 4.5886092
-101.87469 9.4255123 18.512478
-101.50748 9.7344942 4.8217745
-101.51544 9.7448444 4.5919404
-101.8681 9.3635254 18.513926
-101.74345 9.4272346 15.158113
-101.5202 9.6816835 4.8251791
-101.85342 9.2998104 18.510387
-101.754 9.3727255 15.168568
-101.50502 9.619462 4.8259349
-101.8402 9.2374945 18.504316
-101.74027 9.3105488 15.163346
-101.50891 9.5645227 4.8260822
-101.85166 9.1833401 18.512447
-101.72681 9.2483263 15.15667
-101.49377 9.5028811 4.8228755
-101.48299 9.5065813 4.5912166
-101.84068 9.119812 18.503586
-101.74034 9.1940565 15.161824
-101.4792 9.441391 4.8184023
-101.47777 9.4484863 4.5877023
-101.95771 8.973465 22.281845
-101.84805 9.060256 18.502995
-101.76421 9.141408 15.169197
-101.45588 9.3761015 4.8108702
-101.45437 9.3832436 4.5803461
-101.85629 9.0011311 18.500002
-101.79705 9.1015625 14.895625
-101.49786 9.3346205 4.8076525
-101.84956 8.9384022 18.484348
-101.86459 8.886363 18.486954
-101.8513 8.8275719 18.478224
-101.84441 8.7724733 18.477299
-101.85439 8.7227764 18.486061
-101.85467 8.6711826 18.490578
-101.84326 8.6194639 18.49436
-101.8129 8.5646734 18.491137
-101.79986 8.5146217 18.495817
-101.79852 8.4649935 18.50198
-101.7911 8.4106035 18.501072
-101.78284 8.3564863 18.500334
-101.78222 8.3074236 18.504892
-101.77211 8.2581882 18.505257
-101.76487 8.1700363 18.517706
-101.88756 7.9326892 22.410952
-101.88205 7.8810878 22.440968
-101.87513 7.784658 22.47332
-101.81298 7.8627672 19.333448
-101.83931 7.893712 18.415297
-101.8704 7.769299 22.174824
-101.77206 7.8227272 19.361038
-101.80498 7.8631439 18.417322
-101.87601 7.7406077 22.197145
-101.80482 7.8318229 18.432066
-101.7911 7.7923727 18.432726
-101.78661 7.7533331 18.438709
-101.78233 7.7143192 18.44458
-101.86272 7.5902553 22.227745
-101.77814 7.6773543 18.448353
-101.86237 7.5537033 22.227291
-101.76944 7.6380539 18.441952
-101.78044 7.6018634 18.441914
-101.7733 7.5591607 18.434219
-101.76394 7.5171742 18.430296
-101.77086 7.4820423 18.436222
-101.76874 7.4457331 18.436846
-101.75678 7.407917 18.434958
-101.76771 7.3774638 18.451464
-101.75484 7.3378778 18.451239
-101.74476 7.2966256 18.448189
-101.73618 7.255177 18.443062
-101.73497 7.2171392 18.442989
-101.73112 7.1818309 18.446299
-101.72394 7.1486034 18.454016
-101.71473 7.1162024 18.463497
-101.82294 6.9730525 22.295887
-101.82166 6.945364 22.309258
-101.81977 6.8964796 22.350206
-101.8046 6.8916841 18.355528
-101.79302 6.8444467 18.374786
-101.79772 6.7891846 18.372835
-101.79391 6.7289357 18.368361
