# .PCD v0.7 - Point Cloud Data file format
VERSION 0.7
FIELDS x y z
SIZE 4 4 4
TYPE F F F
COUNT 1 1 1
WIDTH 935
HEIGHT 1
VIEWPOINT 0 0 0 1 0 0 0
POINTS 935
DATA ascii
-101.61818 53.007801 13.627853
-101.7532 50.646294 15.333631
-102.39654 17.663755 22.345648
-102.48376 17.892742 19.760408
-102.38354 17.970873 16.500019
-102.48474 17.6984 17.87505
-102.40391 17.981188 11.22473
-102.39656 17.991106 10.909492
-102.41679 17.322681 18.100399
-102.48199 17.403318 17.791937
-102.47921 17.457174 16.75046
-102.43045 17.049547 18.027651
-102.47587 17.110813 17.707731
-102.48592 17.138952 17.366787
-102.47356 17.146009 17.014252
-102.46533 17.156776 16.666985
-102.48812 17.19647 16.340578
-102.48847 17.215033 16.002918
-102.48644 17.231239 15.666122
-102.46848 17.250248 14.99163
-102.46156 17.279156 14.331697
-102.46838 17.303129 14.009766
-102.45477 17.325125 13.35798
-102.45498 17.34259 13.038075
-102.46687 17.371006 12.724921
-102.45586 17.377695 12.403214
-102.43571 17.375647 12.079498
-102.44125 17.397818 11.768051
-102.43773 17.411345 11.454317
-102.42513 17.41618 11.138576
-102.3207 17.78294 2.4660892
-102.33624 17.813805 2.1729879
-102.30683 17.801149 1.879591
-102.30431 17.814543 1.586219
-102.30714 17.833118 1.2924908
-102.3081 17.849913 0.99846888
-102.43456 16.772045 17.950289
-102.45997 16.814117 17.618988
-102.44968 16.823103 17.267139
-102.42344 16.817171 16.908291
-102.46171 16.870789 16.591291
-102.47085 16.915339 15.92253
-102.45491 16.918411 15.57985
-102.47054 16.950665 15.256929
-102.47028 16.968065 14.927207
-102.47457 16.98958 14.601832
-102.45599 16.989725 14.266743
-102.4695 17.019617 13.949749
-102.44631 17.015234 13.616669
-102.43464 17.021467 13.291276
-102.44849 17.05142 12.979373
-102.44632 17.066345 12.661694
-102.44897 17.08569 12.347665
-102.42154 17.076813 12.022648
-102.43393 17.105103 11.715672
-102.43726 17.124847 11.406245
-102.41038 17.116201 11.08675
-102.42365 17.145124 10.783702
-102.41373 17.152231 10.473438
-102.40176 17.157326 10.163882
-102.38333 17.20476 8.9475384
-102.42314 16.482128 17.865191
-102.44833 16.52347 17.535463
-102.44437 16.538061 17.189383
-102.41096 16.525583 16.827929
-102.4381 16.724762 13.555784
-102.44008 16.743462 13.238388
-102.43988 16.760065 12.921623
-102.4445 16.781044 12.608568
-102.42598 16.780535 12.287133
-102.40523 16.777874 11.966747
-102.4175 16.805681 11.661443
-102.42774 16.831547 11.356409
-102.39351 16.81612 11.035873
-102.4138 16.851164 10.737058
-102.3895 16.844784 10.423469
-102.39867 16.869404 10.122826
-102.39161 16.878885 9.8178225
-102.3754 16.87978 9.5112038
-102.38701 16.922396 8.9146366
-102.38631 16.93758 8.6157284
-102.40996 16.192127 17.780317
-102.40806 16.208529 17.435099
-102.41708 16.234661 17.099289
-102.40734 15.931288 17.357533
-102.43626 16.616739 4.770277
-102.42347 16.62007 4.4801297
-102.41614 16.628416 4.1909757
-102.331 16.715385 1.0223593
-102.47945 14.675991 16.741453
-102.54839 14.246436 21.276075
-102.57598 12.654902 16.576508
-102.54568 12.647432 16.235636
-102.51984 12.643232 15.90048
-102.52032 12.659134 15.582931
-102.50377 12.661811 15.258362
-102.51387 12.684901 14.950506
-102.47032 12.666527 14.616749
-102.46822 12.679984 14.307025
-102.49564 12.652394 10.1436
-102.4751 12.650359 9.8523035
-102.48157 12.682796 9.2885876
-102.49335 12.705561 9.0106058
-102.48 12.708833 8.7263889
-102.45686 12.704476 8.4408121
-102.43943 12.704473 8.1580667
-102.49628 12.403495 10.11578
-102.57393 11.895907 16.737221
-102.60504 11.674388 16.700527
-102.5407 11.789682 8.0966663
-102.5655 11.007397 19.903505
-102.55025 11.012974 19.54524
-102.58415 11.378813 12.312749
-102.5385 11.492748 9.1745472
-102.55019 11.553114 8.0768175
-102.58604 11.139511 12.274977
-102.53886 11.251503 9.147831
-102.54238 11.305419 8.0522289
-102.51714 11.438083 4.8265638
-102.46921 11.452783 3.7632098
-102.47472 11.469175 3.4995365
-102.58967 10.487934 21.204205
-102.58806 10.876618 12.817847
-102.58061 10.884945 12.522675
-102.5786 10.897017 12.231571
-102.55882 10.896491 11.934893
-102.56007 10.910706 11.648454
-102.55133 10.917804 11.359634
-102.5482 10.928789 11.074492
-102.54291 10.938177 10.789996
-102.54331 10.951533 10.508895
-102.54559 11.017679 9.1209888
-102.55737 11.038808 8.8497238
-102.56716 11.058498 8.578619
-102.5489 11.07081 8.0291271
-102.49118 11.178555 4.8111191
-102.48118 11.232582 3.4925754
-102.53667 10.762465 9.3632755
-102.56636 10.795897 9.0974045
-102.58614 10.822354 8.8291168
-102.57179 10.837296 8.2802563
-102.5696 10.848203 8.0085955
-102.56543 10.857668 7.7373333
-102.55927 10.865697 7.4664912
-102.56724 10.883651 7.1994987
-102.56522 10.894529 6.9310083
-102.5451 10.892599 6.6597691
-102.54726 10.90636 6.3935452
-102.53941 10.91302 6.1261463
-102.52962 10.918283 5.8591251
-102.51792 10.922154 5.5925026
-102.52052 10.936131 5.3284984
-102.505 10.93724 5.0625625
-102.51193 10.954256 4.7998662
-102.4845 10.946851 4.5337749
-102.4958 10.966941 4.27212
-102.47271 10.962572 4.0076332
-102.45343 10.972901 3.4822745
-102.56808 8.593277 16.600935
-102.59959 8.6408577 15.998337
-102.58081 8.6430168 15.680949
-102.57468 8.6529293 15.373261
-102.5871 8.3806248 16.564405
-102.62659 8.5798016 12.716483
-102.6288 8.6571569 11.036083
-102.63219 8.6717052 10.762166
-102.57642 8.6492853 10.469148
-102.60804 8.6813192 10.207711
-102.58041 8.676302 9.9277248
-102.57513 8.6851931 9.6564636
-102.57597 8.6978483 9.3882647
-102.52197 8.6881104 8.8394766
-102.5535 8.4649162 9.3638163
-102.52995 8.6718826 4.4327869
-102.63146 7.9783268 16.517656
-102.50375 8.4939909 3.1658964
-102.50634 8.5068445 2.9136908
-102.49007 8.5079689 2.6609631
-102.49741 8.5237741 2.408952
-102.65112 7.7802548 16.502655
-102.59795 7.8418956 14.361337
-102.5499 8.1599073 6.4736152
-102.56876 8.1826601 6.2208076
-102.54341 8.1784954 5.961051
-102.61272 8.0188742 5.7219944
-102.55838 8.0412827 4.448236
-102.606 7.4453001 14.038397
-102.55114 7.6490488 8.538888
-102.52301 7.8189049 4.1988077
-102.61108 7.4427862 9.3328037
-102.66133 4.6857419 18.108135
-101.67296 54.613747 16.7397
-101.66534 54.635323 16.27457
-101.63505 54.609409 15.79737
-101.6238 54.623058 15.334303
-101.63917 54.631615 11.680606
-101.61624 54.61993 11.227395
-101.59586 54.613419 10.776874
-102.45164 16.623308 15.001947
-102.43158 16.621799 14.71542
-102.44678 16.643702 14.451252
-102.44467 16.653976 14.17931
-102.40991 16.642334 13.891978
-102.40319 16.649328 13.622081
-102.38659 16.649616 13.349189
-102.43392 16.611469 10.79437
-102.44144 16.627144 10.549994
-102.43118 16.630867 10.300165
-102.42693 16.638561 10.0539
-102.42878 16.650282 9.8109713
-102.39907 16.661497 9.0774298
-102.40153 16.673443 8.839057
-102.38605 16.673283 8.5963869
-102.3849 16.682713 8.3589153
-102.37387 16.685448 8.1196823
-102.36914 16.69239 7.8831077
-102.39735 16.285484 9.5342751
-102.41077 16.335077 8.5838757
-102.42085 16.519169 4.4276781
-102.40866 16.065483 10.747487
-102.40924 16.09701 10.015104
-102.40295 16.103186 9.7710991
-102.40282 16.11334 9.5303764
-102.40894 16.127523 9.2927065
-102.38893 16.124582 9.0478468
-102.38326 16.130962 8.8086672
-102.35948 16.125443 8.5653486
-102.38272 16.150681 8.3364048
-102.37161 16.15337 8.0986977
-102.35869 16.154827 7.861577
-102.36854 16.1712 7.6310415
-102.36028 16.175638 7.3968067
-102.35024 16.178883 7.1630468
-102.37137 16.202597 6.9367232
-102.40877 16.382084 3.3006411
-102.41003 16.392527 3.0747831
-102.38976 15.970082 8.5663891
-102.37351 15.745722 9.4980249
-102.37846 15.789164 8.5520725
-102.3544 15.738636 5.3224502
-102.51041 15.3192 13.512724
-102.50677 15.145826 13.489898
-102.45636 14.792864 17.014013
-102.46223 14.80881 16.728735
-102.46555 14.823101 16.444336
-102.45719 14.779473 13.422777
-102.47063 14.798736 13.17008
-102.48126 14.738542 10.897446
-102.51387 14.779056 10.423359
-102.50446 12.61491 16.454548
-102.46789 12.607168 16.150316
-102.46629 12.499491 15.046583
-102.45113 12.558127 9.7897015
-102.46038 12.715044 6.1596146
-102.47568 12.732608 5.9408522
-102.48929 12.749249 5.7219939
-102.44744 12.109179 9.7917461
-102.54491 12.227036 8.207963
-102.49343 12.218774 7.7417922
-102.46912 12.224596 7.2868304
-102.44118 12.219134 7.0574288
-102.44623 12.231018 6.8359056
-102.42931 12.11074 5.9557867
-102.44331 12.127159 5.7384243
-102.43715 11.958906 6.182652
-102.45296 11.976193 5.965395
-102.4583 11.988019 5.7467041
-102.46191 11.998941 5.5281053
-102.44308 11.816854 6.1860814
-102.56271 11.081538 8.1752291
-102.48945 11.054764 7.9312835
-102.51066 11.07419 7.7122674
-102.65301 4.9290719 18.424356
-102.74319 4.9672513 18.184483
-102.73042 4.9842253 17.581455
-102.61509 5.0425529 11.196193
-102.61355 5.050509 10.956738
-102.6685 5.0798273 7.0899577
-102.66739 5.0872507 6.8691444
-102.6339 5.0998168 6.205687
-101.61914 55.611492 17.478027
-102.40646 18.43001 21.956123
-102.39663 18.045664 21.81584
-102.41602 18.083199 21.418871
-102.40526 17.677523 21.689522
-102.39559 17.930634 16.996237
-102.38486 17.943106 16.617746
-102.41565 17.987448 16.261753
-102.41412 18.006771 15.892076
-102.39493 18.012321 15.516514
-102.39527 18.032845 15.152148
-102.37794 18.039574 14.782132
-102.39535 18.073086 14.429013
-102.3801 18.081194 14.064018
-102.35459 18.081228 13.697114
-102.37927 18.120108 13.351756
-102.37117 18.133451 12.99528
-102.36806 18.150579 12.642366
-102.38571 17.596493 16.152445
-102.37604 17.609634 15.781342
-102.37102 17.626196 15.414699
-102.39325 17.663414 15.062224
-102.36774 17.66412 14.690728
-102.35451 17.674057 14.326855
-102.3688 17.70492 13.976258
-102.3502 17.710537 13.614176
-102.35065 17.750261 12.910224
-102.37226 17.224382 16.057398
-102.44318 16.900099 16.376003
-102.43548 16.914867 16.006552
-102.43248 16.932976 15.641611
-102.40399 16.932091 15.267449
-102.41811 16.962633 14.914529
-102.40677 16.974201 14.552455
-102.38506 16.977947 14.188269
-102.38351 16.996546 13.834456
-102.37166 17.007378 13.478434
-102.3725 17.027552 13.129134
-102.42348 16.515099 16.656824
-102.34248 16.953402 1.1649377
-102.57878 13.292961 20.116201
-102.51827 12.754727 16.614073
-102.55737 12.978277 12.840304
-102.5556 12.994725 12.505901
-102.51859 12.989118 12.161106
-102.51149 13.002062 11.828469
-102.49361 13.008182 11.493988
-102.49772 13.027957 11.168026
-102.46643 13.025517 10.832798
-102.47369 13.047124 10.510514
-102.44549 13.046437 10.179527
-102.52243 12.424014 16.56436
-102.57436 12.47397 16.235435
-102.58275 12.515675 15.537662
-102.56757 12.631186 13.14014
-102.55383 12.674831 12.137436
-102.53774 12.8833 7.9466677
-102.39436 13.052834 2.9607363
-102.59538 12.136197 16.549206
-102.57033 12.350497 12.108186
-102.54092 12.383463 11.118117
-102.5508 12.406223 10.797015
-102.53328 12.412297 10.469192
-102.49654 12.40662 10.137707
-102.47112 12.440639 9.175005
-102.48283 12.464165 8.861146
-102.49218 12.486203 8.5474463
-102.45713 12.4811 8.2251453
-102.45325 12.494968 7.9105968
-102.47226 12.522791 7.6012101
-102.48051 12.544012 7.2902389
-102.44423 12.53791 6.9723158
-102.44777 12.556168 6.6620235
-102.4659 12.583353 6.3543715
-102.44788 12.588319 6.041945
-102.45292 12.607424 5.7332735
-102.4726 12.635528 5.4266214
-102.42637 12.686675 3.8827808
-102.59509 11.805845 16.499392
-102.56827 12.016503 12.073301
-102.53895 12.16381 8.8515949
-102.46729 12.169066 7.8944759
-102.4521 12.318453 4.8003345
-102.43304 12.354016 3.8795943
-102.44302 12.391474 3.2682283
-102.58298 11.627173 13.36394
-102.5862 11.645954 13.032533
-102.52676 11.644769 12.351681
-102.48273 11.797933 8.8153315
-102.52465 11.85452 8.1980133
-102.50391 11.858105 7.8817453
-102.57203 11.137484 16.385397
-102.56789 11.152727 16.034077
-102.55269 11.161554 15.680099
-102.54257 11.173152 15.330951
-102.52951 11.182948 14.982898
-102.51097 11.206518 14.296928
-102.51382 11.225071 13.962026
-102.48925 11.227838 13.618278
-102.55268 11.523534 8.4917641
-102.46665 11.126987 8.757144
-102.52727 11.177187 8.4592047
-102.49862 11.207268 7.5239768
-102.46424 11.202957 7.2098055
-102.47035 11.221824 6.9036803
-102.44975 11.240607 6.2881565
-102.59148 8.9838839 7.4103961
-102.71084 5.0802512 17.996502
-102.67066 5.3041611 6.3184681
-102.66325 5.3146782 6.0260215
-102.63501 5.3167734 5.7316775
-102.6228 5.3252835 5.4401913
-101.77961 50.539501 16.016575
-101.76291 50.539066 15.591174
-101.77999 50.592197 15.186015
-101.74895 50.568695 14.757158
-101.71066 50.533504 14.327343
-101.70119 50.544033 13.914148
-101.69489 50.559521 13.504166
-101.68665 50.571793 13.094875
-101.69198 50.605652 12.692958
-101.68505 50.619854 12.28703
-101.73798 50.357944 14.294488
-101.71801 50.351871 13.877287
-101.72192 50.383545 13.473173
-101.70834 50.387386 13.062518
-101.77589 50.520061 12.68819
-101.75331 50.509457 12.275876
-101.6981 50.596386 9.4692822
-101.74024 49.962997 17.143505
-101.68648 50.059238 14.227538
-101.71289 50.126373 13.83475
-101.70111 50.133099 13.424924
-101.74457 50.227081 13.041257
-101.77388 49.804104 17.120218
-101.70471 49.900799 13.797746
-101.69803 49.915447 13.391743
-101.75425 49.564339 17.07023
-101.68783 49.689045 13.360864
-102.44931 18.313332 22.96096
-102.39496 18.182556 22.895046
-102.46608 18.237665 22.585489
-102.39124 18.086473 22.880728
-102.3894 17.895378 22.860884
-102.43891 18.006704 18.084198
-102.46851 18.035662 17.785666
-102.44199 18.032452 17.45443
-102.40469 18.022947 17.120138
-102.45292 18.085451 16.230217
-102.443 18.091196 15.923344
-102.43818 18.099771 15.621909
-102.43857 18.11125 15.325709
-102.40478 18.102974 15.013943
-102.41576 18.120367 14.727986
-102.39248 18.117941 14.426844
-102.35857 18.109282 14.123142
-102.37003 18.126719 13.843742
-102.35505 18.128807 13.553764
-102.35371 18.138699 13.272145
-102.4509 17.902481 18.397673
-102.46478 17.958382 17.14303
-102.39109 18.134535 11.357676
-102.47127 17.817801 18.3967
-102.49055 17.733917 18.39649
-102.36344 18.203604 3.9527171
-102.36219 18.212151 3.7062705
-102.35908 18.219603 3.4598916
-102.33685 18.215864 3.2129593
-102.3559 18.236284 2.9676461
-102.32135 18.225292 2.7210596
-102.31945 18.233431 2.4753737
-102.30707 18.23542 2.2297039
-102.31009 18.246449 1.9839828
-102.478 17.634314 18.377897
-102.38383 18.173979 2.476872
-102.38012 18.181015 2.2307358
-102.37456 18.186966 1.9846058
-102.46594 17.535593 18.357033
-102.48728 17.594296 17.109478
-102.35358 18.086655 1.7382172
-102.32707 18.080338 1.4930825
-102.49294 17.458429 18.358984
-102.38169 17.997232 1.9808457
-102.37433 18.002022 1.7350866
-102.39105 18.020777 1.4884983
-102.49332 17.363119 18.336802
-102.3689 17.910471 1.4826233
-102.48601 17.262928 18.309591
-102.49086 17.31181 17.054512
-102.4286 17.667004 6.4078555
-102.42896 17.676359 6.1585174
-102.37134 17.797167 1.9668622
-102.37258 17.806885 1.7214195
-102.37196 17.815542 1.4758471
-102.48438 17.167261 18.289715
-102.48042 17.199768 17.340393
-102.48877 17.215694 17.035545
-102.43203 17.572664 6.3999505
-102.36694 17.7069 1.7170188
-102.36633 17.715521 1.471707
-102.47023 17.099625 17.317205
-102.36919 17.620651 1.4680097
-102.42933 17.388348 6.1362643
-102.43636 17.401308 5.8890209
-102.42415 17.403492 5.6394911
-102.42736 17.414289 5.3925872
-102.3547 17.507195 1.7105248
-102.46101 16.870195 18.224323
-102.46356 16.90589 17.282244
-102.47159 16.921457 16.978159
-102.47882 17.043079 13.744364
-102.46977 17.05854 13.17914
-102.43188 17.293369 6.130424
-102.41798 17.303633 5.6328177
-102.3104 17.403461 1.2204151
-102.45706 16.772125 18.208687
-102.44382 16.799284 17.257828
-102.47263 16.963911 13.171144
-102.46853 16.971767 12.891772
-102.42879 17.213282 5.6309018
-102.35042 17.311924 1.7077249
-102.34112 17.315582 1.4636716
-102.33867 17.323088 1.219294
-102.33435 17.329552 0.97482485
-102.40144 16.635099 18.482393
-102.45887 16.677292 18.200275
-102.43776 16.700203 17.245138
-102.46284 16.892334 12.333667
-102.44218 16.929934 10.980065
-102.34052 17.227156 1.2215897
-102.42306 16.596741 17.229242
-102.34267 17.130625 1.2253928
-102.32972 17.132256 0.9817456
-102.42089 16.502087 17.227171
-102.33831 17.021795 1.4776752
-102.34481 17.034136 1.2335222
-102.33195 17.035782 0.99004495
-102.40916 16.402145 17.222984
-102.44421 16.842564 5.3986797
-102.43449 16.863506 4.6607375
-102.43913 16.874758 4.4161878
-102.43313 16.880201 4.1709852
-102.43302 16.897547 3.6822009
-102.42038 16.314127 17.23382
-102.41087 16.21353 17.226763
-102.40476 16.111149 17.214586
-102.40223 16.007368 17.197908
-102.53874 15.832397 21.199596
-102.50549 15.136119 21.372141
-102.48561 15.138825 21.007793
-102.48439 15.150486 20.661856
-102.55041 15.0915 20.700535
-102.55357 15.105107 20.360924
-102.5458 15.113253 20.017155
-102.51937 15.11217 19.664158
-102.46612 14.892662 17.042053
-102.49017 14.806612 17.045954
-102.47408 14.700065 17.02664
-102.50599 14.616838 17.034924
-102.49683 14.514395 17.021999
-102.48591 14.411035 17.011387
-102.50766 14.322605 17.018751
-102.44717 14.235708 15.771667
-102.45168 14.258347 15.190438
-102.44993 14.267675 14.901177
-102.44553 14.275686 14.612857
-102.47996 14.301777 14.345632
-102.47045 14.307259 14.058883
-102.4667 14.315352 13.777025
-102.48646 14.242805 13.217556
-102.4705 14.264348 12.393154
-102.43477 14.257166 12.109929
-102.42755 14.309807 10.527029
-102.42716 14.318791 10.268353
-102.45943 14.343112 10.021085
-102.4635 14.354124 9.765852
-102.46545 14.364097 9.5110607
-102.42057 14.251719 9.235364
-102.41594 14.285436 8.2297344
-102.53466 12.786141 16.911697
-102.52465 12.793009 16.603563
-102.51984 12.801975 16.301222
-102.48746 12.799131 15.986523
-102.48502 12.808898 15.691071
-102.47149 12.813854 15.392303
-102.56177 12.79703 14.281765
-102.5601 12.806711 13.999617
-102.52189 12.800771 13.70293
-102.52348 12.811671 13.42665
-102.52258 12.821441 13.151139
-102.46773 12.808132 12.854762
-102.50474 12.833933 12.598998
-102.47914 12.832946 12.319139
-102.47697 12.8419 12.050575
-102.44639 12.838624 11.772901
-102.54007 12.831585 10.491251
-102.513 12.829518 10.224486
-102.48734 12.8374 9.7046595
-102.48006 12.84364 9.4484415
-102.47951 12.852724 9.1953068
-102.45004 12.849345 8.9355745
-102.44518 12.856489 8.6836958
-102.47657 12.893154 5.5025702
-102.44323 12.887581 5.257432
-102.45355 12.900872 5.0180535
-102.43453 12.901445 4.7759356
-102.4227 12.90511 4.5351396
-102.44238 12.611539 10.202626
-102.50543 12.562422 9.7108479
-102.44347 12.442341 9.6913738
-102.44269 12.348575 9.6905909
-102.55712 12.273407 10.493875
-102.48688 12.272389 9.7030153
-102.50477 12.185559 9.706131
-102.50317 12.092522 9.704711
-102.5536 11.99316 10.489638
-102.45647 11.981654 9.6916542
-102.48512 11.810843 9.7095327
-102.5387 11.154536 21.463661
-102.51262 11.561188 9.7374601
-102.61356 11.099513 21.528202
-102.55357 11.501041 9.5014248
-102.60887 11.011081 21.524471
-102.57562 11.42427 9.5086336
-102.60488 10.922913 21.518694
-102.49107 11.498051 4.1135983
-102.59803 10.837486 21.515572
-102.4944 11.416779 4.1162839
-102.58749 10.757254 21.515074
-102.62367 10.932716 16.967384
-102.58723 11.127594 11.062197
-102.59211 11.138686 10.803228
-102.58318 11.189701 9.263567
-102.48743 11.33411 4.1208138
-102.58176 10.681173 21.522209
-102.59447 11.05356 11.072349
-102.57316 11.108608 9.2681742
-102.57155 11.116847 9.0156937
-102.57686 11.1277 8.7660236
-102.57095 11.134222 8.5144901
-102.57201 11.143382 8.2656384
-102.56175 11.216947 6.0572238
-102.4884 11.255986 4.1278467
-102.55995 10.600196 21.518883
-102.62346 10.783083 16.987494
-102.57632 11.085816 7.779304
-102.56402 11.098273 7.2843928
-102.56395 11.106789 7.0393558
-102.57104 11.11803 6.7962699
-102.54846 11.117852 6.5487423
-102.56178 11.139894 6.0654011
-102.55157 11.144398 5.8220201
-102.54861 11.15167 5.5802555
-102.53439 11.154582 5.3376541
-102.52781 11.168779 4.8566561
-102.52621 11.17651 4.61693
-102.4892 11.178848 4.135994
-102.50034 11.191471 3.8982682
-102.4803 11.099532 4.1437292
-102.49153 11.112104 3.9060931
-102.58424 10.773417 12.693814
-102.4793 11.02527 4.1525445
-102.49065 11.037784 3.9149108
-102.52861 10.692053 12.412018
-102.48751 10.955772 4.1616077
-102.48965 10.964667 3.9232953
-102.56112 10.77354 8.3075027
-102.55088 10.875978 5.1331773
-102.46769 10.876476 4.1681013
-102.48859 10.89241 3.9311562
-102.47955 10.896952 3.6923823
-102.46857 10.900738 3.453851
-102.46497 10.907332 3.2159162
-102.46877 10.916746 2.9783347
-102.47063 10.92542 2.7407014
-102.46121 10.929782 2.5029607
-102.4592 10.936971 2.2653658
-102.45525 10.943419 2.0277739
-102.44936 10.949124 1.7902026
-102.45087 10.957668 1.5523955
-102.44111 10.961891 1.3148329
-102.43874 10.968953 1.0768964
-102.52925 10.798257 5.1405406
-102.4651 10.805736 4.1774988
-102.46745 10.814527 3.9393589
-102.45852 10.819032 3.7007544
-102.47566 10.833421 3.4636712
-102.46284 10.836435 3.2253072
-102.46675 10.845803 2.9877257
-102.45939 10.850879 2.749927
-102.45943 10.858768 2.5123463
-102.46687 10.869481 2.2747397
-102.44435 10.868771 2.0372512
-102.44791 10.878008 1.7995796
-102.4402 10.882942 1.562043
-102.43989 10.890706 1.3242042
-102.43342 10.904017 0.84824491
-102.61245 9.2393847 21.360615
-102.6731 9.2076654 21.045738
-102.60152 9.2183371 19.970726
-102.67405 8.9250021 21.031919
-102.67425 8.8726835 21.036861
-102.5566 8.8828678 16.773149
-102.54929 8.9006281 16.167664
-102.61133 8.8541679 16.815435
-102.60114 8.8608818 16.506922
-102.58784 8.8664722 16.199648
-102.56299 8.868125 15.889194
-102.55207 8.8743095 15.588953
-102.5639 8.8879728 15.302779
-102.54717 8.8920574 15.0047
-102.65313 8.8640175 13.922683
-102.6032 8.8845348 12.792721
-102.58907 8.8980055 12.244302
-102.59174 8.9168739 11.709148
-102.57594 8.920475 11.437842
-102.56669 8.9262133 11.170575
-102.56405 8.9341259 10.907122
-102.55904 8.9411955 10.644344
-102.54261 8.9443569 10.379436
-102.55112 8.9558916 10.123657
-102.53913 8.9604578 9.8629627
-102.52483 8.9641943 9.6030369
-102.52609 8.9816532 9.0952215
-102.51421 8.9860802 8.8397255
-102.63331 8.8348598 13.082107
-102.62131 8.8401337 12.802743
-102.63405 8.8627605 12.264069
-102.61439 8.8652859 11.98735
-102.60112 8.8698854 11.71495
-102.59435 8.8766022 11.446644
-102.60319 8.8884993 11.18529
-102.56448 8.8843813 10.909436
-102.59575 8.9037247 10.658233
-102.57941 8.9070158 10.392909
-102.58801 8.9186592 10.136713
-102.56697 8.9202681 9.8729382
-102.57104 8.9302979 9.617835
-102.51784 8.9209366 9.3482218
-102.54492 8.9386654 9.1017818
-102.54228 8.94631 8.8483582
-102.52821 8.9500456 8.5932131
-102.52121 8.96457 8.0912838
-102.53767 8.97857 7.846014
-102.51488 8.9791965 7.5932407
-102.51784 8.9885511 7.3467011
-102.65151 8.7831497 13.369273
-102.63412 8.8776083 10.412104
-102.63376 8.8863001 10.152576
-102.62617 8.9012461 9.6352711
-102.5272 8.8765593 9.3526011
-102.6003 8.9098549 9.1180391
-102.57935 8.9113836 8.859375
-102.55612 8.9120941 8.6015673
-102.51214 8.9057293 8.3403301
-102.56776 8.9330597 8.1030979
-102.54718 8.9345484 7.8493814
-102.57089 8.9510326 7.6059303
-102.54601 8.9509897 7.353354
-102.54691 8.9596806 7.1067734
-102.54574 8.967638 6.8605137
-102.54248 8.9748631 6.614594
-102.51731 8.8279724 9.3530264
-102.60882 8.8674507 9.1232872
-102.51151 8.8603926 8.3429146
-102.60233 8.9335108 7.1192985
-102.59191 8.9383745 6.8707962
-102.57003 8.9393101 6.6212516
-102.616 8.8265963 9.1293526
-102.59538 8.513773 16.844761
-102.63638 8.6467829 13.379319
-102.60466 8.7815428 9.1303005
-102.55777 8.4630976 16.831573
-102.55611 8.4729433 16.527445
-102.57779 8.5005159 15.940281
-102.57949 8.5212402 15.352159
-102.52866 8.7085676 9.3685417
-102.62035 8.7480154 9.1383953
-102.5518 8.4676819 15.643064
-102.56317 8.5010509 14.775946
-102.63262 8.5906372 12.8416
-102.58798 8.7010632 9.1374149
-102.55522 8.4475832 15.367374
-102.55875 8.4778194 14.50247
-102.60155 8.5755568 12.027696
-102.62458 8.5921946 11.767632
-102.6363 8.6050434 11.504667
-102.60054 8.6020784 11.226732
-102.5984 8.6102209 10.962118
-102.57285 8.6624088 9.1444016
-102.55276 8.5896015 10.177257
-102.55956 8.600421 9.9208851
-102.56413 8.6104565 9.6649418
-102.54598 8.6296978 8.8952303
-102.54162 8.6365986 8.6413841
-102.61902 8.6792307 8.1560984
-102.50961 8.7480898 4.9394383
-102.55756 8.4195929 14.532938
-102.58317 8.644413 7.9075589
-102.61681 8.6638689 7.6647539
-102.62046 8.6732254 7.4162416
-102.50043 8.7597408 3.4984877
-102.48488 8.7935944 2.296041
-102.56001 8.3269491 16.607862
-102.55798 8.3455973 16.005594
-102.56532 8.3575239 15.712617
-102.55305 8.3816462 14.830661
-102.55099 8.399353 14.257224
-102.55001 8.751874 3.2645216
-102.55464 8.7611961 3.0235448
-102.52891 8.7601242 2.7819791
-102.52956 8.7680759 2.5411708
-102.54714 8.7818327 2.30035
-102.50599 8.7754421 2.0596836
-102.49122 8.7780962 1.819219
-102.58682 8.3072271 16.632437
-102.57482 8.312932 16.323586
-102.56823 8.3203087 16.020462
-102.56718 8.3294077 15.722861
-102.58895 8.3458824 15.439196
-102.56496 8.3473339 15.134965
-102.5639 8.3561983 14.844572
-102.56004 8.3640757 14.555128
-102.55275 8.3797541 13.983114
-102.57241 8.7421894 2.7844033
-102.56364 8.746851 2.5429788
-102.56234 8.7540655 2.301713
-102.55904 8.7605982 2.0604465
-102.55376 8.7664471 1.8191975
-102.54648 8.7716122 1.5779847
-102.52776 8.7728443 1.3371712
-102.53539 8.7831411 1.0953078
-102.50325 8.7797499 0.85526478
-102.58931 8.276659 16.641748
-102.60281 8.290638 16.346365
-102.58791 8.29529 16.038385
-102.59556 8.3072062 15.744857
-102.5832 8.3125181 15.443572
-102.58419 8.3312988 14.861234
-102.63503 8.2585182 16.673859
-102.63185 8.2670851 16.368849
-102.6042 8.2863779 15.460576
-102.59763 8.2935047 15.164406
-102.54321 8.3760338 9.9764194
-102.62602 8.1917791 15.830598
-102.6301 8.3311539 11.329518
-102.63828 8.3420296 11.065741
-102.62597 8.346076 10.79659
-102.61122 8.349267 10.528291
-102.57582 8.3455515 10.255335
-102.57449 8.353097 9.9943447
-102.58002 8.3628855 9.7365427
-102.62645 8.3269005 10.27538
-102.60688 8.3600025 8.9759331
-102.61279 8.3697863 8.7219505
-102.5067 8.4183702 5.9524236
-102.60381 8.3219357 8.9791584
-102.54676 8.4101582 5.469234
-102.51576 8.4221954 4.7325106
-102.60107 8.283432 8.982255
-102.56823 8.4099808 4.4950852
-102.57674 8.3685293 4.7397647
-102.55608 8.3690395 4.4936342
-102.66687 7.9933763 16.78636
-102.55619 8.3245001 4.7322621
-102.55437 8.3313541 4.4878116
-102.63096 8.189393 8.7229481
-102.55512 8.2867117 4.7225218
-102.57211 8.2999439 4.479568
-102.67879 7.9171243 16.781612
-102.58179 8.2579069 4.7181687
-102.57039 8.2616472 4.472497
-102.67774 7.8776693 16.782196
-102.56119 8.2133598 4.7133002
-102.56864 8.2234631 4.4692931
-102.55947 8.1755457 4.709672
-102.5669 8.1856441 4.4655762
-102.67471 7.8030987 16.782246
-102.55711 8.1383314 4.7058573
-102.57397 8.1515789 4.4624577
-102.66282 7.7648339 16.780298
-102.55457 8.1018028 4.7047429
-102.54307 8.1055231 4.4589024
-102.65792 7.7289076 16.786022
-102.57066 8.0715799 4.7084279
-102.56865 8.0784588 4.4631095
-102.66205 7.6945305 16.795036
-102.55801 8.0320101 4.7082167
-102.56547 8.0420542 4.4636831
-102.64336 7.6505637 16.787285
-102.56506 7.9985876 4.7068791
-102.55358 8.0023527 4.4606047
-102.63445 7.6092668 16.782009
-102.56265 7.9628677 4.7025638
-102.54166 7.9635324 4.4554238
-102.62472 7.5687819 16.776638
-102.55006 7.9245973 4.6972775
-102.56683 7.9379296 4.4532642
-102.62951 7.5362787 16.783979
-102.62973 7.6026173 14.690594
-102.56535 7.8971162 4.6980324
-102.56322 7.9041734 4.4521985
-102.63129 7.505713 16.795874
-102.56106 7.8641214 4.7015591
-102.56841 7.8743315 4.4564185
-102.59734 7.4652133 16.791138
-102.6156 7.5370517 14.705879
-102.5463 7.8287215 4.7060332
-102.52532 7.8294716 4.4585466
-102.55264 7.675159 8.7174959
-102.55078 7.8006206 4.7103863
-102.52985 7.8013844 4.4627242
-102.63834 7.4851508 14.732345
-102.58805 7.6492958 8.986474
-102.58478 7.6563334 8.7282019
-102.57434 7.7792702 4.7133374
-102.56288 7.7832093 4.4661112
-102.57005 7.4357886 14.709476
-102.59113 7.4516835 14.429133
-102.60959 7.4666867 14.149304
-102.55984 7.6205754 8.7274685
-102.53059 7.73704 4.712235
-102.5475 7.7504101 4.4676204
-102.62901 7.261065 20.096844
-102.57402 7.5909181 8.9983406
-102.59863 7.6070762 8.7466478
-102.58089 7.727282 4.7240143
-102.5317 7.7186308 4.4732928
-102.58456 7.5695891 9.0111637
-102.57227 7.5736022 8.7502117
-102.55533 7.6933455 4.7289395
-102.55348 7.7004189 4.4822335
-102.56371 7.5472155 8.7572403
-102.56687 7.672636 4.7363181
-102.53673 7.6702251 4.4869804
-102.54089 7.6400466 4.739675
-102.53918 7.6470361 4.4927917
-102.54206 7.5250802 7.7445397
-102.61214 7.5559282 7.5047121
-102.53407 7.6137257 4.7433567
-102.54185 7.6238332 4.4971771
-102.53238 7.551578 5.9875236
-102.62586 7.5901604 5.7506495
-102.62316 7.5968056 5.5008912
-102.52693 7.5872798 4.7462916
-102.53475 7.5973568 4.5000253
-102.60717 7.0824571 16.636953
-102.61208 7.0932641 16.332279
-102.62606 6.932076 20.925127
-102.63696 7.0643802 16.65543
-102.62497 7.0697989 16.341444
-102.65263 7.0878701 16.050642
-102.61738 7.0856509 15.730226
-102.6134 7.0934024 15.428363
-102.62381 7.1057158 15.135845
