# .PCD v0.7 - Point Cloud Data file format
VERSION 0.7
FIELDS x y z
SIZE 4 4 4
TYPE F F F
COUNT 1 1 1
WIDTH 1561
HEIGHT 1
VIEWPOINT 0 0 0 1 0 0 0
POINTS 1561
DATA ascii
-100.499 35.513878 3.9142075
-100.50494 35.536926 3.6188624
-100.49624 35.542789 3.3227427
-100.50531 35.56953 3.0272372
-100.49974 35.579075 2.7311764
-100.48602 35.579029 2.4351003
-100.47063 35.577011 2.1392002
-100.40829 35.519657 1.8447602
-100.64179 34.848621 16.658226
-100.64359 34.904984 15.652252
-100.64202 34.92107 15.319747
-100.63837 34.934669 14.988054
-100.65121 34.967007 14.667449
-100.64347 34.975742 14.337226
-100.62746 34.974899 14.004657
-100.6156 34.97871 13.676354
-100.62049 35.001587 13.358274
-100.62972 35.029366 13.043692
-100.61192 35.02607 12.717793
-100.61102 35.042065 12.401453
-100.6019 35.04855 12.082943
-100.60351 35.067276 11.770543
-100.58424 35.061928 11.450861
-100.6075 35.105423 11.149673
-100.59083 35.102913 10.83384
-100.58501 35.112827 10.523553
-100.57737 35.120564 10.21384
-100.58069 35.140884 9.9090443
-100.58223 35.159103 9.6045332
-100.56916 35.1604 9.2963514
-100.56071 35.166973 8.9907494
-100.55692 35.178867 8.6874952
-100.55136 35.188683 8.3846245
-100.5505 35.203884 8.083807
-100.5479 35.217037 7.7832484
-100.54356 35.228146 7.4829736
-100.54398 35.24472 7.1843939
-100.5362 35.251766 6.8846707
-100.51376 35.24173 6.5828724
-100.52199 35.267296 6.2874398
-100.52205 35.283352 5.9908466
-100.52042 35.297421 5.6943312
-100.52358 35.317062 5.3987846
-100.5056 35.312038 5.1008444
-100.51189 35.3353 4.8061743
-100.49702 35.333866 4.5095043
-100.49347 35.345615 4.2142396
-100.50773 35.378166 3.9203138
-100.48783 35.370808 3.6241996
-100.49874 35.39946 3.3298116
-100.48199 35.39576 3.0343232
-100.49605 35.428116 2.7395599
-100.48894 35.435703 2.4442608
-100.47367 35.433716 2.1490531
-100.42432 35.391716 1.8549309
-100.65468 34.781616 15.637441
-100.63466 34.776497 15.29468
-100.62481 34.782818 14.960219
-100.61906 34.793682 14.630184
-100.62369 34.816261 14.307694
-100.60762 34.815166 13.976025
-100.61449 34.840115 13.658136
-100.60689 34.848473 13.334544
-100.60986 34.868813 13.017791
-100.60462 34.879688 12.698643
-100.60374 34.895477 12.383053
-100.59464 34.901772 12.065291
-100.58362 34.905777 11.748308
-100.61514 34.958454 11.450228
-100.58129 34.936157 11.126788
-100.5901 34.962696 10.82163
-100.56519 34.950466 10.505022
-100.57676 34.980057 10.20298
-100.57375 34.992847 9.8967037
-100.57536 35.010899 9.5929585
-100.54305 34.989872 9.2795658
-100.56038 35.025909 8.9826097
-100.55021 35.030251 8.6782188
-100.54472 35.039928 8.3761168
-100.55686 35.069901 8.0793686
-100.5285 35.053085 7.7731619
-100.53718 35.079006 7.4767847
-100.53121 35.087967 7.1775908
-100.51055 35.079895 6.8761215
-100.5206 35.107315 6.5814376
-100.51598 35.117733 6.2843518
-100.51614 35.133686 5.9885383
-100.51463 35.147659 5.6928024
-100.49842 35.144566 5.3954272
-100.48701 35.147022 5.0993061
-100.48695 35.162613 4.8048978
-100.47218 35.16111 4.5092659
-100.48177 35.187923 4.2160878
-100.47017 35.190063 3.9212973
-100.48944 35.228153 3.6284819
-100.47449 35.226387 3.3337514
-100.47739 35.245426 3.0398231
-100.46561 35.247337 2.7455032
-100.45216 35.247295 2.4513359
-100.45004 35.26049 2.1571665
-100.39426 35.210957 1.8642495
-100.68034 34.604961 16.976452
-100.67524 34.617031 16.633766
-100.60928 34.577747 15.921491
-100.64056 34.630581 15.608223
-100.6514 34.660198 15.28418
-100.64162 34.666378 14.950122
-100.6173 34.655956 14.610234
-100.62822 34.685371 14.291739
-100.61217 34.684109 13.960638
-100.62539 34.715973 13.646501
-100.59901 34.702751 13.314133
-100.59573 34.715694 12.99512
-100.59682 34.733521 12.679724
-100.59599 34.749088 12.364884
-100.58691 34.755188 12.047872
-100.58227 34.766254 11.73431
-100.56937 34.767822 11.418798
-100.58008 34.796272 11.114134
-100.54426 34.771503 10.792722
-100.55769 34.802944 10.49138
-100.56294 34.824989 10.187854
-100.55357 34.830242 9.8802614
-100.54881 34.840714 9.5753736
-100.55514 34.863842 9.2749548
-100.55326 34.877529 8.9727926
-100.53671 34.874317 8.667345
-100.53776 34.89127 8.3678341
-100.52412 34.891304 8.0652599
-100.52818 34.911621 7.767983
-100.50455 34.900074 7.4649057
-100.51814 34.931297 7.1710062
-100.53004 34.960567 6.8769207
-100.50773 34.950397 6.5765758
-100.50972 34.968204 6.2814856
-100.49699 34.969013 5.9843588
-100.50211 34.990391 5.6905341
-100.49904 35.002289 5.3957648
-100.47471 34.989594 5.0987635
-100.48782 35.020184 4.8066196
-100.45361 34.995972 4.5098443
-100.45032 35.007553 4.2165775
-100.46494 35.039883 3.9246616
-100.4518 35.040016 3.6308861
-100.45003 35.053341 3.3378952
-100.43354 35.049576 3.0444858
-100.43496 35.066601 2.7516453
-100.41514 35.058941 2.4586046
-100.41322 35.072086 2.1656539
-100.35751 35.022621 1.8739378
-100.72777 34.523335 16.983425
-100.73505 34.549156 16.648552
-100.70629 34.551674 15.958413
-100.70708 34.569836 15.626178
-100.70576 34.585522 15.294724
-100.69615 34.591728 14.96058
-100.67818 34.588394 14.624023
-100.66433 34.589581 14.292009
-100.64838 34.588284 13.961067
-100.66174 34.620056 13.647099
-100.63542 34.606827 13.314887
-100.63226 34.619713 12.996038
-100.62714 34.630302 12.677883
-100.61375 34.631409 12.35761
-100.61109 34.644619 12.043771
-100.60653 34.655598 11.730541
-100.5937 34.657097 11.415361
-100.58536 34.66362 11.10352
-100.57514 34.667934 10.792372
-100.58871 34.69928 10.491286
-100.57481 34.699276 10.181263
-100.56551 34.70443 9.874176
-100.56727 34.722153 9.5718784
-100.56079 34.730434 9.2678967
-100.54607 34.729229 8.9625111
-100.53602 34.733307 8.6596537
-100.53716 34.75013 8.3608284
-100.52357 34.750072 8.0589361
-100.51473 34.755379 7.7592158
-100.51065 34.766102 7.4614334
-100.50484 34.774807 7.1639595
-100.50382 34.788982 6.8681254
-100.48806 34.786201 6.5700316
-100.49667 34.811378 6.2770281
-100.47097 34.797092 5.9786682
-100.48927 34.833366 5.6878076
-100.47975 34.837654 5.3930306
-100.48163 34.855022 5.1001258
-100.46875 34.855381 4.8057928
-100.44765 34.846233 4.5111895
-100.45758 34.872849 4.2197566
-100.45275 34.882442 3.9271374
-100.45279 34.897652 3.634932
-100.45116 34.910934 3.3426371
-100.44787 34.922283 3.0502744
-100.45597 34.946838 2.7580469
-100.43626 34.93919 2.465435
-100.43449 34.952316 2.172919
-100.39186 34.918083 1.881278
-100.66875 34.351669 16.240665
-100.67863 34.46452 14.274826
-100.60818 34.594704 10.177347
-100.5666 34.609768 8.9557934
-100.57602 34.635956 8.6588373
-100.55717 34.645271 8.0568085
-100.56137 34.665413 7.7604795
-100.5378 34.653809 7.4583387
-100.53854 34.66993 7.1626039
-100.53106 34.676609 6.8657203
-100.50878 34.666344 6.5667486
-100.51746 34.691448 6.274179
-100.4983 34.684658 5.9772978
-100.49051 34.690865 5.6829391
-100.48758 34.702606 5.38973
-100.46332 34.689857 5.0942812
-100.47012 34.71273 4.8030062
-100.44903 34.703575 4.5090961
-100.44593 34.71505 4.2173071
-100.44772 34.73214 3.925998
-100.44128 34.739761 3.6342239
-100.43972 34.753002 3.3428001
-100.42339 34.749222 3.050952
-100.43816 34.781277 2.7598629
-100.43815 34.79631 2.4682198
-100.42992 34.801865 2.1764841
-100.38729 34.767704 1.8856221
-100.62299 34.105667 17.184135
-100.46763 34.640747 3.3383088
-100.45951 34.66143 2.7559776
-100.43816 34.666897 2.1736391
-100.38233 34.617706 1.8837358
-100.65544 33.997154 17.15958
-100.64075 34.117699 14.505677
-100.641 33.833622 17.100298
-100.62351 33.951622 14.454161
-100.58053 34.130196 10.087646
-100.68597 33.737068 17.085396
-100.62968 33.812958 14.420079
-100.57098 33.974998 10.05846
-100.57661 33.438713 17.6507
-100.56767 33.813465 10.336778
-100.5288 33.629242 10.305511
-100.30287 33.819008 1.8666507
-100.52757 33.489002 10.289876
-100.55949 32.989754 17.88171
-100.55432 33.019505 17.202608
-100.49905 33.320698 10.264665
-100.57933 32.910419 17.18713
-100.49718 33.181164 10.247113
-100.53672 32.691814 17.797709
-100.57418 32.767113 17.150772
-100.51521 33.062794 10.236411
-100.23682 33.219917 1.3157156
-100.5812 32.6371 17.122551
-100.5001 32.908592 10.213905
-100.51905 32.401264 17.716782
-100.54967 32.46875 17.068714
-100.51717 32.302063 17.013613
-100.44086 32.57476 10.156716
-100.50397 32.155842 16.968758
-100.40145 32.352818 11.004315
-100.39763 32.364006 10.707638
-100.40521 32.387352 10.416344
-100.43754 32.437191 10.134613
-100.46385 32.495678 9.5591221
-100.45107 32.497005 9.2641821
-100.41894 32.237148 10.985617
-100.42164 32.255299 10.691858
-100.40926 32.257294 10.393659
-100.43491 32.299831 10.110183
-100.40807 32.316292 9.2293444
-100.43046 32.11451 10.962372
-100.43304 32.13253 10.669119
-100.42051 32.134426 10.371429
-100.43277 32.162617 10.083798
-100.40547 32.178688 9.2050085
-100.42345 31.989483 10.638466
-100.41741 31.998266 10.34395
-100.40852 32.049026 9.1823168
-100.19999 32.21867 1.5884329
-100.41872 31.854246 10.612434
-100.40601 31.712332 10.58569
-100.44769 30.86755 17.912334
-100.44433 30.914196 16.92351
-100.49253 30.589071 16.873329
-100.35194 29.499407 17.876717
-100.3453 29.254702 17.813059
-100.32987 29.255602 17.477394
-100.37652 29.316584 17.186804
-100.33359 29.12665 17.778482
-100.39048 29.212948 17.170965
-100.32024 28.998365 17.746304
-100.38999 29.096516 17.148792
-100.35188 29.222565 13.734898
-100.33924 28.900948 17.73633
-100.42216 29.011187 17.148045
-100.32083 28.767948 17.69515
-100.29846 28.761827 17.357203
-100.31735 28.631695 17.987293
-100.3102 28.640154 17.657698
-100.30078 28.496281 17.946198
-100.30635 28.516748 17.626362
-100.29659 28.522568 17.298487
-100.29018 28.380384 17.585787
-100.29321 28.398266 17.267517
-100.29486 28.26265 17.556061
-100.29121 28.274214 17.233809
-100.32449 28.320383 16.938858
-100.28336 28.296457 16.596811
-100.30564 28.332085 16.298843
-100.2927 28.334436 15.980556
-100.28409 28.340746 15.667521
-100.27988 28.351105 15.359527
-100.29356 28.37825 15.064162
-100.2716 28.371628 14.750197
-100.3278 28.466684 13.887828
-100.31768 28.470901 13.588178
-100.21516 28.427889 12.38037
-100.24975 28.474148 12.11089
-100.28822 28.119287 17.839064
-100.28284 28.144344 17.194777
-100.30282 28.177925 16.891703
-100.31404 28.203215 16.584801
-100.30984 28.213932 16.270126
-100.29007 28.209921 15.948181
-100.29458 28.228582 15.643816
-100.29023 28.238823 15.336224
-100.28368 28.246885 15.029569
-100.27493 28.252781 14.723883
-100.28478 28.290041 14.133811
-100.29003 28.308849 13.841526
-100.29326 28.325674 13.549839
-100.27397 28.321157 13.248549
-100.26627 28.327494 12.955058
-100.24968 28.325329 12.659166
-100.23103 28.321127 12.364311
-100.23107 28.334526 12.079761
-100.22226 28.339474 11.792807
-100.21206 28.369293 10.947745
-100.21655 28.386593 10.671739
-100.20519 28.388796 10.390958
-100.2157 28.488361 8.4873257
-100.16857 28.455957 8.205759
-100.17645 28.476057 7.940135
-100.27179 27.967327 18.119713
-100.26597 27.97711 17.79215
-100.27971 28.01993 17.162771
-100.29298 28.047146 16.855871
-100.30404 28.072199 16.549601
-100.31952 28.101284 16.248201
-100.2996 28.097189 15.926655
-100.29733 28.109474 15.618631
-100.29954 28.125847 15.315495
-100.27271 28.114916 14.997552
-100.29075 28.145924 14.707774
-100.27972 28.149599 14.403412
-100.28011 28.163876 14.107388
-100.258 28.156937 13.801381
-100.27467 28.186344 13.517574
-100.26888 28.194555 13.223841
-100.25417 28.194298 12.927598
-100.2374 28.192001 12.632366
-100.23239 28.200689 12.344498
-100.24618 28.22703 12.066603
-100.23035 28.225374 11.776985
-100.24036 28.248035 11.499973
-100.21367 28.235968 11.209126
-100.22691 28.26156 10.935925
-100.21734 28.265537 10.65493
-100.21291 28.274309 10.377234
-100.19852 28.286446 9.8235893
-100.18755 28.339594 8.4666576
-100.19714 28.361303 8.2011299
-100.17653 28.354242 7.9284296
-100.16841 28.359024 7.659965
-100.15856 28.362116 7.3919616
-100.15936 28.412497 6.3353601
-100.26004 27.853477 17.762348
-100.27777 27.884893 17.454599
-100.28014 27.901953 17.138512
-100.29993 27.935093 16.836458
-100.29111 27.941536 16.517696
-100.28658 27.951839 16.204283
-100.28641 27.966099 15.896014
-100.27732 27.971945 15.58457
-100.27939 27.988077 15.282152
-100.26583 27.989536 14.972722
-100.27706 28.014023 14.679693
-100.27946 28.030188 14.383447
-100.26619 28.031605 14.0806
-100.27122 28.050045 13.789536
-100.2537 28.047306 13.488597
-100.24778 28.055323 13.195599
-100.26045 28.080692 12.913405
-100.24362 28.078321 12.618584
-100.23166 28.080421 12.327965
-100.21768 28.080555 12.038247
-100.21562 28.091797 11.755453
-100.22558 28.114279 11.479109
-100.21274 28.115257 11.194587
-100.21197 28.127527 10.916396
-100.20934 28.137987 10.638735
-100.20486 28.146645 10.361627
-100.20557 28.160149 10.087589
-100.21155 28.17856 9.8163919
-100.2016 28.181892 9.5408306
-100.1935 28.224688 8.4591761
-100.18172 28.226049 8.1883821
-100.18246 28.239225 7.921803
-100.18149 28.250738 7.6554933
-100.1645 28.247011 7.3861918
-100.16008 28.255188 7.120656
-100.16051 28.280245 6.5933695
-100.16537 28.297174 6.3313155
-100.25285 27.715586 18.053844
-100.2663 27.742989 17.741261
-100.25782 27.750008 17.415779
-100.27975 27.785021 17.11375
-100.29291 27.811827 16.807793
-100.28397 27.818075 16.489578
-100.27932 27.82818 16.176716
-100.29909 27.860806 15.881414
-100.27657 27.854113 15.562171
-100.25168 27.845097 15.244319
-100.27167 27.877655 14.955178
-100.28288 27.901979 14.662552
-100.2513 27.886406 14.348025
-100.25148 27.900278 14.053298
-100.27009 27.931238 13.770032
-100.27306 27.94755 13.480059
-100.25339 27.942669 13.180483
-100.2316 27.935711 12.882057
-100.23535 27.952513 12.597795
-100.2233 27.954473 12.307753
-100.23704 27.980473 12.030937
-100.20017 27.959045 11.733402
-100.21706 27.987873 11.460639
-100.20415 27.988729 11.1767
-100.21036 28.007433 10.901842
-100.2077 28.017775 10.624684
-100.20319 28.026318 10.34808
-100.21095 28.046335 10.077042
-100.19572 28.044691 9.799037
-100.1928 28.054565 9.5264769
-100.18462 28.096901 8.4472036
-100.1871 28.111654 8.1808052
-100.18787 28.124748 7.9146543
-100.17975 28.129423 7.6470451
-100.16273 28.125643 7.3782568
-100.1655 28.140533 7.1147923
-100.16659 28.153805 6.8514886
-100.15254 28.177076 6.0615425
-100.1469 28.183872 5.7991772
-100.13783 28.199499 5.2762098
-100.25007 27.593384 18.017479
-100.25684 27.614523 17.700825
-100.24812 27.621302 17.375963
-100.27647 27.662085 17.079004
-100.29608 27.694738 16.777966
-100.28698 27.700815 16.460222
-100.26884 27.698444 16.139402
-100.24832 27.693731 15.819912
-100.24556 27.705301 15.513955
-100.26752 27.739635 15.224824
-100.26719 27.753265 14.924309
-100.24436 27.745968 14.613161
-100.25328 27.767973 14.322021
-100.23969 27.769022 14.02047
-100.25816 27.799734 13.737851
-100.24725 27.803082 13.441545
-100.24111 27.810793 13.14961
-100.23985 27.822945 12.861827
-100.22275 27.820282 12.568239
-100.22442 27.835007 12.285184
-100.23112 27.854349 12.005782
-100.21499 27.852352 11.717824
-100.21086 27.861473 11.43665
-100.20483 27.868744 11.156126
-100.21095 27.887304 10.88177
-100.20821 27.897522 10.605115
-100.20361 27.905951 10.329015
-100.19716 27.912596 10.053493
-100.19596 27.924097 9.7809849
-100.19296 27.933863 9.5089331
-100.17735 27.96907 8.4297171
-100.16547 27.970257 8.16012
-100.15182 27.969736 7.8911138
-100.1651 27.99452 7.6296296
-100.15517 27.997423 7.3631716
-100.15789 28.012209 7.1003079
-100.15893 28.025381 6.8376074
-100.15107 28.030144 6.5737071
-100.14874 28.040083 6.3114791
-100.24252 27.464823 17.974117
-100.26212 27.497696 17.66729
-100.24002 27.492268 17.333839
-100.28137 27.544865 17.046398
-100.28094 27.559063 16.732708
-100.27155 27.564905 16.415676
-100.27314 27.58073 16.108212
-100.25238 27.575895 15.789202
-100.25615 27.5935 15.487778
-100.251 27.602795 15.183139
-100.25718 27.622433 14.88724
-100.25447 27.63378 14.588186
-100.24962 27.643059 14.28998
-100.24948 27.656595 13.996305
-100.24727 27.668131 13.703373
-100.243 27.677677 13.411212
-100.24357 27.691624 13.12326
-100.2283 27.690828 12.829317
-100.22485 27.700882 12.54288
-100.23333 27.721926 12.26348
-100.21899 27.721735 11.975257
-100.20963 27.726099 11.690962
-100.19133 27.722063 11.404549
-100.19915 27.742235 11.130435
-100.19809 27.754099 10.853918
-100.19518 27.764175 10.577935
-100.19041 27.772469 10.30251
-100.18379 27.778986 10.027665
-100.19664 27.803595 9.7606478
-100.17929 27.799994 9.4844599
-100.17435 27.807907 9.2135677
-100.16624 27.825262 8.6753874
-100.17028 27.841442 8.409955
-100.17259 27.855972 8.1447515
-100.16601 27.862137 7.8779888
-100.15482 27.876217 7.3474541
-100.15026 27.884167 7.0835538
-100.144 27.890486 6.8199892
-100.13673 27.920101 6.0351419
-100.24756 27.347815 17.940931
-100.24731 27.362532 17.62075
-100.23806 27.368912 17.297058
-100.27266 27.415188 17.005705
-100.27198 27.429167 16.69264
-100.27564 27.447001 16.384821
-100.26366 27.450417 16.069407
-100.25606 27.457712 15.759302
-100.25291 27.468981 15.454301
-100.24078 27.471905 15.146249
-100.24676 27.491333 14.85099
-100.25063 27.508741 14.556394
-100.24557 27.517862 14.258755
-100.23839 27.524935 13.961995
-100.25658 27.555267 13.680425
-100.24527 27.558361 13.385185
-100.23186 27.559435 13.09091
-100.2233 27.564892 12.800952
-100.21272 27.56839 12.51185
-100.22104 27.589251 12.23311
-100.1925 27.576015 11.9394
-100.21095 27.60611 11.667912
-100.21354 27.621489 11.390735
-100.20017 27.622042 11.10839
-100.19193 27.627266 10.829633
-100.18886 27.637224 10.554238
-100.2052 27.665121 10.287128
-100.19848 27.671587 10.012623
-100.19704 27.682896 9.7411289
-100.17954 27.679237 9.4654531
-100.16734 27.680435 9.1928358
-100.18192 27.706497 8.9294987
-100.15575 27.707001 8.3890333
-100.15795 27.721422 8.1245146
-100.14703 27.748144 7.3309193
-100.14958 27.762772 7.0691743
-100.25039 27.231539 17.909391
-100.24998 27.246061 17.589676
-100.22735 27.240276 17.257397
-100.26842 27.292263 16.971109
-100.26756 27.306028 16.658592
-100.25102 27.305399 16.338451
-100.25888 27.32688 16.036461
-100.23763 27.321714 15.718646
-100.24102 27.338898 15.418414
-100.25578 27.366379 15.126894
-100.24808 27.373249 14.824169
-100.245 27.384247 14.526242
-100.24663 27.399456 14.2329
-100.22557 27.393808 13.929326
-100.24364 27.423899 13.648403
-100.23214 27.426819 13.353817
-100.2324 27.440437 13.06701
-100.23066 27.452143 12.780869
-100.21996 27.455542 12.49218
-100.21423 27.463423 12.207535
-100.20653 27.469414 11.923635
-100.18984 27.467062 11.637513
-100.19933 27.488728 11.363994
-100.1858 27.48914 11.082317
-100.18449 27.500738 10.806973
-100.18839 27.517101 10.534825
-100.18338 27.525175 10.260495
-100.17652 27.531487 9.9867496
-100.17496 27.542635 9.7160168
-100.17873 27.558674 9.4480658
-100.17358 27.56641 9.178194
-100.17381 27.579079 8.9109802
-100.1651 27.583424 8.6420603
-100.15462 27.586073 8.3736916
-100.15676 27.600395 8.1096849
-100.13121 27.613436 7.3143616
-100.14094 27.63468 7.0548544
-100.13451 27.640873 6.7924128
-100.21748 27.069534 18.175232
-100.23233 27.097885 17.86474
-100.23168 27.112125 17.545719
-100.22201 27.118073 17.223188
-100.25635 27.163744 16.932995
-100.26196 27.183308 16.625473
-100.24522 27.182501 16.305883
-100.23951 27.191565 15.996022
-100.23824 27.204552 15.691318
-100.24826 27.227701 15.395614
-100.24258 27.236481 15.092573
-100.24151 27.249348 14.794383
-100.22461 27.247709 14.489395
-100.22605 27.262678 14.196778
-100.23917 27.288206 13.912185
-100.22961 27.292963 13.617311
-100.22485 27.302025 13.326865
-100.21111 27.302784 13.03382
-100.23705 27.339737 12.761709
-100.2123 27.330259 12.466951
-100.20644 27.337988 12.182884
-100.20563 27.350264 11.902639
-100.20289 27.360704 11.623001
-100.20528 27.375788 11.346905
-100.19167 27.376118 11.065647
-100.19028 27.387609 10.790722
-100.19414 27.403856 10.518992
-100.17483 27.398754 10.239937
-100.18925 27.424622 9.9742479
-100.1805 27.429115 9.7014484
-100.17708 27.438457 9.4316006
-100.17186 27.446095 9.1622391
-100.15768 27.44541 8.8912354
-100.15606 27.456278 8.625062
-100.1527 27.465487 8.3592701
-100.1548 27.479708 8.0957766
-100.13631 27.499231 7.3036342
-100.1143 27.527222 6.2583327
-100.10276 27.528538 5.9975491
-99.958878 27.537344 2.9095824
-100.22121 26.970213 17.824057
-100.22034 26.984203 17.505651
-100.22368 27.001862 17.192793
-100.25793 27.047277 16.903061
-100.25004 27.054594 16.587271
-100.23977 27.059641 16.2726
-100.23386 27.068512 15.963293
-100.21216 27.062975 15.646749
-100.2084 27.073557 15.343738
-100.22964 27.106668 15.057542
-100.22838 27.119318 14.759992
-100.20442 27.111292 14.451838
-100.20567 27.126024 14.159948
-100.21863 27.151299 13.876082
-100.21577 27.162132 13.585508
-100.21084 27.171005 13.295715
-100.22473 27.196913 13.016943
-100.19485 27.182907 12.718581
-100.21877 27.217815 12.447493
-100.19879 27.21265 12.157524
-100.19082 27.218357 11.874784
-100.19498 27.235065 11.598803
-100.1902 27.24354 11.32038
-100.18351 27.250204 11.042617
-100.17493 27.255064 10.765537
-100.16444 27.258127 10.489165
-100.18058 27.285513 10.223815
-100.17355 27.291618 9.9510822
-100.16467 27.295984 9.6789598
-100.15398 27.298615 9.4074717
-100.15581 27.312704 9.1411076
-100.1415 27.311914 8.8707857
-100.147 27.329281 8.607357
-100.13837 27.345842 8.0773754
-100.1242 27.344994 7.8112082
-99.973274 27.408421 3.4147034
-99.992577 27.450043 2.906177
-100.21533 26.831959 18.107138
-100.20354 26.83625 17.778929
-100.22224 26.867752 17.475021
-100.22543 26.885221 17.162626
-100.24625 26.918419 16.864468
-100.23813 26.92552 16.549305
-100.22763 26.930359 16.235266
-100.22151 26.939018 15.926589
-100.2334 26.963778 15.631333
-100.22956 26.974283 15.32856
-100.23714 26.994972 15.034659
-100.22891 27.00132 14.733621
-100.21163 26.999384 14.429763
-100.21966 27.020206 14.142005
-100.21873 27.03286 13.851165
-100.2296 27.056091 13.568213
-100.21069 27.052294 13.271776
-100.21751 27.071716 12.99009
-100.20141 27.070286 12.698949
-100.20425 27.085957 12.418552
-100.17706 27.07428 12.126091
-100.19709 27.105408 11.856392
-100.18705 27.109161 11.574844
-100.16798 27.104626 11.291192
-100.18241 27.130501 11.022651
-100.18082 27.141737 10.748815
-100.17024 27.144726 10.472863
-100.17206 27.158957 10.202788
-100.15592 27.169214 9.6591177
-100.1451 27.171747 9.3882236
-100.13244 27.184847 8.8527298
-100.13786 27.202093 8.5898972
-100.13433 27.2111 8.3253012
-100.1363 27.225103 8.0630045
-100.12781 27.241623 7.5374818
-100.12462 27.250795 7.2761045
-100.11245 27.251682 7.0134993
-100.05094 27.361708 3.4133627
-100.0263 27.362507 2.9030099
-100.19617 26.698597 18.063042
-100.21709 26.732046 17.758913
-100.20264 26.733809 17.432312
-100.22556 26.768822 17.134182
-100.22626 26.783876 16.823154
-100.24474 26.814722 16.526163
-100.23412 26.819429 16.212517
-100.22113 26.821896 15.900025
-100.2058 26.822132 15.588724
-100.22216 26.850689 15.298897
-100.22278 26.865034 15.001585
-100.20753 26.865025 14.697297
-100.2038 26.87525 14.401783
-100.21861 26.902079 14.11832
-100.21066 26.908346 13.824317
-100.20753 26.918865 13.534801
-100.21627 26.939997 13.253038
-100.19511 26.93408 12.958148
-100.19283 26.945112 12.674388
-100.18857 26.954269 12.391329
-100.19639 26.974289 12.115309
-100.1882 26.979759 11.833565
-100.17805 26.983379 11.552598
-100.18722 27.004431 11.281157
-100.18033 27.010874 11.004395
-100.17154 27.015526 10.728322
-100.15372 27.011915 10.450303
-100.16261 27.032488 10.183473
-100.16254 27.04488 9.9144077
-100.13911 27.035982 9.6385813
-100.14978 27.058041 9.3753176
-100.13708 27.058786 9.1055069
-100.13702 27.070984 8.8406734
-100.12796 27.074945 8.5741425
-100.13161 27.090456 8.3121214
-100.12629 27.09774 8.0484457
-100.10954 27.13064 7.0028925
-100.20732 26.59716 18.04044
-100.22157 26.624569 17.73189
-100.18706 26.608503 17.391825
-100.2098 26.643232 17.094265
-100.22367 26.669966 16.7927
-100.22859 26.688627 16.487394
-100.23798 26.711166 16.187189
-100.22485 26.713516 15.875044
-100.20937 26.713644 15.56409
-100.21882 26.735937 15.270559
-100.21931 26.75012 14.973677
-100.21075 26.756126 14.67371
-100.20001 26.760061 14.37474
-100.21471 26.786709 14.091709
-100.20663 26.792843 13.798143
-100.19643 26.796984 13.505499
-100.21898 26.830458 13.231227
-100.18369 26.811895 12.929892
-100.17426 26.816467 12.643336
-100.17686 26.831787 12.364124
-100.16342 26.832588 12.079166
-100.1621 26.844238 11.801274
-100.16595 26.860476 11.526985
-100.17502 26.881367 11.256076
-100.15376 26.874828 10.974206
-100.15909 26.892225 10.704314
-100.16258 26.907919 10.434799
-100.14993 26.908949 10.160542
-100.14257 26.914719 9.889533
-100.14777 26.931803 9.6239414
-100.12958 26.927639 9.3516979
-100.12397 26.934834 9.0847492
-100.13105 26.953485 8.8226089
-100.11466 26.950798 8.5544777
-100.1255 26.972792 8.294981
-100.1201 26.980003 8.0317688
-100.11297 26.985592 7.7689877
-100.08953 26.976299 7.5032196
-100.10809 27.005207 7.2480669
-100.02367 27.128973 2.8936222
-100.18009 26.52022 17.656641
-100.22128 26.585756 17.056358
-100.24188 26.618399 16.759199
-100.2132 26.607212 16.43195
-100.22251 26.629618 16.132021
-100.1957 26.619825 15.81174
-100.18686 26.625874 15.505355
-100.20304 26.654089 15.216235
-100.19658 26.66206 14.915666
-100.16728 26.649563 14.604396
-100.17703 26.671782 14.31746
-100.18474 26.692093 14.031068
-100.16263 26.685692 13.730659
-100.1801 26.714567 13.452891
-100.1607 26.710405 13.158003
-100.14617 26.710501 12.86766
-100.14362 26.721228 12.584963
-100.13907 26.730095 12.302971
-100.12547 26.730774 12.018556
-100.12404 26.742281 11.741206
-100.14197 26.77112 11.473441
-100.13674 26.779102 11.1971
-100.12247 26.778885 10.918601
-100.12056 26.789724 10.646437
-100.11679 26.79883 10.374819
-100.09682 26.793274 10.09863
-100.11091 26.818361 9.8358011
-100.10162 26.822329 9.565877
-100.09773 26.831108 9.2989101
-100.09928 26.844753 9.0346661
-100.07733 26.837118 8.764328
-100.08984 26.860584 8.5051737
-100.08611 26.869329 8.242115
-100.07336 26.869864 7.9775763
-100.07343 26.881964 7.7172489
-100.06448 26.885864 7.4554844
-100.07572 26.908043 7.1990914
-100.06335 26.908772 6.9380374
-100.06391 26.921204 6.6804199
-100.06279 26.932085 6.4229941
-100.06 26.94142 6.1657796
-100.06287 26.955889 5.9099984
-100.04939 26.955452 5.6520672
-100.04893 26.966854 5.3966365
-100.04683 26.976736 5.141325
-100.0578 26.998526 4.8878593
-100.04504 26.998657 4.6319027
-100.00852 26.977076 4.3742576
-100.01456 26.994333 4.1210642
-100.0116 27.003359 3.8672335
-100.02912 27.031115 3.6147215
-100.00815 27.023653 3.3601098
-100.00766 27.034929 3.1066811
-100.23064 26.551723 17.007729
-100.27157 26.60211 16.723829
-100.25655 26.602976 16.405003
-100.24585 26.607534 16.091747
-100.22598 26.603857 15.77544
-100.21735 26.609993 15.468742
-100.20641 26.613983 15.163111
-100.20006 26.621931 14.862544
-100.17081 26.609457 14.551278
-100.18071 26.631618 14.264345
-100.17467 26.639547 13.970499
-100.1665 26.645483 13.677548
-100.15621 26.649437 13.385521
-100.15781 26.663889 13.101413
-100.15036 26.670212 12.814554
-100.12679 26.662067 12.521899
-100.12229 26.670839 12.240156
-100.12288 26.684086 11.962298
-100.12863 26.701876 11.688105
-100.10403 26.692469 11.402406
-100.09879 26.700302 11.126565
-100.09165 26.70636 10.85139
-100.0826 26.710648 10.576905
-100.07167 26.713175 10.303137
-100.06604 26.720402 10.032677
-100.05857 26.725918 9.7628107
-100.07093 26.749189 9.5007658
-100.05984 26.751348 9.231904
-100.03967 26.745295 8.9614744
-100.03945 26.757128 8.6983395
-100.0302 26.76079 8.4335117
-100.03375 26.775932 8.1731958
-100.04287 26.796064 7.915009
-100.02838 26.794876 7.6514993
-100.01945 26.798656 7.3903327
-100.00879 26.80084 7.1296415
-100.02573 26.82793 6.8756313
-100.01167 26.826973 6.6156082
-100.00324 26.831076 6.3574958
-100.00784 26.846931 6.102344
-100.01076 26.861269 5.8472514
-100.01939 26.880762 5.5933528
-100.00427 26.878704 5.3362975
-100.0096 26.895174 5.0825305
-100.00591 26.903444 4.8278747
-99.993195 26.903494 4.5726099
-99.986206 26.908733 4.3183775
-99.97757 26.912462 4.0643425
-99.989456 26.934855 3.8120422
-99.970169 26.928856 3.5577812
-99.97879 26.948275 3.3052764
-99.971001 26.95274 3.0520356
-100.20633 26.538519 14.255132
-100.19331 26.540253 13.95772
-100.20598 26.564651 13.675952
-100.1887 26.562422 13.38036
-100.18328 26.57062 13.092849
-100.17527 26.627398 11.68958
-100.16689 26.64501 11.13659
-100.158 26.661928 10.589
-100.13276 26.651718 10.309503
-100.12718 26.659002 10.038791
-100.11976 26.664577 9.768672
-100.08878 26.649031 9.4919682
-100.0994 26.670624 9.2303085
-100.10825 26.69062 8.9688034
-100.08628 26.682949 8.6988907
-100.07705 26.686638 8.4339771
-100.05874 26.682138 8.1676493
-100.06786 26.702219 7.9096336
-100.05334 26.701027 7.6462955
-100.0444 26.704796 7.3853011
-100.04839 26.720167 7.128046
-100.04334 26.727385 6.8693972
-100.0219 26.719795 6.6081729
-100.01344 26.723867 6.3504062
-100.0254 26.746309 6.0968866
-100.01359 26.747303 5.8396525
-99.992714 26.740088 5.5817308
-99.99231 26.751314 5.3275108
-100.00501 26.774387 5.0752912
-99.993919 26.77593 4.820303
-99.988564 26.782642 4.5664139
-99.974167 26.781153 4.3120236
-99.972916 26.791555 4.0591908
-99.977432 26.807175 3.8069065
-99.980316 26.821316 3.5545108
-100.2109 26.427879 14.233227
-100.2047 26.435642 13.939947
-100.19292 26.451424 13.359671
-100.1375 26.553198 10.025648
-100.13001 26.558708 9.755867
-100.12793 26.568979 9.4891043
-100.12404 26.577591 9.2228136
-100.04614 26.684578 5.3267026
-100.04409 26.694305 5.0724282
-100.04038 26.702528 4.8182936
-100.03503 26.709248 4.5643177
-100.00579 26.694418 4.3084841
-100.01936 26.718182 4.056921
-100.00166 26.713707 3.8030353
-99.966347 26.727745 2.7928915
-99.970116 26.742645 2.5409212
-100.20667 26.294735 14.496387
-100.2094 26.310419 14.206609
-100.20305 26.318047 13.913814
-100.18056 26.311411 13.61463
-100.18394 26.327396 13.330951
-100.18527 26.34152 13.047902
-100.11691 26.443129 9.468544
-100.18461 26.157986 14.459102
-100.20103 26.18565 14.177661
-100.19279 26.204836 13.597754
-100.18198 26.20845 13.307276
-100.17612 26.216295 13.021237
-100.10722 26.281549 10.247553
-100.10883 26.331627 9.1866989
-100.13326 25.870502 17.10445
-100.18333 26.038647 14.433908
-100.19263 26.060114 14.149146
-100.17696 26.072981 13.566733
-100.17397 26.096542 12.998489
-100.09621 26.154905 10.227161
-100.13692 25.759752 17.082092
-100.13035 25.878599 14.384027
-100.18132 25.936081 14.123147
-100.16207 25.972 12.974768
-100.08307 26.029377 10.209257
-100.14845 25.662169 17.07478
-100.13522 25.774336 14.374958
-100.17229 25.81954 14.106801
-100.17032 25.844091 13.533782
-100.15292 25.854959 12.960366
-100.07375 25.911345 10.199812
-100.14476 25.552683 17.060753
-100.14568 25.675713 14.372262
-100.16885 25.708719 14.096741
-100.16895 25.721827 13.810263
-100.15283 25.7209 13.517232
-100.15578 25.736286 13.236002
-99.969734 25.723656 9.8951244
-100.1632 25.46069 17.057394
-100.15063 25.571287 14.362539
-100.03251 25.680086 9.6481533
-100.16381 25.351061 17.03721
-100.11546 25.430779 14.326439
-100.1526 25.488201 13.774175
-100.17839 25.252745 17.025333
-100.10859 25.3141 14.305008
-99.854706 25.653688 1.8144697
-100.11529 25.209713 14.291273
-100.05619 25.378809 9.3656731
-100.11562 25.099907 14.271623
-100.13861 25.131985 13.998449
-99.800179 25.381702 1.8192149
-100.12745 24.986023 14.542206
-100.10857 24.857885 14.507511
-100.12636 24.885466 14.230863
-100.11373 24.887594 13.939341
-99.775154 25.135984 1.815954
-100.05692 24.583031 17.120171
-100.07571 24.717196 14.46547
-100.08752 24.752319 13.902719
-99.953308 24.797224 10.313614
-99.781982 25.028641 1.8144269
-100.11781 24.533905 16.828024
-100.03572 24.47994 16.470636
-100.02911 24.501041 15.869202
-100.03622 24.520004 15.578563
-100.08493 24.611725 14.44738
-100.10371 24.652512 13.889082
-99.941353 24.685682 10.032675
-99.912186 24.672831 9.7632494
-99.970253 24.732834 9.5248146
-99.76606 24.901533 1.8135568
-100.0664 24.378633 16.765171
-100.0182 24.379065 15.835608
-100.01115 24.38636 15.536939
-100.00417 24.406448 14.951022
-99.997284 24.413557 14.659468
-99.988159 24.418724 14.368888
-100.03371 24.468784 14.110446
-100.04888 24.493795 13.836506
-100.04771 24.50528 13.555519
-100.05882 24.526794 13.282595
-100.03188 24.516863 12.992296
-100.05334 24.546778 12.727709
-99.978661 24.497213 12.419051
-99.945175 24.48155 12.132677
-99.959427 24.517179 11.602026
-99.956375 24.52647 11.334292
-99.944046 24.528008 11.064211
-99.976715 24.59008 10.289213
-100.02412 24.652563 9.7859631
-99.803505 24.819462 1.8105464
-100.02803 24.234888 16.711981
-100.03486 24.253807 16.415281
-100.02548 24.259413 16.110487
-100.02762 24.2743 15.815564
-100.00647 24.270073 15.508632
-100.00395 24.280939 15.21569
-100.00621 24.295614 14.927795
-99.992119 24.296818 14.632587
-99.989929 24.307663 14.346458
-100.00694 24.334145 14.072849
-100.00763 24.347179 13.79201
-100.00621 24.3584 13.511911
-100.00269 24.367817 13.23258
-99.982643 24.363577 12.946908
-99.982155 24.375317 12.672841
-99.965118 24.373375 12.39265
-99.967842 24.387604 12.123463
-99.953995 24.388124 11.848368
-99.938126 24.38689 11.574198
-99.927574 24.389971 11.304054
-99.928535 24.425739 10.51553
-99.939934 24.446711 10.259234
-99.971809 24.484598 10.011144
-99.964775 24.490246 9.7499447
-99.978271 24.512846 9.4968243
-99.960121 24.50918 9.2342215
-99.96257 24.522543 8.9794035
-99.978249 24.54685 8.7293949
-99.947144 24.532265 8.4665194
-99.914185 24.516066 8.20471
-99.901985 24.517071 7.9499235
-99.948395 24.566814 7.7108712
-99.953209 24.593002 7.2116046
-99.810089 24.711737 1.8087341
-99.731178 24.688154 0.83894652
-100.02242 24.118357 16.684614
-100.01959 24.142557 16.084053
-100.02161 24.157276 15.7896
-100.0003 24.152937 15.483139
-100.00468 24.169376 15.19488
-99.992729 24.172421 14.89912
-99.999733 24.1908 14.616623
-99.997482 24.20155 14.330813
-100.00732 24.222075 14.053635
-99.993607 24.223295 13.765576
-99.99205 24.234356 13.486043
-99.981194 24.237728 13.203629
-99.975433 24.24518 12.925743
-99.960342 24.244917 12.645193
-99.972244 24.26667 12.379273
-99.960327 24.26885 12.10377
-99.95369 24.275276 11.832409
-99.92305 24.261938 11.552338
-99.941803 24.289059 11.29507
-99.943985 24.302528 11.031968
-99.94429 24.314392 10.769368
-99.95752 24.336843 10.512944
-99.946678 24.339434 10.248511
-99.948822 24.352657 9.9901323
-99.941689 24.358185 9.7296066
-99.925232 24.35597 9.4672098
-99.921883 24.364511 9.2104273
-99.924232 24.377712 8.9564571
-99.932327 24.395624 8.7050638
-99.908577 24.387173 8.4452724
-99.898079 24.38962 8.190505
-99.908463 24.409311 7.9422488
-99.902023 24.415043 7.6902947
-99.908989 24.431852 7.4424024
-99.906677 24.440947 7.192915
-99.892525 24.483809 5.9545088
-99.933472 24.528769 5.7153869
-99.919395 24.527893 5.4676733
-99.918915 24.538332 5.2224736
-99.905357 24.548651 4.7316198
-99.899933 24.554911 4.4869456
-99.869904 24.54059 4.2404094
-99.845879 24.531254 3.9951937
-99.835526 24.533333 3.751564
-99.854187 24.559689 3.5098591
-99.832924 24.55261 3.266047
-99.863663 24.589104 3.0244138
-99.831482 24.572855 2.780755
-99.740257 24.539085 1.8116184
-100.02237 24.007511 16.663198
-100.01513 24.014887 16.358305
-100.01434 24.04035 15.764986
-100.00693 24.047258 15.467573
-100.00423 24.057869 15.17542
-100.00633 24.072273 14.888318
-99.992027 24.07328 14.593904
-100.00394 24.095448 14.316518
-99.977997 24.086817 14.0202
-99.985626 24.105339 13.744299
-99.99118 24.12211 13.46898
-99.980247 24.125387 13.186971
-99.967178 24.126837 12.905922
-99.966515 24.138309 12.632833
-99.963837 24.148062 12.360432
-99.966454 24.162062 12.092066
-99.945122 24.156448 11.814552
-99.921715 24.149055 11.538132
-99.947823 24.182053 11.284355
-99.942612 24.189394 11.018594
-99.95768 24.213278 10.762227
-99.948677 24.217405 10.49758
-99.937775 24.219906 10.233649
-99.917519 24.214674 9.967802
-99.940155 24.244583 9.7183247
-99.923653 24.242317 9.4563475
-99.927773 24.256943 9.2023926
-99.930122 24.270073 8.948761
-99.915657 24.269321 8.6910048
-99.906906 24.27323 8.4361048
-99.919037 24.294292 8.1879539
-99.906776 24.295221 7.9339342
-99.907898 24.307146 7.6842999
-99.914886 24.323883 7.4367509
-99.904991 24.326654 7.185885
-99.890862 24.369255 5.9496317
-99.870766 24.363386 5.7013159
-99.871933 24.375113 5.4569607
-99.886749 24.398161 5.214776
-99.884628 24.407137 4.9704847
-99.865532 24.401995 4.7246261
-99.84478 24.395445 4.4792814
-99.84539 24.406635 4.2365174
-99.852036 24.422848 3.9943788
-99.84938 24.431314 3.7516053
-99.852776 24.444815 3.5093198
-99.84687 24.45056 3.2666104
-99.83934 24.454939 3.0240045
-99.837852 24.464365 2.7816808
-99.819405 24.459612 2.5391774
-99.814674 24.46632 2.296979
-99.839005 24.497337 2.0543773
-99.785027 24.462831 1.8129869
-100.00646 23.871569 16.932531
-100.01533 23.891935 16.636383
-100.00796 23.899149 16.331955
-99.991165 23.89867 16.024191
-99.985909 23.907351 15.726464
-99.992363 23.925358 15.438339
-99.989532 23.935783 15.146737
-99.991508 23.949993 14.86019
-99.977051 23.950846 14.566332
-99.988853 23.972803 14.289504
-99.977081 23.97563 14.001531
-99.977463 23.988194 13.72222
-99.982941 24.004803 13.447386
-99.957428 23.996235 13.158563
-99.958717 24.009289 12.8853
-99.957977 24.02062 12.6127
-99.962517 24.036165 12.344195
-99.943115 24.032204 12.06627
-99.958336 24.056297 11.805617
-99.942245 24.054873 11.532601
-99.938896 24.063738 11.26669
-99.933609 24.070965 11.001427
-99.948647 24.094692 10.745561
-99.932137 24.092657 10.478588
-99.950943 24.119368 10.226209
-99.930649 24.114119 9.9606123
-99.923401 24.119461 9.7010946
-99.906807 24.117105 9.4397078
-99.925903 24.143894 9.1911526
-99.920708 24.15077 8.9356241
-99.906181 24.14995 8.6783772
-99.904938 24.159973 8.426136
-99.909508 24.174723 8.1763477
-99.912354 24.188026 7.9267974
-99.8983 24.187422 7.673718
-99.905289 24.204058 7.4266834
-99.895363 24.20677 7.1763315
-99.873535 24.242722 5.9413714
-99.876373 24.255779 5.6972723
-99.869904 24.261129 5.4521461
-99.869431 24.271423 5.208333
-99.88266 24.293028 4.966537
-99.878906 24.300583 4.722826
-99.873512 24.306765 4.4792809
-99.851112 24.298843 4.2345538
-99.857803 24.315008 3.9927633
-99.847496 24.317076 3.7498283
-99.843246 24.324154 3.507556
-99.798927 24.297953 3.2636943
-99.829872 24.334238 3.0232854
-99.820747 24.337246 2.7813239
-99.833061 24.358084 2.5397229
-99.828377 24.364784 2.2977855
-99.82975 24.376534 2.0557497
-99.791092 24.354931 1.8145025
-100.00225 23.782955 16.303484
-99.985275 23.782345 15.996188
-99.986885 23.796495 15.7033
-99.993233 23.814352 15.415567
-99.976128 23.813297 15.115938
-99.970848 23.821619 14.825814
-99.984688 23.845205 14.548801
-99.974968 23.849781 14.260376
-99.977371 23.86401 13.980748
-99.963257 23.864851 13.694217
-99.961372 23.87546 13.416217
-99.95739 23.884295 13.138991
-99.944054 23.885496 12.858999
-99.96505 23.914337 12.597431
-99.962212 23.923872 12.325848
-99.950027 23.925776 12.051657
-99.950508 23.937847 11.784852
-99.941658 23.942303 11.51549
-99.938225 23.951073 11.249992
-99.940262 23.96422 10.988136
-99.940414 23.97578 10.726787
-99.938683 23.98576 10.465965
-99.942551 24.000225 10.208438
-99.929619 24.000994 9.946003
-99.914795 24.000166 9.6843338
-99.928146 24.022202 9.4334078
-99.909637 24.018261 9.1730003
-99.896812 24.01889 8.9157467
-99.89727 24.0303 8.6636477
-99.911102 24.052582 8.4162159
-99.892914 24.048697 8.1605759
-99.895699 24.061893 7.9116235
-99.904366 24.07987 7.6648226
-99.888496 24.077753 7.4127078
-99.855637 24.061678 7.157793
-99.85643 24.116003 5.931015
-99.86692 24.135286 5.688725
-99.875763 24.153217 5.4463534
-99.867607 24.157154 5.2018566
-99.857796 24.159706 4.9576626
-99.86171 24.173542 4.7155032
-99.8563 24.179682 4.4725666
-99.856941 24.190804 4.2304983
-99.855957 24.200573 3.9884596
-99.791725 24.158123 3.742398
-99.812607 24.207012 3.0202301
-99.826599 24.229136 2.7793598
-99.831253 24.243551 2.538034
-99.826584 24.250246 2.2965326
-99.835693 24.26836 2.0548313
-99.995689 23.639774 16.87344
-100.00427 23.659763 16.578218
-99.982605 23.655565 16.265673
-100.00741 23.688272 15.985679
-99.973808 23.674322 15.671107
-99.987053 23.697618 15.388214
-99.962677 23.690786 15.084849
-99.971436 23.710316 14.803542
-99.985184 23.733747 14.526926
-99.961006 23.726755 14.230958
-99.984818 23.758089 13.963566
-99.963371 23.753086 13.673546
-99.96862 23.76939 13.399681
-99.935509 23.754831 13.108183
-99.951103 23.779285 12.843113
-99.935539 23.778635 12.564439
-99.954491 23.805664 12.303806
-99.934822 23.801556 12.026787
-99.942543 23.81942 11.763798
-99.926178 23.817822 11.491776
-99.944832 23.844385 11.236082
-99.954239 23.863445 10.97755
-99.939461 23.862926 10.710633
-99.945107 23.878849 10.453055
-99.926483 23.875095 10.18764
-99.920921 23.881838 9.9284506
-99.913498 23.887022 9.6698599
-99.919281 23.902851 9.4168663
-99.908203 23.904972 9.1593714
-99.9104 23.917809 8.9071798
-99.910828 23.929174 8.6553364
-99.901917 23.932911 8.4017124
-99.883629 23.928982 8.1465855
-99.893959 23.948278 7.9001226
-99.894981 23.959972 7.6518569
-99.894287 23.970238 7.4038711
-99.853691 23.947966 7.1475806
-99.841888 23.949093 6.8990102
-99.862015 24.008301 5.9242482
-99.857132 24.014956 5.6798968
-99.865967 24.032814 5.4380445
-99.850075 24.030418 5.1930385
-99.855621 24.045557 4.9513392
-99.859535 24.059349 4.7096143
-99.861809 24.071793 4.4678822
-99.854744 24.076559 4.2254791
-99.838326 24.073629 3.9826846
-99.832085 24.12118 2.7771165
-99.813614 24.116491 2.5359218
-99.801247 24.116817 2.2950459
-99.988945 23.524044 16.8456
-99.983482 23.53282 16.541637
-99.996521 23.55615 16.252335
-99.993256 23.566452 15.954789
-99.980576 23.569168 15.65387
-99.972549 23.57547 15.358422
-99.962181 23.579802 15.064031
-99.970856 23.599184 14.78312
-99.977379 23.616766 14.502851
-99.9674 23.621115 14.215305
-99.969582 23.635071 13.936559
-99.969643 23.647249 13.658536
-99.945839 23.640289 13.370071
-99.956161 23.660494 13.101118
-99.94989 23.667366 12.825507
-99.948853 23.67835 12.554214
-99.938454 23.681763 12.280209
-99.925995 23.683449 12.007086
-99.933632 23.701172 11.744592
-99.931961 23.711365 11.479379
-99.928345 23.719934 11.214794
-99.930229 23.732864 10.953852
-99.930222 23.744219 10.693419
-99.913391 23.74198 10.427868
-99.932068 23.768259 10.17691
-99.92646 23.774944 9.9180565
-99.918999 23.780077 9.6598024
-99.887062 23.765423 9.3947048
-99.898529 23.785713 9.1451826
-99.900673 23.798452 8.8934994
-99.901054 23.809725 8.6421652
-99.892082 23.813395 8.3890514
-99.904144 23.83404 8.1426907
-99.899269 23.840948 7.8924422
-99.892647 23.846405 7.6426258
-99.884285 23.850414 7.3932619
-99.889496 23.865393 7.1478128
-99.870033 23.860329 6.8976068
-99.871841 23.872492 6.6527333
-99.856621 23.870789 6.4051223
-99.855057 23.880159 6.1608171
-99.85952 23.894407 5.9180293
-99.862328 23.907295 5.6753144
-99.86348 23.918821 5.4326921
-99.862984 23.928988 5.1901798
-99.86084 23.937796 4.9477973
-99.841621 23.932648 4.7038498
-99.836182 23.938732 4.4619565
-99.829109 23.94346 4.2202492
-99.835854 23.959476 3.979938
-99.814278 23.994242 2.7762284
-99.811272 24.00226 2.535789
-99.815849 24.026995 2.0546796
-99.698067 23.993023 0.61576092
-99.986443 23.414122 16.825375
-99.994835 23.433765 16.531004
-99.986885 23.440411 16.228359
-99.976494 23.445007 15.926833
-99.963661 23.447565 15.626459
-99.969673 23.464911 15.340142
-99.945007 23.457878 15.03772
-99.974998 23.494026 14.769764
-99.95285 23.488777 14.473601
-99.971474 23.515768 14.202585
-99.966423 23.523893 13.920267
-99.959198 23.530203 13.638835
-99.957062 23.540478 13.362046
-99.960114 23.554794 13.089686
-99.939194 23.549955 12.807261
-99.938095 23.560812 12.536457
-99.92762 23.564121 12.262941
-99.922455 23.57159 11.993633
-99.930077 23.589193 11.731553
-99.928368 23.599291 11.466753
-99.924713 23.607771 11.202581
-99.926575 23.6206 10.942056
-99.911606 23.619904 10.67622
-99.90966 23.629566 10.416903
-99.920853 23.649704 10.163626
-99.922722 23.662329 9.9079332
-99.922768 23.673441 9.6526718
-99.898338 23.664856 9.3903971
-99.894707 23.672913 9.1363201
-99.889267 23.679476 8.882741
-99.874443 23.678438 8.6274452
-99.888237 23.700382 8.3814621
-99.8927 23.714794 8.1334639
-99.88018 23.715481 7.8817482
-99.888817 23.733191 7.6363177
-99.872795 23.730978 7.3855724
-99.870354 23.739683 7.138917
-99.889221 23.765581 6.8974919
-99.860352 23.752871 6.6465898
-99.860497 23.763582 6.402422
-99.874359 23.785379 6.1612177
-99.863464 23.787115 5.9160209
-99.874023 23.806208 5.6748571
-99.852074 23.798925 5.4291401
-99.859329 23.815311 5.1881795
-99.849495 23.81781 4.9452858
-99.830269 23.81266 4.7018566
-99.832603 23.825003 4.4612551
-99.841034 23.842308 4.2213497
-99.832367 23.845688 3.9801066
-99.975937 23.299404 16.801025
-99.970291 23.30789 16.49791
-99.9692 23.319834 16.200411
-99.979797 23.340864 15.912776
-99.973991 23.348898 15.617084
-99.965828 23.354965 15.322418
-99.955315 23.359077 15.028812
-99.963921 23.37816 14.748697
-99.963181 23.389793 14.465171
-99.945847 23.388222 14.174525
-99.955124 23.407583 13.900637
-99.947823 23.413761 13.619684
-99.938354 23.418137 13.339646
-99.926735 23.420719 13.060551
-99.942261 23.444729 12.796707
-99.933807 23.449669 12.522739
-99.923286 23.452887 12.249631
-99.90332 23.448524 11.974082
-99.910896 23.465961 11.712579
-99.923973 23.487726 11.454677
-99.920296 23.496109 11.190919
-99.92215 23.508829 10.930808
-99.922112 23.519991 10.671207
-99.897682 23.511656 10.403659
-99.916389 23.537653 10.153629
-99.903191 23.538149 9.8930378
-99.903198 23.549137 9.6383657
-99.90139 23.558628 9.3841496
-99.89019 23.560558 9.1280031
-99.892342 23.573128 8.8771677
-99.885124 23.578148 8.6244459
-99.876114 23.58169 8.3722649
-99.880592 23.595999 8.1247797
-99.86805 23.596624 7.8735733
-99.869049 23.608082 7.6267619
-99.86834 23.618132 7.3802328
-99.865913 23.626774 7.134006
-99.884842 23.652565 6.893014
-99.855957 23.639854 6.6425366
-99.871536 23.662916 6.401731
-99.85463 23.659784 6.1552711
-99.843742 23.661467 5.9106765
-99.854347 23.680466 5.6701207
-99.840118 23.679407 5.426125
-99.855164 23.701971 5.1867189
-99.837616 23.698185 4.9433112
-99.818413 23.693027 4.7003994
-99.84404 23.724134 4.4626365
-99.821548 23.716278 4.2202516
-99.820671 23.725912 3.9802141
-99.822929 23.779409 2.7817769
-99.98024 23.196346 16.784025
-99.974541 23.204716 16.481218
-99.994461 23.233019 16.197611
-99.955757 23.215338 15.878907
-99.956863 23.228703 15.588211
-99.962769 23.245737 15.30268
-99.966438 23.260923 15.017895
-99.946396 23.257402 14.721479
-99.945541 23.268848 14.43851
-99.956917 23.289818 14.164321
-99.951721 23.29768 13.882883
-99.915298 23.280865 13.587075
-99.942093 23.313747 13.32643
-99.93042 23.31625 13.047657
-99.916611 23.316978 12.769855
-99.922745 23.333364 12.503517
-99.934265 23.353949 12.241122
-99.914261 23.349552 11.965816
-99.921844 23.366896 11.704561
-99.912636 23.37089 11.437426
-99.901436 23.37324 11.171086
-99.918167 23.397665 10.917546
-99.895615 23.390881 10.649628
-99.90863 23.41226 10.396883
-99.897247 23.414223 10.13613
-99.899063 23.426611 9.881444
-99.906616 23.443516 9.6297693
-99.897217 23.446899 9.3733978
-99.878395 23.442715 9.1152649
-99.88813 23.461235 8.86726
-99.873268 23.460106 8.6127243
-99.871857 23.469658 8.363205
-99.876328 23.483875 8.1161451
-99.871422 23.490564 7.8673463
-99.857101 23.489693 7.617085
-99.856377 23.499653 7.3710694
-99.861633 23.51437 7.1270809
-99.857506 23.521547 6.8816047
-99.836258 23.514977 6.6333656
-99.844147 23.531727 6.3916979
-99.858101 23.553331 6.1514459
-99.847221 23.554985 5.907196
-99.857872 23.57391 5.6669865
-99.835907 23.566607 5.422215
-99.843254 23.58285 5.1822095
-99.825706 23.579042 4.9393206
-99.759933 23.536375 4.6917682
-99.839966 23.61112 4.4604611
-99.825233 23.609529 4.2191949
-99.816635 23.612862 3.9789059
-99.811378 23.659883 2.7824817
-99.751556 23.652397 1.8265055
-99.696945 23.649048 0.87249905
-99.985481 23.094036 16.764399
-99.972679 23.096834 16.457294
-99.964378 23.10302 16.155966
-99.981888 23.129204 15.873557
-99.954636 23.120392 15.565454
-99.953331 23.131702 15.276023
-99.94973 23.141125 14.987496
-99.936676 23.143059 14.69577
-99.942894 23.159969 14.417332
-99.946968 23.175116 14.139566
-99.941643 23.182827 13.858608
-99.934143 23.18874 13.57854
-99.917183 23.187143 13.295655
-99.927307 23.206717 13.028486
