# .PCD v0.7 - Point Cloud Data file format
VERSION 0.7
FIELDS x y z
SIZE 4 4 4
TYPE F F F
COUNT 1 1 1
WIDTH 690
HEIGHT 1
VIEWPOINT 0 0 0 1 0 0 0
POINTS 690
DATA ascii
-100.04723 25.211803 17.460138
-100.05387 25.245808 17.095673
-99.985512 25.592693 4.747407
-99.970711 25.59404 4.4203839
-100.19211 24.700979 16.604851
-100.04241 25.047564 8.3147984
-101.88387 18.062609 5.6793242
-101.86229 18.057234 5.3825788
-101.83887 18.04998 5.0864444
-101.82068 18.047882 4.7917738
-101.83599 18.079123 4.501298
-101.82124 18.080399 4.2078381
-101.81174 18.086893 3.9153011
-102.34934 16.119236 18.086716
-102.39616 15.903401 17.692644
-102.66309 14.885214 21.148062
-102.67486 14.913734 20.786602
-102.65064 14.911631 20.401285
-102.63189 15.173666 3.8944509
-102.79045 14.757449 9.6385746
-102.7846 14.781193 9.0500832
-102.77864 14.790433 8.7565546
-102.77066 14.797925 8.4635372
-102.74564 14.791022 8.1672993
-102.7562 14.814028 7.8809214
-102.7347 14.80997 7.5877881
-102.71873 14.810525 7.2970533
-102.74874 14.891696 6.1597729
-102.73013 14.945199 4.7385163
-102.63387 14.904705 3.8837583
-102.69181 14.967739 3.6064651
-102.79254 14.673525 5.8563714
-102.79524 14.689595 5.5733933
-102.78079 14.691277 5.288465
-102.75679 14.684921 5.003056
-102.74615 14.689726 4.7199655
-102.74888 14.705736 4.438694
-102.74973 14.720159 4.1574116
-105.20464 5.1733904 16.591311
-105.24837 5.2068477 16.293186
-105.2317 5.2126055 15.965899
-105.22027 5.2206445 15.644034
-105.20587 5.2272143 15.323356
-105.18853 5.2323227 15.003897
-105.20177 5.2513723 14.701178
-105.1619 5.2459164 14.376352
-105.13589 5.2467198 14.060586
-105.07384 5.7276506 1.8940079
-105.09465 5.7487278 1.62916
-105.17309 5.2708416 8.8769197
-105.15111 5.2721825 8.5958414
-105.13574 5.2879257 8.0441332
-105.21379 5.3354464 7.7878661
-105.15835 5.3324122 7.2327957
-105.14958 5.3396211 6.9606285
-105.10278 5.3291068 6.6828189
-105.1585 5.5215125 2.6974809
-105.14962 5.5283542 2.4327207
-105.12056 5.5256705 2.1679924
-105.08942 5.5219831 1.9037746
-105.08332 5.5301108 1.6397287
-105.11129 5.5543509 1.3748833
-105.10101 5.5605159 1.110564
-105.11574 5.5785279 0.84516925
-105.09225 5.5784421 0.5812127
-105.20429 5.2864313 3.7655127
-105.21508 5.3242092 2.9717586
-105.20844 5.3320479 2.7069607
-105.20876 5.3431191 2.4424286
-105.17979 5.3405709 2.1776888
-105.19407 5.3581223 1.9133129
-105.17905 5.3620481 1.6489443
-105.18007 5.3734407 1.3843696
-105.16087 5.375411 1.1202492
-105.14864 5.3806295 0.85599226
-105.13432 5.384872 0.59182268
-105.401 4.4137526 22.209085
-105.35361 4.5667377 17.931644
-105.36903 4.5870075 17.608274
-105.34869 4.591598 17.267675
-105.47122 4.1924086 18.277405
-92.033943 56.107315 17.858839
-92.023369 56.111656 17.435341
-92.020599 56.17141 16.613667
-92.129509 56.10067 18.288023
-92.129677 56.135586 17.872976
-92.112686 56.122276 17.442192
-92.084801 56.078197 17.003326
-92.103416 56.164276 16.613129
-92.085686 56.148273 16.189228
-92.069862 56.137394 15.769718
-92.062393 56.149796 15.360105
-92.050461 56.149498 14.94857
-92.034073 56.136456 14.535403
-92.029343 56.156101 14.133929
-92.013718 56.144878 13.725512
-92.129509 56.133167 14.945166
-92.125916 56.156429 14.542425
-92.108162 56.139778 14.129858
-92.098892 56.146797 13.726151
-92.081924 56.131996 13.318401
-92.066986 56.122746 12.914205
-92.054108 56.119125 12.513341
-92.049812 56.139603 12.119952
-92.0411 56.147488 11.724922
-92.125092 56.148884 11.727262
-92.118393 56.162663 11.334388
-92.083809 55.934265 10.117193
-92.059631 56.154858 6.6789675
-92.020134 56.170361 5.1547332
-99.247833 28.491329 18.812014
-99.287354 28.300426 18.762505
-99.322449 28.109047 18.717358
-99.369141 27.929605 18.682449
-99.419464 27.750792 18.642035
-99.477341 27.579571 18.602222
-99.528221 27.401773 18.557623
-99.567284 27.217619 18.513626
-99.553169 27.040739 9.2540588
-99.552559 27.054562 8.9947987
-99.546806 27.076769 8.4773369
-99.54142 27.099218 7.9633546
-99.606895 26.705101 12.148393
-99.598549 26.71069 11.873268
-99.594749 26.721411 11.602014
-99.530952 26.936768 6.415494
-99.526825 26.94598 6.1641917
-99.520729 26.966843 5.6634488
-99.518776 26.978516 5.4138741
-99.515404 26.988512 5.1644149
-99.796394 25.940632 8.6044216
-101.85777 18.05468 18.123959
-101.86414 18.072952 17.826557
-101.8681 18.115913 16.940008
-101.85028 18.115955 16.636833
-101.81568 18.103529 16.325516
-101.82823 18.125597 16.048616
-101.81706 18.130123 15.758584
-102.06558 17.628059 22.09506
-101.87486 18.189838 6.6904545
-101.86729 18.194809 6.4575763
-101.84218 18.186722 6.2221613
-101.83129 18.189148 5.9902349
-101.82671 18.196236 5.7600117
-101.80457 18.190237 5.5276523
-101.79672 18.194839 5.2981458
-101.80322 18.210096 5.0709901
-101.79214 18.212259 4.8419256
-101.77946 18.213198 4.6131959
-101.78117 18.224842 4.3863497
-102.06186 17.437834 22.044924
-102.06284 17.454298 21.699921
-102.08164 17.498508 21.037355
-102.07983 17.512459 20.70195
-102.08833 17.533504 20.379286
-102.08044 17.542816 20.046392
-102.0603 17.614433 18.147354
-102.07642 17.313526 21.001726
-102.06951 17.338589 20.333353
-102.06143 17.347624 20.001173
-102.05387 17.440657 17.814791
-102.0508 17.451975 17.513714
-102.20403 16.840191 21.690756
-102.21921 16.719913 21.676519
-102.15229 16.741901 3.2782829
-102.35311 16.105042 17.151024
-102.60077 15.406026 16.903414
-102.52055 15.497089 13.539827
-102.51691 15.538955 12.500228
-102.63753 15.256735 16.899288
-102.5456 15.385268 12.493714
-102.52753 15.584335 3.5318234
-102.55595 15.612019 3.308233
-102.59924 15.363899 5.7950897
-105.13451 5.4124036 16.668756
-105.13141 5.4218712 16.368496
-105.14236 5.4354715 16.078417
-105.08191 5.4274688 15.753448
-105.2038 5.2978754 17.015564
-105.21265 5.3108735 16.718243
-105.21854 5.3229008 16.421825
-105.22146 5.333961 16.126348
-105.16142 5.3261514 15.800592
-105.16685 5.3377643 15.512018
-105.15215 5.3432803 15.215707
-105.15186 5.3530202 14.929074
-105.20108 5.3775239 14.668275
-105.20416 5.3881412 14.387139
-105.18699 5.3925958 14.098859
-105.17581 5.3987722 13.815672
-105.17075 5.406713 13.537365
-105.17191 5.41646 13.263727
-105.17939 5.4280553 12.99454
-105.15756 5.4307275 12.715243
-105.17788 5.4460878 12.454634
-105.17785 5.4552341 12.187551
-105.16634 5.4608369 11.917851
-105.16135 5.4683623 11.652325
-105.16299 5.4778485 11.390749
-105.14407 5.4810181 11.123619
-105.14091 5.4889359 10.8635
-105.15369 5.5016685 10.609915
-105.11838 5.4996662 10.342484
-105.11736 5.5080886 10.08732
-105.13249 5.5214133 9.8380909
-105.0808 5.5142202 9.5709906
-105.07207 5.5286984 9.0678749
-105.05973 5.5334263 8.8160172
-105.05615 5.5576782 8.0751066
-105.05379 5.5653386 7.8297205
-105.27618 5.0316191 21.631641
-105.22922 5.1745729 17.023283
-105.22969 5.1850553 16.721031
-105.24413 5.199554 16.429075
-105.23859 5.2080865 16.128822
-105.19569 5.2055073 15.811849
-105.19262 5.2145705 15.518576
-105.18664 5.2226896 15.226336
-105.19515 5.2350163 14.943613
-105.21838 5.2516356 14.669963
-105.23026 5.2648292 14.392734
-105.22849 5.2834191 13.832513
-105.22871 5.3209152 12.737312
-105.22234 5.328207 12.465536
-105.22002 5.3457375 11.931273
-105.20612 5.3505855 11.661997
-105.21694 5.3628149 11.403179
-105.20799 5.3867388 10.620849
-105.19024 5.3988819 10.102773
-105.18709 5.4066138 9.8475199
-105.19091 5.4164166 9.5954618
-105.16471 5.4170704 9.3363466
-105.18259 5.4310684 9.0903187
-105.17975 5.4387336 8.8397827
-105.15606 5.4400148 8.585268
-105.15813 5.4491019 8.3381329
-105.15806 5.4575043 8.0913916
-105.15585 5.4652238 7.8450656
-105.11396 5.4607763 7.5915365
-105.13564 5.4757419 7.3519139
-105.14588 5.4871874 7.1105146
-105.13522 5.4921989 6.8659625
-105.13188 5.4994359 6.6234918
-105.11703 5.5031066 6.3799033
-105.1001 5.5061059 6.1368694
-105.09057 5.5113564 5.8957167
-105.09795 5.5218029 5.6574244
-105.09384 5.528687 5.4180923
-105.07821 5.5319934 5.1779976
-105.08908 5.5434752 4.9412613
-105.07893 5.5484428 4.7027531
-105.05726 5.5498195 4.463799
-105.24747 4.8851533 21.585724
-105.22005 5.0349827 16.996887
-105.2542 5.0553184 16.713547
-105.24299 5.0624018 16.407593
-105.2629 5.0784445 16.121025
-105.22845 5.0785656 15.80838
-105.23394 5.0902314 15.519254
-105.23659 5.1009889 15.231004
-105.24512 5.1133881 14.947882
-105.23344 5.1197929 14.657257
-105.22767 5.1278472 14.371819
-105.23673 5.1401806 14.09534
-105.23433 5.1490769 13.815662
-105.22925 5.1571136 13.536879
-105.2215 5.1642942 13.259014
-105.22897 5.1758938 12.989415
-105.23391 5.1866922 12.720467
-105.21838 5.1913748 12.445199
-105.23631 5.2058988 12.184618
-105.22474 5.2116299 11.914436
-105.21066 5.2165499 11.64517
-105.22134 5.2287745 11.386347
-105.22058 5.237545 11.124907
-105.20829 5.2428312 10.861124
-105.21192 5.2528119 10.604026
-105.23162 5.2675509 10.353134
-105.21227 5.2705774 10.091465
-105.19978 5.2756014 9.8333807
-105.21272 5.2882037 9.5838194
-105.20494 5.2945528 9.3295517
-105.20419 5.3029728 9.0783472
-105.19192 5.3078904 8.8253145
-105.21473 5.3233318 8.581954
-105.17937 5.3212156 8.3256702
-105.18855 5.3324885 8.0808344
-105.19562 5.3431005 7.8362427
-105.20059 5.3530521 7.5919161
-105.18464 5.3566451 7.3442392
-105.18539 5.3652654 7.1006732
-105.15574 5.3646359 6.8524938
-105.19009 5.3834085 6.6160922
-105.1657 5.3843136 6.3705239
-105.17708 5.3960762 6.1312318
-105.16748 5.401432 5.8893948
-105.17481 5.4119296 5.6504068
-105.18013 5.4218016 5.4115129
-105.1549 5.4223237 5.1696081
-105.15618 5.4309278 4.9312172
-105.15546 5.4389067 4.692976
-105.1432 5.4433384 4.4541221
-105.10987 5.4412804 4.214242
-105.12222 5.4532332 3.9781199
-105.12306 5.4616437 3.7413533
-105.11237 5.4664993 3.5042217
-105.10925 5.4736767 3.2676942
-105.11371 5.4831867 3.031528
-105.11619 5.4920888 2.7953084
-105.07849 5.4885664 2.5587204
-105.07704 5.4962392 2.3227971
-105.29457 4.7605839 21.599123
-105.25922 4.9098444 17.000389
-105.32737 4.9399185 16.735456
-105.32482 4.9496455 16.433498
-105.31923 4.9584022 16.132637
-105.30201 4.9637141 15.828448
-105.30165 4.9938965 14.957628
-105.29001 5.0004578 14.666536
-105.25815 5.0108376 14.087757
-105.2645 5.022378 13.81182
-105.26823 5.0330906 13.536614
-105.24265 5.0351925 13.250963
-105.26789 5.0520473 12.988507
-105.26385 5.060297 12.715658
-105.25724 5.0677323 12.443648
-105.24809 5.0743566 12.172503
-105.25449 5.0854812 11.908902
-105.23125 5.087851 11.636153
-105.22366 5.0947504 11.370835
-105.22275 5.1035604 11.109398
-105.2103 5.108922 10.845623
-105.2138 5.1189284 10.588524
-105.22418 5.1309261 10.334793
-105.18621 5.1285858 10.067729
-105.21047 5.1446018 9.8205528
-105.18626 5.1462269 9.5605907
-105.22469 5.1663833 9.319047
-105.19593 5.1665678 9.0604496
-105.20213 5.1770959 8.8121586
-105.20617 5.1869488 8.5642223
-105.17998 5.1877584 8.3102007
-105.17029 5.1934428 8.061223
-105.18659 5.2068582 7.8187828
-105.19141 5.2168221 7.5745397
-105.1753 5.2204919 7.3269596
-105.1759 5.2291374 7.0834799
-105.18388 5.2399678 6.8419662
-105.15195 5.2387953 6.594409
-105.16523 5.2511783 6.3550725
-105.15753 5.2572308 6.1130123
-105.17625 5.2712216 5.8752398
-105.15495 5.2731357 5.6325369
-105.15062 5.2801409 5.3926926
-105.14426 5.2865157 5.1531348
-105.15493 5.2980285 4.9157796
-105.15408 5.3060436 4.6775398
-105.15122 5.3134408 4.4394689
-105.14637 5.320219 4.2015858
-105.12997 5.3234773 3.9633079
-105.14024 5.3348303 3.7269683
-105.14853 5.3455825 3.4905226
-105.13573 5.3499036 3.2533107
-105.14006 5.3594446 3.0168815
-105.1233 5.3625398 2.7800703
-105.12369 5.3708687 2.5437293
-105.11254 5.3756661 2.3073819
-105.13766 5.3915753 2.0708234
-105.11301 5.392231 1.8346821
-105.12462 5.4040117 1.5978425
-105.11514 5.4093213 1.3614271
-105.10368 5.4140239 1.1250856
-105.09025 5.4181199 0.88883626
-105.34973 4.7603803 18.291882
-105.34628 4.7703819 17.974451
-105.36466 4.7864404 17.672983
-105.33309 4.7989416 17.039186
-105.32794 4.9184442 13.559278
-105.32927 4.9284105 13.284266
-105.31517 4.9433107 12.733049
-105.31039 4.9791307 11.661311
-105.28479 4.9808502 11.388929
-105.29922 5.0032082 10.871542
-105.28458 5.0079441 10.607786
-105.25832 5.0092301 10.342074
-105.27576 5.0232329 10.091146
-105.25399 5.0257258 9.8298244
-105.25767 5.0356202 9.5771732
-105.27769 5.0502758 9.3299656
-105.25832 5.0533333 9.0732718
-105.25532 5.0611558 8.8220644
-105.25011 5.0682907 8.5713806
-105.23333 5.0719795 8.3190899
-105.2331 5.0805078 8.0716696
-105.22131 5.0855937 7.8226838
-105.21678 5.0927854 7.5762019
-105.21011 5.0993156 7.3301773
-105.19187 5.102386 7.0829058
-105.19986 5.113203 6.841218
-105.18685 5.1177645 6.5965991
-105.18122 5.1244903 6.3539834
-105.1925 5.1362276 6.114511
-105.16376 5.1360216 5.8699226
-105.16145 5.1436677 5.6297235
-105.1571 5.1506886 5.3897929
-105.1412 5.1542354 5.149116
-105.14233 5.1628575 4.9108124
-105.13857 5.1782646 4.4346762
-105.14326 5.1879191 4.1975665
-105.13639 5.1940975 3.9598901
-105.12753 5.1996646 3.7224381
-105.12624 5.2075024 3.4856534
-105.14212 5.2205086 3.2496305
-105.13688 5.2271476 3.0128627
-105.12009 5.2302904 2.7760544
-105.12046 5.238615 2.5397131
-105.12843 5.2492399 2.303345
-105.13442 5.2592726 2.0668046
-105.13844 5.2687106 1.8301104
-105.12134 5.2717423 1.5938258
-105.10991 5.2847214 1.1206251
-105.31527 4.9494519 8.8433809
-105.31028 4.9565625 8.5920992
-105.30308 4.9629941 8.3413601
-105.30308 4.9714885 8.0932541
-105.30092 4.9793234 7.8455629
-105.27776 4.9809871 7.594512
-105.29016 4.9930191 7.3515067
-105.29103 5.0016541 7.1069078
-105.27087 5.0040936 6.8593531
-105.29595 5.0197902 6.6202555
-105.28107 5.0237246 6.375133
-105.27357 5.0298071 6.1319466
-105.26401 5.0352545 5.8891625
-105.23333 5.0344496 5.6443825
-105.23867 5.0442491 5.4048767
-105.23246 5.0506196 5.1644487
-105.2433 5.0620217 4.9262223
-105.24259 5.0699949 4.6871104
-105.23032 5.0745244 4.4473929
-105.20645 5.0755968 4.2073483
-105.19971 5.0817327 3.9690585
-105.17181 5.0815654 3.7299654
-105.19936 5.0978904 3.4940207
-105.17705 5.099359 3.2559433
-105.19106 5.1116538 3.0193267
-105.1935 5.1205006 2.7823188
-105.18439 5.1258888 2.5451992
-105.20204 5.1392846 2.3082089
-105.17938 5.1406116 2.0712595
-105.18348 5.1499557 1.8341265
-105.17602 5.1558337 1.5971286
-105.15701 5.1582379 1.3605453
-105.14558 5.1629233 1.1237649
-105.30618 4.9742374 4.2219071
-105.29958 4.9962735 3.5056901
-105.29657 5.0033669 3.2673271
-105.27239 5.0042052 3.028559
-105.27498 5.0129361 2.7907622
-105.26598 5.0182419 2.552851
-105.26459 5.0257921 2.3150902
-105.28037 5.0384364 2.0771418
-105.2654 5.0419679 1.8394095
-105.25803 5.0477509 1.6016204
-105.2391 5.0500941 1.3642435
-105.2469 5.0603924 1.1257848
-105.23356 5.0644026 0.88813049
-92.026283 56.367489 16.091803
-92.03299 56.451527 15.555346
-92.002716 56.429516 14.99543
-91.996635 56.476597 14.453203
-91.959969 56.435673 13.893857
-92.027184 56.348595 6.9095397
-92.011444 56.365307 6.3798766
-99.52597 27.316801 18.462326
-99.938438 25.806837 17.752319
-99.6856 26.527002 1.2670286
-99.669746 26.530729 0.9142378
-99.937866 25.445848 17.245081
-99.993279 25.326403 13.739599
-100.00173 25.379807 13.000329
-99.995934 25.395655 12.628857
-99.906639 25.5159 8.9822788
-99.929825 25.56214 8.6322126
-99.86908 25.685991 5.4473114
-101.82859 18.169621 18.042004
-101.8854 18.275946 16.945906
-101.8692 18.343231 15.467823
-101.84719 18.345459 15.095786
-101.82979 18.351223 14.728292
-101.83192 18.372419 14.371441
-101.7868 18.35585 13.996855
-101.76872 18.360689 13.635973
-101.84888 18.410196 7.1380343
-101.83534 18.417522 6.8058352
-101.80403 18.410568 6.4717364
-101.77817 18.407917 6.1396179
-101.75003 18.403383 5.8082218
-101.72739 18.403202 5.4785118
-101.73357 18.426119 5.1528072
-101.76112 18.318611 0.89858395
-102.71975 15.094288 21.077415
-102.49843 15.509941 3.6933279
-102.76172 14.89387 12.180349
-102.6919 15.021754 8.8337479
-102.69156 15.038707 8.5072422
-102.69697 15.05953 8.1827784
-102.68369 15.067577 7.8553352
-102.668 15.07393 7.5284762
-102.63763 15.087161 6.8779531
-102.63937 15.105271 6.5566716
-102.63057 15.11615 6.2343946
-102.64404 15.14225 5.91572
-102.63059 15.149881 5.5939426
-102.59018 15.138971 5.2698679
-102.5885 15.154603 4.9508476
-102.60918 15.185586 4.634141
-102.58646 15.186728 4.3138356
-102.5779 15.197574 3.9951618
-102.56211 15.22015 3.3588021
-105.09418 5.4984574 16.613735
-105.11456 5.5873284 14.858233
-105.06338 5.583672 14.49246
-105.1059 5.6157665 14.16441
-105.0925 5.6263618 13.81734
-105.05824 5.62885 13.465157
-104.98939 6.0861444 2.9170048
-104.92599 6.0750475 2.6066318
-105.234 5.0234299 21.168913
-105.23842 5.231905 16.653889
-105.10113 5.7214699 4.7835011
-105.09943 5.7350206 4.4728413
-105.07659 5.740344 4.1610947
-105.02076 5.7610841 3.2301996
-105.03435 5.7805166 2.9218135
-105.0268 5.7917018 2.6128075
-105.01675 5.801898 2.3039253
-105.03211 5.8220406 1.9952261
-105.00772 5.8266187 1.6864769
-105.01806 5.8448071 1.3774462
-104.98866 5.8474035 1.0691099
-105.00326 5.8672895 0.7595048
-105.27703 4.8530965 18.103569
-92.118996 55.8349 13.806677
-92.113197 55.853832 13.419667
-92.095535 55.842274 13.026223
-92.193375 55.821678 11.858859
-92.188393 55.842274 11.478925
-92.144661 55.82988 10.331129
-92.138412 55.846836 9.9550381
-92.120193 55.833054 9.574605
-92.11515 55.852924 9.200923
-92.10173 55.851242 8.824688
-92.087128 55.846424 8.4490414
-92.364189 55.229664 19.286392
-92.193481 55.521 11.018484
-92.214668 55.607796 10.656277
-92.200974 55.835648 7.6837988
-92.179008 55.81216 7.3082995
-92.170357 55.822639 6.9374585
-92.13517 55.76511 6.5608325
-92.131416 55.788033 6.1926022
-92.115639 55.78006 5.8222475
-92.163887 55.936485 5.4631033
-99.665398 26.626429 19.086727
-99.673103 26.51852 19.058949
-99.687767 26.416315 19.035534
-99.869774 25.805437 18.557032
-99.883751 25.700714 18.534809
-99.911087 25.606169 18.522955
-99.809593 26.299603 1.534073
-99.921593 25.502129 18.503647
-100.03442 25.40159 18.238604
-99.792366 25.968332 1.058169
-100.01923 25.281898 18.210051
-100.05679 25.328045 17.920425
-100.03107 25.334494 17.276239
-100.02662 25.178705 18.19322
-100.04411 25.207731 17.8894
-100.05925 25.234659 17.586229
-100.04504 25.236677 17.265013
-100.03446 25.075369 18.175495
-100.05191 25.104254 17.871983
-100.07373 25.136707 17.573879
-100.03918 25.121609 17.238846
-100.05239 24.995697 17.849646
-100.05393 25.011013 17.537647
-100.05545 25.267017 9.353447
-100.07325 25.293739 9.0996342
-100.13835 25.007929 14.261024
-100.133 25.016142 13.972752
-100.1397 25.034376 13.692833
-100.12296 25.032856 13.40255
-100.11833 25.041418 13.120514
-100.05531 25.155319 9.3385963
-100.1345 24.917515 13.667533
-100.12473 24.921854 13.381389
-100.12715 24.936302 13.103331
-100.05556 25.042933 9.3236685
-100.051 25.050577 9.0637341
-100.05209 25.062943 8.8065424
-100.14291 24.785681 14.216875
-100.12952 24.799778 13.642832
-100.12675 24.809956 13.360826
-100.12907 24.824286 13.083174
-100.12138 24.692097 13.33672
-100.11639 24.700319 13.055986
-101.88093 18.056902 18.071428
-101.8955 18.077492 17.767174
-101.86191 18.069935 17.434826
-101.8404 18.069281 17.113708
-101.89691 18.137268 16.240536
-101.87198 18.134182 15.928596
-101.87531 18.147512 15.635525
-101.82146 18.127272 15.313418
-101.85081 18.155649 15.039443
-101.82283 18.150345 14.736969
-101.82373 18.161882 14.452069
-101.80634 18.1626 14.160092
-101.8602 18.206936 8.8539352
-101.81818 18.210833 8.0877066
-101.81423 18.218 7.8369355
-101.7999 18.218979 7.5847225
-101.79206 18.223774 7.3349271
-101.86396 18.216448 6.1172986
-101.84483 18.214409 5.8694453
-101.86652 18.236534 5.6281328
-101.83511 18.227154 5.379952
-101.84458 18.242006 5.1376572
-101.84367 18.250683 4.8943915
-101.85805 18.26844 4.6529613
-101.8192 18.254534 4.4068208
-101.82135 18.264997 4.1649065
-101.77881 18.248829 3.9201181
-101.76874 18.251978 3.6782291
-101.76544 18.259151 3.4369917
-101.76033 18.265238 3.195843
-102.06544 17.470921 18.755459
-102.06008 17.376635 18.74136
-102.07777 17.295746 18.740402
-102.09668 17.215258 18.737427
-102.07788 17.377052 0.99054974
-102.37267 16.338146 18.457474
-102.37554 16.246233 18.463245
-102.37361 16.149994 18.460314
-102.35241 16.039927 18.437115
-102.3811 15.952046 18.439726
-102.40299 15.904063 17.175716
-102.68231 15.036244 21.485113
-102.68567 15.050239 21.136204
-102.67053 15.055153 20.777493
-102.68938 15.076358 20.447823
-102.65956 15.073879 20.086662
-102.64127 15.076831 19.738041
-102.74283 14.970899 21.51623
-102.76684 14.88772 21.518131
-102.77571 14.793442 21.511593
-102.79907 14.704449 21.516872
-102.73861 14.88673 4.1262922
-102.81319 14.497459 13.375262
-102.85171 14.544753 12.561589
-102.75537 14.794808 4.122602
-102.81461 14.574151 8.3334436
-102.80254 14.683033 5.0974216
-102.74465 14.68996 4.1147623
-102.74558 14.699033 3.8713872
-102.7626 14.715827 3.6290207
-102.74168 14.714399 3.3848195
-102.73687 14.720694 3.1416638
-102.73914 14.730397 2.8988335
-102.72149 14.730504 2.6557012
-102.72895 14.742703 2.4130137
-102.72549 14.749643 2.1701891
-102.70212 14.746971 1.9276413
-102.73087 14.769457 1.6841468
-102.71268 14.769287 1.4415405
-102.70158 14.772542 1.198779
-102.71555 14.78793 0.95465475
-102.71899 14.621349 2.8938067
-102.73734 14.638806 2.651535
-102.73576 14.646718 2.4088085
-102.73225 14.653713 2.1660733
-102.73586 14.664119 1.9232136
-102.71953 14.664955 1.680652
-102.7193 14.673531 1.4376935
-102.70816 14.676859 1.1950226
-102.72211 14.692265 0.95098507
-102.68914 14.685095 0.70938057
-103.19682 12.746138 7.6006756
-103.36475 12.293268 6.3833256
