# .PCD v0.7 - Point Cloud Data file format
VERSION 0.7
FIELDS x y z
SIZE 4 4 4
TYPE F F F
COUNT 1 1 1
WIDTH 1559
HEIGHT 1
VIEWPOINT 0 0 0 1 0 0 0
POINTS 1559
DATA ascii
-102.3364 12.095199 15.774295
-102.31696 12.119078 14.95024
-102.32919 12.136588 14.691062
-102.31522 12.140338 14.419323
-102.39271 11.930508 16.925581
-102.33052 11.979051 14.95423
-102.37464 12.012942 14.713041
-102.37682 12.025084 14.44986
-102.37662 12.035908 14.187483
-102.37 12.064738 13.409543
-102.36047 12.070371 13.150581
-102.3838 12.113843 12.40953
-102.35709 12.110211 12.150156
-102.32808 12.105284 11.891986
-102.32167 12.112078 11.645599
-102.31313 12.117693 11.399979
-102.3025 12.122137 11.155148
-102.32156 12.467548 3.1034455
-102.33107 12.481661 2.8877766
-102.33012 12.490134 2.6717904
-102.32751 12.49771 2.4557838
-102.32323 12.50439 2.2397738
-102.30851 12.505412 2.0239315
-102.3185 12.519818 1.8075662
-102.30047 12.519043 1.5918862
-102.28957 12.52213 1.3760259
-102.31212 12.543382 1.1582296
-102.38917 11.782323 16.920847
-102.35549 11.856367 14.701187
-102.38961 11.884814 14.456004
-102.36546 11.88329 14.180738
-102.35076 11.907809 13.399662
-102.29971 12.060723 9.0509882
-102.31197 12.076604 8.8263102
-102.32016 12.182784 6.369617
-102.3111 12.187091 6.1484733
-102.31779 12.199708 5.9305615
-102.279 12.18822 5.70609
-102.39211 11.637205 16.921646
-102.32706 11.695269 14.685278
-102.38519 11.735719 14.453798
-102.36907 11.738364 14.183085
-102.37894 11.775414 13.414752
-102.33048 11.92967 9.0646124
-102.31714 11.932195 8.8322716
-102.27987 12.077262 4.8456783
-102.37959 11.485861 16.910784
-102.37257 11.583965 14.445706
-102.34837 11.582568 14.170972
-102.30476 11.779944 8.8316898
-102.39055 11.349901 16.912149
-102.33389 11.41173 14.683291
-102.33611 11.42363 14.421289
-102.33595 11.434251 14.160093
-102.301 11.634398 8.8305092
-102.40753 11.673493 5.7413406
-102.38476 11.670672 5.5199351
-102.38181 11.50036 6.1719813
-102.354 11.512465 5.5135412
-102.34635 10.948657 12.348789
-102.42802 8.8351383 12.484903
-102.39097 8.8386126 11.980093
-102.42833 8.7652397 11.035161
-102.39804 8.8594589 8.2735748
-102.41413 8.8749619 8.0551529
-102.41046 8.8820238 7.8324537
-102.43192 8.899766 7.6164732
-102.40636 8.9059601 7.170908
-102.38628 8.9058771 6.9480667
-102.38244 8.9127054 6.7294106
-102.38586 8.9226189 6.5127788
-102.38559 8.7955647 6.5115652
-102.38688 8.3480663 8.2593775
-102.39313 8.4019203 6.9401016
-102.39275 8.418642 6.5053291
-102.40639 8.0994749 11.726716
-102.38283 8.2655783 7.156909
-102.38084 8.2731581 6.9383397
-102.37703 8.2799673 6.7201114
-102.61556 4.9126697 22.310703
-102.55484 4.906405 21.909838
-102.52804 4.7290602 22.940752
-102.5867 5.0670862 10.239321
-102.52747 5.0648508 9.7551622
-102.52194 5.0712342 9.5232458
-102.54182 5.0856013 9.3002214
-102.5322 5.0906138 9.0693197
-102.52972 5.0978446 8.84167
-102.51601 5.1014752 8.612031
-102.5095 5.1073489 8.3855152
-102.49173 5.1096087 8.1572199
-102.49051 5.1170869 7.9341674
-102.48735 5.1239166 7.7115383
-102.45658 5.129684 7.2636352
-102.54464 5.1171265 4.8961329
-102.54639 5.1403122 4.2541409
-102.52122 5.1397724 4.0387764
-102.50377 5.1416783 3.8245907
-102.49403 5.1460457 3.6113386
-102.60008 4.531508 18.706715
-101.3157 55.553959 11.057687
-101.4962 49.861397 17.269804
-102.27917 18.307747 22.284472
-102.25124 17.887964 22.544567
-102.26163 18.220245 16.659424
-102.27992 18.295513 15.560366
-102.26363 18.322807 14.824978
-102.26633 18.344782 14.465072
-102.22897 18.335173 14.090526
-102.1963 18.329107 13.720531
-102.19095 18.344419 13.36358
-102.19054 18.363527 13.010248
-102.27184 17.772614 18.063042
-102.2478 18.32221 7.8252826
-102.23538 18.349493 7.1558833
-102.2296 18.363403 6.8223834
-102.21372 18.369307 6.4880133
-102.20333 18.379499 6.1552701
-102.19846 18.394014 5.8239198
-102.18349 18.40052 5.4918647
-102.13501 18.380442 5.1568546
-102.1233 18.389431 4.8267832
-102.12496 18.409 4.4983587
-102.33011 17.229868 21.922886
-102.28136 17.413048 17.963499
-102.23456 17.964819 7.4403958
-102.25426 17.998669 7.1124101
-102.23985 18.024452 6.4486847
-102.23195 18.055155 5.7883911
-102.23848 18.097033 5.131536
-102.22025 18.119486 4.4734268
-102.23525 18.149561 4.1467533
-102.20869 18.147085 3.8172789
-102.21133 18.167463 3.4899802
-102.19599 18.173735 3.1619298
-102.20985 18.202923 2.8350604
-102.19002 18.205645 2.5072017
-102.20723 18.237497 2.1799326
-102.1829 18.236671 1.8522782
-102.17204 18.246441 1.5247455
-102.14323 18.242058 1.1976568
-102.2533 16.789724 22.160934
-102.319 16.861145 21.79698
-102.3321 16.893564 21.400284
-102.27764 17.04965 17.863571
-102.30248 17.130917 16.758297
-102.28174 17.470629 10.412391
-102.25925 17.491335 9.7316647
-102.26385 17.513659 9.3972139
-102.2739 17.540087 9.0649242
-102.25815 17.546778 8.7274208
-102.24783 17.557556 8.3923035
-102.26651 17.590446 8.0641851
-102.24365 17.591532 7.7283058
-102.24985 17.614807 7.3989615
-102.25375 17.636292 7.0697207
-102.25536 17.655987 6.7406101
-102.24679 17.667845 6.4104719
-102.22804 17.671841 6.0795922
-102.22277 17.68615 5.7512841
-102.231 17.710821 5.4250536
-102.23695 17.733746 5.0987334
-102.21697 17.736652 4.7701015
-102.21051 17.749958 4.4432759
-102.20969 17.767603 4.1171846
-102.21452 17.789604 3.7915912
-102.19339 17.791527 3.4646568
-102.19373 17.810034 3.1390717
-102.13648 17.783939 2.8118124
-102.17973 17.835695 2.4875195
-102.16541 17.84284 2.1617763
-102.18044 17.87277 1.8360522
-102.18532 17.894835 1.5099373
-102.14847 17.884468 1.1845556
-102.2493 16.434431 22.048147
-102.32185 16.509972 21.690508
-102.28235 16.698645 17.776737
-102.32332 16.770451 17.053524
-102.27702 17.071613 11.033815
-102.27155 17.105303 10.356337
-102.26515 17.119297 10.01841
-102.27981 17.149036 9.6871815
-102.26076 17.153402 9.3482313
-102.23927 17.155857 9.0100861
-102.2468 17.180082 8.6799078
-102.23626 17.190651 8.3465099
-102.23911 17.211262 8.0168791
-102.21597 17.212219 7.6829009
-102.21415 17.229216 7.3540101
-102.24954 17.274302 7.0321622
-102.22732 17.275806 6.7008929
-102.22652 17.293474 6.3738394
-102.2155 17.303377 6.0458765
-102.2339 17.335554 5.722322
-102.21832 17.341938 5.394803
-102.21633 17.358606 5.0693831
-102.22002 17.379568 4.7448201
-102.20556 17.386721 4.4189014
-102.18884 17.39212 4.093318
-102.16192 17.389715 3.7676101
-102.16451 17.409794 3.4440525
-102.1887 17.446352 3.1213143
-102.17886 17.456944 2.7970712
-102.17471 17.471882 2.4730759
-102.16038 17.479023 2.1489925
-102.15174 17.49052 1.8250318
-102.15672 17.512461 1.5008312
-102.13565 17.514433 1.1769546
-102.13613 17.53294 0.85241389
-102.24492 16.087061 21.94397
-102.29585 16.146049 21.573643
-102.27316 16.344339 17.689724
-102.30594 16.388744 17.335257
-102.27612 16.387556 16.950777
-102.16168 16.925684 5.6869817
-102.21578 17.002047 5.0462027
-102.24346 17.040724 4.7254305
-102.25293 17.06576 4.4027863
-102.22821 17.065125 4.0776772
-102.22519 17.08075 3.7545524
-102.21191 17.088665 3.4310696
-102.21236 17.10689 3.1084406
-102.20258 17.117401 2.7855034
-102.2065 17.13825 2.4629464
-102.17625 17.133314 2.1399889
-102.18366 17.156794 1.8173409
-102.16488 17.160498 1.4947371
-102.15183 17.16853 1.1721293
-102.19232 17.217094 0.8474704
-102.26402 15.76161 21.861536
-102.26455 15.784039 21.459307
-102.30503 15.834599 21.086279
-102.299 15.852036 20.686188
-102.28236 15.861737 20.282965
-102.29158 15.889632 19.898985
-102.24445 15.980638 17.597317
-102.25451 16.008078 17.233007
-102.2241 16.00639 16.85054
-102.21453 16.629156 5.3477445
-102.2663 15.446504 21.371002
-102.27757 15.475914 20.980738
-102.24918 15.477402 20.568617
-102.29041 15.527441 20.203312
-102.28468 15.544429 19.811813
-102.26831 15.553787 19.417273
-102.27087 15.576254 19.037016
-102.2578 15.648219 17.530975
-102.23753 15.653845 17.152483
-102.26084 15.102123 21.275455
-102.2492 15.338307 16.720486
-102.32083 14.802398 21.219049
-102.2839 15.018988 16.662146
-102.34817 14.720678 16.61665
-102.26244 14.765165 1.4467205
-102.35811 13.092584 21.142754
-102.33658 12.976989 16.584185
-102.40359 13.037683 16.262299
-102.35783 13.027665 15.88844
-102.32471 13.025398 15.523639
-102.34404 13.055906 15.185032
-102.305 13.049652 14.822833
-102.28689 13.0564 14.472337
-102.30686 12.993154 9.5019264
-102.34938 13.069967 8.5596495
-102.34773 13.085536 8.2434359
-102.32703 13.089038 7.9242649
-102.29556 13.085682 7.6042595
-102.27003 13.086005 7.2866988
-102.35947 13.046905 2.6521187
-102.34269 13.084436 1.7294396
-102.341 13.099422 1.4217311
-102.3117 13.096937 1.1146096
-102.31391 13.114402 0.80659223
-102.36436 12.6642 3.5723617
-102.37091 12.331877 3.5702975
-102.37173 11.1062 21.113874
-102.3781 11.720262 9.1047125
-102.38697 11.944993 4.7856631
-102.34244 11.964762 3.8687522
-102.35728 11.989094 3.5656781
-102.44663 10.826077 21.09343
-102.43988 11.249413 12.609444
-102.429 11.259604 12.279093
-102.4326 11.29433 11.631849
-102.37531 11.325691 10.335442
-102.40411 11.405781 9.0834579
-102.36215 11.598022 4.771595
-102.29186 11.60244 3.8572114
-102.31548 11.631576 3.5562482
-102.42931 11.09009 9.0602674
-102.41441 11.23552 5.9781713
-102.41417 11.265805 5.3697705
-102.39765 11.271449 5.0644789
-102.37018 11.270732 4.7588382
-102.38355 11.293593 4.4574542
-102.36874 11.30014 4.1539807
-102.29979 11.275306 3.8475862
-102.40519 8.9245443 13.305343
-102.42662 8.9509134 12.989354
-102.48793 8.9974937 12.68881
-102.43262 8.9999895 12.029125
-102.46926 9.0338593 11.723322
-102.45198 9.0401793 11.4013
-102.43201 9.0450468 11.080239
-102.41801 9.0528746 10.762689
-102.41866 9.0681267 10.450863
-102.38218 9.0642986 10.13016
-102.39504 9.0856819 9.8243113
-102.37942 9.0923986 9.5121622
-102.36996 9.1022177 9.2028961
-102.38669 8.865737 7.6742816
-102.44422 8.2689514 14.235331
-102.4993 8.311204 13.92919
-102.48396 8.3190193 13.596597
-102.44469 8.3301363 12.934714
-102.44755 8.478714 9.7946329
-102.46689 8.5026693 9.4924898
-102.36114 8.7708616 2.6235178
-102.39527 8.8018913 2.330339
-102.39143 8.813714 2.0363417
-102.37637 8.8198538 1.7424026
-102.37686 8.8338766 1.4483517
-102.41071 8.8648548 1.1532121
-102.47984 7.967288 14.197522
-102.47544 7.9805427 13.86846
-102.45115 7.98417 13.533753
-102.44265 7.8940148 8.4963827
-102.47003 7.2257767 16.069141
-102.53341 4.679812 18.582846
-102.60357 4.7231274 18.266764
-102.53168 5.3419189 4.2773433
-102.52612 5.3529706 3.9896355
-102.50896 5.3593035 3.7015893
-102.48948 5.364665 3.4139326
-101.284 55.256893 18.572266
-101.31085 55.332687 18.137833
-101.29356 55.330231 17.676315
-101.34457 55.195259 17.202091
-101.323 55.184998 16.743753
-101.30408 55.179272 16.289598
-101.3021 55.203339 15.847379
-101.27914 55.190163 15.395559
-101.29702 55.249153 14.967514
-101.30348 55.287876 14.534578
-101.33286 54.805157 18.927799
-101.42131 51.118797 18.679413
-101.49602 50.593296 18.566471
-101.41478 49.347084 18.613272
-101.43244 49.16592 18.576538
-101.45306 48.590397 18.467503
-101.46496 48.411438 18.432089
-101.5434 48.557083 18.068615
-101.48334 48.24025 18.398371
-101.51933 48.119644 17.960356
-101.50308 48.119537 17.538382
-101.51578 48.163441 17.137123
-101.52647 48.20417 16.736244
-101.54558 48.257668 16.341906
-101.50526 48.220234 15.914873
-101.5151 48.25935 15.518814
-101.48625 48.23914 15.103395
-101.48684 48.263878 14.705923
-101.50313 47.893513 17.898966
-101.51776 47.940258 17.498354
-101.50957 47.952213 17.085161
-101.53576 48.016319 16.695047
-101.52866 48.029697 16.286459
-101.52472 48.047768 15.881802
-101.53975 48.09462 15.489559
-101.51073 48.074245 15.074976
-101.5218 48.114861 14.683806
-101.48866 48.087921 14.271707
-101.52226 48.162777 13.894566
-101.4904 48.137547 13.48715
-101.50431 48.182182 13.102819
-101.49233 47.675644 17.840099
-101.50157 47.714066 17.437571
-101.53485 47.788761 17.05171
-101.52438 47.797146 16.640387
-101.51704 47.810143 16.23321
-101.50764 47.819866 15.826983
-101.5225 47.866291 15.436241
-101.51431 47.877644 15.034427
-101.52525 47.91795 14.64443
-101.47598 47.866619 14.225567
-101.49357 47.916851 13.842167
-101.4827 47.923683 13.446358
-101.49117 47.959888 13.060987
-101.43906 47.90366 12.650429
-101.49741 47.481339 17.790182
-101.48559 47.487957 17.375553
-101.50823 47.546383 16.984713
-101.49744 47.554314 16.575045
-101.52661 47.622402 16.190981
-101.50645 47.615944 15.779875
-101.49474 47.622108 15.375892
-101.47569 47.617039 14.970121
-101.4917 47.66489 14.5847
-101.48455 47.677608 14.188782
-101.48607 47.703354 13.798787
-101.48565 47.726086 13.409287
-101.45126 47.697166 13.005951
-101.46299 47.738155 12.624972
-101.48663 47.263824 17.728914
-101.47974 47.277882 17.318995
-101.50745 47.343742 16.932701
-101.49115 47.343426 16.521128
-101.48854 47.363537 16.120001
-101.48389 47.380447 15.719671
-101.48779 47.410122 15.325966
-101.48439 47.428722 14.929978
-101.48432 47.452221 14.537454
-101.47163 47.456585 14.140236
-101.46227 47.465874 13.74655
-101.44559 47.464001 13.35122
-101.44837 47.491409 12.966502
-101.43852 47.499641 12.57756
-101.47993 47.054115 17.672808
-101.48981 47.117489 16.872772
-101.49958 47.156239 16.478422
-101.46505 47.128571 16.059994
-101.48663 47.184765 15.676147
-101.4691 47.182285 15.272021
-101.45483 47.184544 14.871913
-101.44919 47.199631 14.478336
-101.44691 47.21965 14.088177
-101.44183 47.258667 13.312278
-101.47102 46.84425 17.619846
-101.49015 46.945221 16.429422
-101.47124 46.940979 16.021513
-101.46085 46.949284 15.620865
-101.47504 46.994148 15.235709
-101.45525 46.988201 14.833875
-101.4524 47.030804 14.055136
-101.469 46.696831 16.773281
-101.46472 46.738125 15.978062
-101.4878 46.509987 17.139713
-101.5099 46.566486 16.754728
-101.52473 46.612152 16.366673
-101.48425 46.575947 15.948243
-101.47362 46.583721 15.549673
-101.47164 46.604179 15.157909
-101.46168 46.635876 14.37655
-101.55457 46.419765 17.135489
-101.5886 46.54071 15.965715
-101.57272 46.540718 15.563663
-101.56012 46.545422 15.165686
-101.52394 46.515186 14.757493
-101.46944 46.457729 14.342858
-101.4722 46.484703 13.95963
-101.48385 46.524742 13.582006
-101.46649 46.521782 13.192164
-101.47974 46.564053 12.817734
-101.47481 46.579315 12.436444
-101.47341 46.599743 12.057984
-101.45376 46.592995 11.673576
-101.49834 46.312252 14.31744
-101.49023 46.323059 13.929589
-101.48557 46.33884 13.545117
-101.46808 46.335613 13.156372
-101.56301 46.498127 12.81893
-101.56358 46.52145 12.439776
-101.56773 46.549969 12.063283
-101.53167 46.519012 11.672121
-101.52104 46.525532 11.292746
-101.55243 46.594154 10.92981
-101.49078 46.111233 14.270042
-101.49337 46.137627 13.888741
-101.48856 46.153103 13.505362
-101.48727 46.17363 13.125144
-101.49197 45.944225 13.842922
-101.47607 45.943417 13.455605
-101.50181 45.62236 13.009242
-101.51418 45.450691 12.980536
-101.50826 45.25407 12.949708
-101.52006 45.080082 12.927793
-102.188 18.058048 17.941736
-102.18607 18.068913 17.626057
-102.17361 18.085331 16.998112
-102.18617 18.104246 16.699678
-102.26501 17.99403 18.303102
-102.28371 18.052437 17.058926
-102.28075 18.130331 14.959853
-102.26756 18.133713 14.662815
-102.25176 18.135498 14.36691
-102.24137 18.140318 14.076048
-102.22047 18.138958 13.782422
-102.20506 18.140688 13.493736
-102.19521 18.145578 13.209779
-102.19913 18.158388 12.933888
-102.17644 18.155649 12.648236
-102.19196 18.175087 12.380716
-102.15173 18.182451 11.552248
-102.19178 17.841457 18.561491
-102.2505 18.161718 11.046897
-102.23655 18.163687 10.77632
-102.22869 18.169138 10.509411
-102.21867 18.173277 10.243217
-102.21484 18.180969 9.9804049
-102.19221 18.177645 9.713069
-102.18417 18.182772 9.4516354
-102.18241 18.191536 9.1932316
-102.13915 18.185677 8.6690416
-102.25065 17.776663 18.586287
-102.24448 18.187567 7.6741519
-102.2196 18.192135 7.1656051
-102.22549 18.205097 6.9162388
-102.2039 18.201942 6.6624317
-102.19742 18.207603 6.4122257
-102.18048 18.207104 6.1610355
-102.19582 18.225521 5.9155207
-102.14938 18.207647 5.6615767
-102.13527 18.208714 5.4131756
-102.12783 18.213684 5.1662478
-102.12711 18.222584 4.9205527
-102.12868 18.24213 4.4303837
-102.26322 17.688175 18.580271
-102.23441 18.243895 3.4552734
-102.22939 18.250219 3.2100284
-102.19669 18.240238 2.9641907
-102.18799 18.24437 2.7194376
-102.19467 18.257568 2.4749448
-102.16506 18.249365 2.2303803
-102.14224 18.245146 1.9862292
-102.21296 17.541388 19.182348
-102.30481 17.617426 18.595203
-102.16473 18.170269 1.7415653
-102.22271 17.455257 19.178432
-102.28459 17.514122 18.571247
-102.19396 18.099672 1.4979435
-102.27995 17.420137 18.555136
-102.20724 17.264454 19.138103
-102.30667 17.343376 18.557186
-102.13795 17.883003 1.2531707
-102.31452 17.252728 18.539877
-102.1674 17.803164 1.2455189
-102.20486 17.72854 1.2374419
-102.22734 17.5737 3.1817646
-102.19903 17.628834 1.2335945
-102.31938 16.80805 22.956875
-102.21039 17.539221 1.229712
-102.29657 16.702503 22.917576
-102.23858 17.459249 1.2258688
-102.30231 16.610868 22.902521
-102.29969 16.514137 22.883827
-102.29472 16.416552 22.867376
-102.28851 16.318829 22.852453
-102.28531 16.225502 22.847851
-102.27983 16.1308 22.845854
-102.27368 16.035816 22.84465
-102.24323 16.618822 5.8708644
-102.28347 16.649214 5.6316643
-102.26393 15.936841 22.833807
-102.35965 15.998854 22.546656
-102.22626 16.511917 5.8728714
-102.26662 16.542187 5.6340289
-102.27326 15.842767 22.829849
-102.35474 15.897244 22.530926
-102.28852 16.446533 5.8813543
-102.26611 15.735738 22.803402
-102.36183 15.797285 22.516605
-102.29214 15.643518 22.795441
-102.27625 15.531953 22.748228
-102.29492 15.440446 22.731153
-102.28986 15.339852 22.697725
-102.29462 15.247462 22.680199
-102.37541 15.300591 22.382324
-102.28955 15.154096 22.658369
-102.3703 15.206918 22.360691
-102.30382 15.073909 22.655632
-102.3702 15.119387 22.346121
-102.30177 14.986086 22.642719
-102.36094 15.027754 22.327433
-102.30049 14.895363 22.630575
-102.36694 14.940319 22.321337
-102.29369 14.798558 22.611855
-102.36011 14.84328 22.302826
-102.25624 14.924285 18.49766
-102.36234 14.987087 18.24943
-102.28038 14.699009 22.584919
-102.36125 14.750416 22.287979
-102.38809 14.775877 21.950052
-102.36257 14.893237 18.23632
-102.3533 14.921578 17.294374
-102.28923 14.609963 22.575214
-102.36285 14.657673 22.272425
-102.27246 14.744729 18.480673
-102.36316 14.799479 18.222498
-102.35365 14.827608 17.281008
-102.29047 14.513348 22.562418
-102.38598 14.57121 22.277494
-102.39082 14.586086 21.922119
-102.28831 14.65521 18.479843
-102.35574 14.698583 18.206568
-102.33801 14.722793 17.260956
-102.28408 14.411567 22.544062
-102.35766 14.458879 22.241625
-102.38428 14.48401 21.904188
-102.27272 14.549366 18.459005
-102.35567 14.599961 18.196098
-102.3298 14.620415 17.246141
-102.28518 14.314236 22.53093
-102.35875 14.361343 22.22863
-102.35591 14.372612 21.867983
-102.34807 14.498309 18.179827
-102.35811 14.514098 17.872068
-102.34944 14.520922 17.555479
-102.32186 14.518661 17.230555
-102.3362 14.253198 22.200327
-102.37734 14.28492 21.875063
-102.27946 14.357247 18.443756
-102.3547 14.403755 18.176043
-102.36474 14.419519 17.868361
-102.36395 14.430081 17.556732
-102.30466 14.412932 17.212582
-102.33327 14.154475 22.192055
-102.3597 14.179251 21.855259
-102.27634 14.258282 18.43708
-102.35947 14.308247 18.174564
-102.36169 14.320296 17.862
-102.36089 14.33083 17.550524
-102.32535 14.324958 17.220938
-102.33135 14.055631 22.182838
-102.35777 14.080317 21.846188
-102.28185 14.162894 18.434576
-102.3259 14.194451 18.146967
-102.35944 14.221044 17.854698
-102.35862 14.231554 17.543373
-102.29917 14.214622 17.199512
-102.32761 13.95284 22.161417
-102.33912 13.970679 21.813299
-102.38982 14.030773 20.804461
-102.28406 14.063417 18.420683
-102.32805 14.094861 18.133219
-102.36151 14.121363 17.841097
-102.36058 14.131864 17.529926
-102.30096 14.115058 17.186228
-102.34019 13.855402 22.149611
-102.35159 13.873252 21.801561
-102.37428 13.89609 21.466251
-102.35683 13.912772 20.759195
-102.34639 13.920109 20.410748
-102.36281 13.939558 20.085732
-102.35304 13.946926 19.745483
-102.28746 13.962893 18.4046
-102.33135 13.994246 18.117279
-102.35682 14.017055 17.820345
-102.35571 14.02755 17.509403
-102.2799 14.003537 17.15634
-102.35249 14.047775 16.895657
-102.37204 14.159982 13.997798
-102.34426 13.753908 22.133551
-102.36293 13.775094 21.791479
-102.37809 13.794563 21.450472
-102.38229 13.808938 21.104879
-102.35279 13.807926 20.738091
-102.36488 13.825587 20.406511
-102.35841 13.8347 20.065065
-102.35611 13.845571 19.730444
-102.2899 13.861785 18.390173
-102.34158 13.896644 18.10803
-102.35118 13.912217 17.801258
-102.34196 13.919087 17.485666
-102.28979 13.906185 17.147333
-102.34636 13.942954 16.877264
-102.37959 13.979674 16.295891
-102.36377 13.983008 15.990533
-102.36948 13.996145 15.699721
-102.36431 14.004194 15.405428
-102.36462 14.014676 15.116439
-102.35403 14.020046 14.824186
-102.349 14.0279 14.537142
-102.35796 14.042137 14.259117
-102.33941 14.043584 13.969954
-102.36005 14.063083 13.701292
-102.34474 14.065877 13.417927
-102.36058 14.08303 13.150452
-102.36563 14.095125 12.879827
-102.3516 14.107924 12.333667
-102.35805 14.120486 12.068629
-102.35364 14.127946 11.80087
-102.34691 14.134262 11.53387
-102.33785 14.139441 11.267653
-102.3524 14.155571 11.011374
-102.35613 14.166614 10.752468
-102.34032 14.168476 10.488332
-102.33094 14.173289 10.227868
-102.33678 14.185177 9.9735594
-102.3405 14.196033 9.7196732
-102.35085 14.209965 9.4687729
-102.34319 14.260053 7.9642534
-102.33027 14.262799 7.7141838
-102.33308 14.272925 7.4684486
-102.3339 14.282089 7.2230053
-102.34164 14.294501 6.9795623
-102.33206 13.648785 22.105967
-102.33571 13.663225 21.752506
-102.35803 13.685898 21.41769
-102.35447 13.696811 21.066761
-102.36235 13.712724 20.728514
-102.3668 13.726953 20.391459
-102.36782 13.739506 20.055635
-102.36544 13.750393 19.721088
-102.28318 13.759705 18.370918
-102.32689 13.790843 18.083963
-102.35213 13.813525 17.787403
-102.35074 13.824018 17.476843
-102.29045 13.807612 17.133793
-102.355 13.847896 16.868595
-102.36889 13.865048 16.575317
-102.35577 13.869795 16.269089
-102.36409 13.884231 15.977605
-102.36154 13.893617 15.682533
-102.34805 13.897902 15.384139
-102.33997 13.904572 15.091208
-102.35394 13.92126 14.811893
-102.34052 13.925314 14.520907
-102.34105 13.935686 14.239101
-102.32232 13.937134 13.950262
-102.34283 13.956546 13.681919
-102.32736 13.959336 13.398879
-102.32619 13.968638 13.124329
-102.33952 13.984558 12.85781
-102.34203 13.995433 12.588251
-102.31663 13.99335 12.309014
-102.33144 14.009785 12.047841
-102.3183 14.01324 11.777205
-102.33717 14.031452 11.520324
-102.31076 14.028645 11.248108
-102.30789 14.036681 10.986158
-102.31145 14.047646 10.727836
-102.33018 14.06562 10.475788
-102.30328 14.062342 10.209994
-102.31772 14.07824 9.9588127
-102.31258 14.08499 9.7026386
-102.3316 14.102949 9.4546986
-102.30465 14.099443 9.1946125
-102.31071 14.111291 8.9450054
-102.29707 14.113904 8.6911678
-102.299 14.123749 8.4424324
-102.29003 14.128464 8.1919661
-102.3056 14.144634 7.948163
-102.29256 14.147374 7.6986089
-102.30415 14.161634 7.4552469
-102.30488 14.170774 7.2102332
-102.30363 14.178958 6.9655323
-102.30933 14.190388 6.7227645
-102.30414 14.196674 6.4786615
-102.29698 14.202011 6.23493
-102.30579 14.214849 5.9942741
-102.30372 14.222538 5.7524266
-102.29073 14.22506 5.5096655
-102.29378 14.235129 5.2695184
-102.30392 14.248538 5.030488
-102.28515 14.248272 4.7886953
-102.30049 14.264125 4.5506973
-102.28692 14.266281 4.3103218
-102.32648 13.548295 22.083427
-102.32254 13.559363 21.724346
-102.35213 13.585234 21.395573
-102.3484 13.596098 21.044859
-102.34856 13.608561 20.701206
-102.3528 13.622701 20.364439
-102.34598 13.631753 20.023436
-102.35102 13.645989 19.694656
-102.2914 13.665778 18.361002
-102.34296 13.700363 18.079144
-102.34444 13.712281 17.767719
-102.31903 13.711945 17.442755
-102.28239 13.706407 17.114578
-102.3308 13.739229 16.840151
-102.37675 13.770881 16.565845
-102.35545 13.771974 16.255127
-102.35555 13.782672 15.959305
-102.34469 13.788305 15.660054
-102.35562 13.803749 15.374985
-102.33923 13.806681 15.077877
-102.35312 13.823313 14.798717
-102.33128 13.823587 14.503796
-102.35668 13.845324 14.234286
-102.34626 13.850643 13.949389
-102.32484 13.850855 13.66167
-102.33447 13.865183 13.390289
-102.33324 13.874482 13.115821
-102.32957 13.882595 12.842149
-102.32346 13.889526 12.5693
-102.32348 13.899199 12.300754
-102.32969 13.911664 12.036289
-102.32504 13.919076 11.769109
-102.32666 13.929319 11.505896
-102.31738 13.934489 11.240179
-102.30581 13.938538 10.975273
-102.31796 13.953481 10.720074
-102.31058 13.95936 10.459485
-102.30968 13.968189 10.202402
-102.31535 13.98001 9.948595
-102.29263 13.978645 9.6873465
-102.31155 13.996524 9.4397402
-102.29327 13.99712 9.1824512
-102.29044 14.004838 8.930728
-102.29435 14.01565 8.6818008
-102.28737 14.021365 8.4310369
-102.29604 14.034325 8.1850548
-102.2672 14.029793 7.9311929
-102.2718 14.040798 7.6860399
-102.29224 14.059157 7.4448767
-102.27505 14.059952 7.1965771
-102.27371 14.068103 6.9523058
-102.27934 14.079486 6.7099681
-102.29196 14.094129 6.4693241
-102.27577 14.09527 6.2244258
-102.25761 14.095453 5.9800916
-102.27341 14.111528 5.7413588
-102.26033 14.114053 5.4990335
-102.24532 14.115641 5.2571573
-102.26439 14.133223 5.0197272
-102.25455 14.137209 4.779367
-102.26986 14.153008 4.541801
-102.25622 14.155176 4.3018627
-102.24969 14.160683 4.0629406
-102.24129 14.165285 3.8242323
-102.23099 14.168984 3.5857561
-102.23687 14.180317 3.3483014
-102.23185 14.186493 3.1104681
-102.23399 14.196051 2.8729587
-102.2252 14.200442 2.6352813
-102.23264 14.212503 2.3978262
-102.23818 14.223682 2.1601889
-102.23281 14.229691 1.9225255
-102.2346 14.239098 1.6846657
-102.21646 14.239038 1.4473025
-102.23254 14.25525 1.2085812
-102.22869 14.261992 0.97039288
-102.32093 13.447441 22.061058
-102.3465 13.471628 21.725519
-102.36119 13.49086 21.385147
-102.34984 13.498401 21.028818
-102.34232 13.507485 20.679693
-102.34638 13.521575 20.343143
-102.35467 13.537409 20.013304
-102.36732 13.555065 19.689999
-102.3196 13.591911 18.049355
-102.32877 13.607302 17.743259
-102.32703 13.617693 17.433235
-102.33064 13.641343 16.826059
-102.36845 13.66924 16.547255
-102.33887 13.666691 16.232204
-102.35507 13.684685 15.945676
-102.36046 13.697716 15.65541
-102.34673 13.702021 15.357336
-102.32194 13.701226 15.056212
-102.34395 13.721526 14.781545
-102.31365 13.718053 14.482768
-102.34725 13.743468 14.217591
-102.30322 13.733578 13.917187
-102.32353 13.752831 13.649321
-102.31621 13.759458 13.370547
-102.32329 13.772567 13.100099
-102.32798 13.784528 12.830286
-102.32178 13.791463 12.557603
-102.2961 13.789433 12.278866
-102.31071 13.805741 12.018181
-102.31451 13.817054 11.754618
-102.30741 13.823328 11.488448
-102.30664 13.832439 11.226188
-102.31226 13.844434 10.967611
-102.30701 13.851388 10.706582
-102.30822 13.861261 10.449118
-102.28979 13.862066 10.186625
-102.3041 13.877868 9.9358587
-102.2988 13.884606 9.680109
-102.30891 13.898404 9.430048
-102.29053 13.899036 9.1729317
-102.29646 13.91083 8.9237461
-102.28264 13.913477 8.6703386
-102.28442 13.923287 8.4220295
-102.2753 13.92802 8.1719923
-102.28188 13.939985 7.9265852
-102.27756 13.946877 7.679491
-102.28013 13.956933 7.4346986
-102.27179 13.9619 7.1884303
-102.27039 13.970055 6.9443321
-102.27596 13.981428 6.7021661
-102.26166 13.98354 6.4571567
-102.25434 13.988873 6.214119
-102.27202 14.005821 5.9754915
-102.26083 14.009305 5.7329984
-102.24768 14.011856 5.4909358
-102.25962 14.026093 5.2525616
-102.23361 14.022592 5.0101643
-102.25076 14.039242 4.7729592
-102.23896 14.042343 4.5331073
-102.23428 14.048762 4.2943397
-102.24578 14.062751 4.0570579
-102.22828 14.063141 3.8179677
-102.22697 14.071113 3.5802262
-102.22379 14.078195 3.3425615
-102.22777 14.088641 3.105288
-102.22987 14.098206 2.8679533
-102.22105 14.102629 2.6304526
-102.33826 13.370074 21.706898
-102.34534 13.385943 21.360979
-102.36389 13.406728 21.027697
-102.34879 13.412524 20.672953
-102.36804 13.433346 20.347569
-102.35342 13.439058 20.00124
-102.33522 13.443039 19.656483
-102.31782 13.493586 18.038189
-102.32692 13.508946 17.732246
-102.30916 13.512218 17.412622
-102.33661 13.546557 16.82023
-102.35826 13.567145 16.532211
-102.34477 13.571911 16.226532
-102.32835 13.575254 15.92212
-102.33356 13.58821 15.632245
-102.35253 13.60726 15.351902
-102.32768 13.606533 15.050859
-102.33311 13.619336 14.767918
-102.31932 13.623403 14.477576
-102.32788 13.637461 14.200427
-102.31718 13.642758 13.916095
-102.3123 13.650599 13.636658
-102.33019 13.668667 13.369456
-102.31188 13.670294 13.087923
-102.32498 13.686073 12.821969
-102.30168 13.685292 12.542383
-102.31004 13.698801 12.277781
-102.30753 13.707318 12.010358
-102.31129 13.71862 11.74696
-102.31275 13.728832 11.48416
-102.3033 13.734021 11.218863
-102.30022 13.742052 10.957414
-102.30357 13.75297 10.699592
-102.29603 13.758863 10.439424
-102.30373 13.771669 10.185549
-102.29178 13.775455 9.9266691
-102.29518 13.786212 9.6737928
-102.29647 13.795961 9.4213648
-102.28683 13.800666 9.166955
-102.28389 13.808397 8.9155731
-102.27001 13.811069 8.6624212
-102.28061 13.824943 8.4165649
-102.28032 13.833783 8.1688118
-102.2691 13.837563 7.9194374
-102.27364 13.848563 7.674542
-102.25834 13.850393 7.4262104
-102.27675 13.867736 7.185596
-102.27533 13.875912 6.9415851
-102.24505 13.870728 6.6931138
-102.25759 13.885301 6.4530725
-102.25025 13.890659 6.2102084
-102.25893 13.903415 5.9704151
-102.2477 13.906927 5.7281823
-102.24352 13.91369 5.4875469
-102.24644 13.923726 5.2482677
-102.25648 13.937057 5.0101027
-102.23753 13.936908 4.7691879
-102.24377 13.948451 4.5312362
-102.23003 13.95069 4.2918243
-102.24154 13.964668 4.0547171
-102.24211 13.973552 3.8169184
-102.31886 13.266347 21.685516
-102.34827 13.291955 21.357168
-102.35932 13.309386 21.018269
-102.32903 13.308535 20.652433
-102.33293 13.322541 20.316248
-102.35639 13.345015 19.997723
-102.33818 13.349026 19.653036
-102.3129 13.396067 18.030087
-102.31404 13.407859 17.719345
-102.30418 13.41466 17.404825
-102.32353 13.445303 16.808018
-102.33705 13.462195 16.515585
-102.34783 13.477783 16.223923
-102.31508 13.47388 15.910604
-102.31205 13.483122 15.616551
-102.33094 13.502067 15.336524
-102.31424 13.505027 15.040051
-102.31963 13.517776 14.757347
-102.32242 13.529289 14.475438
-102.32264 13.539575 14.194352
-102.31192 13.544873 13.910179
-102.31542 13.556481 13.634761
-102.29112 13.555521 13.348757
-102.31503 13.576167 13.086188
-102.31966 13.588083 12.816702
-102.29632 13.587334 12.537278
-102.31323 13.604664 12.276292
-102.29357 13.605432 12.002212
-102.28008 13.608912 11.732486
-102.30735 13.630772 11.479715
-102.29788 13.635963 11.214581
-102.31215 13.651847 10.959378
-102.28944 13.65093 10.692688
-102.29931 13.664729 10.438515
-102.29829 13.673544 10.181936
-102.30386 13.685308 9.9286337
-102.28973 13.688075 9.670516
-102.29102 13.697807 9.4182577
-102.29019 13.70654 9.1664686
-102.28727 13.714276 8.9151707
-102.27339 13.716976 8.6621037
-102.2929 13.73488 8.4185324
-102.27486 13.735603 8.1665535
-102.26364 13.739395 7.9173489
-102.25928 13.746292 7.6706834
-102.26183 13.756325 7.4263201
-102.28027 13.773627 7.1857934
-102.26096 13.773582 6.938499
-102.24859 13.77669 6.6934814
-102.25219 13.787107 6.4520149
-102.24485 13.792476 6.2093234
-102.25134 13.81289 5.7288971
-102.23817 13.815505 5.4871812
-102.25014 13.829697 5.249156
-102.23312 13.830492 5.0080991
-102.24128 13.842904 4.7702498
-102.23383 13.85671 4.2930603
-102.32734 13.17719 21.688995
-102.36436 13.205992 21.366415
-102.35294 13.213563 21.01037
-102.34534 13.222651 20.661533
-102.357 13.239999 20.330822
-102.34998 13.249048 19.990257
-102.35487 13.263178 19.661919
-102.31432 13.303396 18.028534
-102.29766 13.318438 17.398544
-102.3251 13.352514 16.80677
-102.32246 13.36219 16.505121
-102.33321 13.377693 16.213692
-102.30857 13.37742 15.905095
-102.32194 13.393907 15.620028
-102.32444 13.405492 15.33133
-102.31599 13.412125 15.039268
-102.28822 13.410066 14.739932
-102.29926 13.425194 14.46252
-102.29942 13.435407 14.181752
-102.3306 13.459384 13.917593
-102.3005 13.45595 13.626659
-102.30151 13.466324 13.352228
-102.30006 13.475532 13.07857
-102.30467 13.487387 12.809329
-102.30691 13.498116 12.54075
-102.28108 13.4962 12.2625
-102.30428 13.516213 12.005682
-102.29083 13.51972 11.735955
-102.29227 13.529861 11.473569
-102.30012 13.542827 11.214929
-102.271 13.539097 10.944608
-102.28304 13.553853 10.690243
-102.27546 13.55972 10.43049
-102.26566 13.56453 10.171454
-102.27996 13.580182 9.921279
-102.28339 13.590882 9.6687403
-102.27588 13.596595 9.4141121
-102.27506 13.605291 9.1625767
-102.28098 13.61701 8.9139013
-102.27599 13.623739 8.6632853
-102.26003 13.625448 8.411005
-102.25975 13.634245 8.1636772
-102.25744 13.642084 7.9167557
-102.2531 13.648968 7.6702604
-102.24673 13.654898 7.4242115
-102.26521 13.67213 7.1839447
-102.2459 13.672097 6.9369049
-102.24785 13.699177 6.2113566
-102.25661 13.711879 5.9718246
-102.24541 13.715424 5.7298493
-102.2413 13.722191 5.4894729
-102.23634 13.737169 5.0105634
-102.42347 13.163174 20.714212
-102.3446 13.153224 19.981403
-102.31145 13.252604 16.794682
-102.31687 13.265775 16.497911
-102.32761 13.281199 16.206636
-102.3111 13.284529 15.902685
-102.30809 13.293708 15.608866
-102.31879 13.308856 15.32474
-102.31033 13.315455 15.032835
-102.30744 13.324431 14.74619
-102.31023 13.335844 14.4646
-102.29371 13.33862 14.175791
-102.31651 13.358753 13.907854
-102.28635 13.355319 13.617158
-102.28732 13.365627 13.342969
-102.30282 13.382326 13.076949
-102.29042 13.386557 12.800554
-102.28409 13.393412 12.528684
-102.29247 13.406767 12.264573
-102.28995 13.415202 11.997642
-102.26784 13.414828 11.724869
-102.28653 13.432627 11.469227
-102.29438 13.445532 11.210752
-102.26524 13.441824 10.940594
-102.26857 13.452604 10.683437
-102.27845 13.466276 10.429684
-102.27743 13.475014 10.173521
-102.27423 13.482728 9.9179325
-102.26887 13.489423 9.6629381
-102.26134 13.495103 9.4085608
-102.26936 13.507733 9.1597319
-102.27031 13.526106 8.660779
-102.27213 13.535846 8.4130669
-102.26299 13.540604 8.1636238
-102.26796 13.569324 7.4281282
-102.25963 13.574318 7.1824589
-102.24929 13.578369 6.9372754
-102.25493 13.589643 6.6957998
-102.32381 12.989025 21.67532
-102.31065 13.114361 18.017262
-102.32776 13.132978 17.71673
-102.31335 13.159595 16.791683
-102.31879 13.172735 16.494989
-102.31327 13.180985 16.194651
-102.32124 13.195049 15.904413
-102.32648 13.20784 15.615008
-102.31252 13.212117 15.317793
-102.31231 13.22234 15.030303
-102.30112 13.227647 14.739557
-102.28719 13.231669 14.449924
-102.29572 13.245489 14.173495
-102.29332 13.254429 13.893819
-102.27994 13.258446 13.611162
-102.3063 13.279943 13.348473
-102.29639 13.285353 13.071277
-102.27761 13.296417 12.523335
-102.28599 13.309723 12.259388
-102.28721 13.32928 11.729881
-102.27137 13.331662 11.461327
-102.2792 13.344509 11.203101
-102.2674 13.348574 10.939273
-102.27192 13.369069 10.425654
-102.28527 13.393333 9.9196539
-102.27113 13.396102 9.662035
-102.27245 13.405737 9.4102812
-102.27166 13.414388 9.1589975
-102.2567 13.43447 8.408185
-102.26147 13.471874 7.4261298
-102.32615 12.895666 21.670769
-102.30432 13.0393 17.389004
-102.31306 13.075623 16.486977
-102.29935 13.080304 16.182219
-102.31544 13.097868 15.89671
-102.30667 13.114893 15.310403
-102.29814 13.121464 15.018811
-102.2952 13.130388 14.732482
-102.2896 13.138068 14.447108
-102.28974 13.148185 14.166739
-102.28732 13.157102 13.887221
-102.2908 13.168533 13.612446
-102.28333 13.175087 13.334638
-102.28183 13.184198 13.061464
-102.28007 13.202762 12.521083
-102.27732 13.220649 11.987159
-102.28252 13.241812 11.462611
-102.27328 13.265631 10.680525
-102.28321 13.279238 10.426939
-102.26252 13.324356 8.9047489
-102.26153 13.36816 7.6694894
-102.3217 12.798518 21.658035
-102.33341 12.978824 16.792038
-102.32259 12.984927 16.486053
-102.33328 13.000233 16.195023
-102.32484 13.007174 15.895805
-102.32178 13.016346 15.602149
-102.33247 13.031395 15.318191
-102.29904 13.027214 15.013674
-102.29601 13.036131 14.727432
-102.28278 13.07054 13.603889
-102.28207 13.089886 13.056948
-102.32416 12.890254 16.806767
-102.34595 12.910444 16.519144
-102.31604 12.908332 16.204714
-102.32407 12.922421 15.914325
-102.31288 12.928157 15.61594
-102.32368 12.943269 15.331741
-102.29861 12.942832 15.031248
-102.30402 12.955459 14.748868
-102.37187 12.818158 16.834522
-102.3939 12.838492 16.54635
-102.37232 12.840133 16.235952
-102.36415 12.847388 15.935957
-102.36961 12.860377 15.645929
-102.36406 12.868571 15.352429
-102.3308 12.86479 15.047215
-102.33633 12.877549 14.764434
-102.31411 12.878312 14.470159
-102.32276 12.892253 14.193251
-102.31202 12.897776 13.909162
-102.30712 12.905738 13.629969
-102.30818 12.916193 13.355459
-102.2897 12.918149 13.074333
-102.29433 12.930005 12.805174
-102.29656 12.940765 12.536678
-102.2878 12.946709 12.265421
-102.28036 12.962766 11.732141
-102.37 12.822744 13.921088
-102.38213 12.83812 13.649205
-102.37479 12.845098 13.37036
-102.35638 12.847251 13.088757
-102.36967 12.862926 12.822721
-102.35482 12.866461 12.546597
-102.34611 12.872557 12.274937
-102.33496 12.877541 12.004153
-102.33875 12.888892 11.740842
-102.31414 12.887946 11.468525
-102.32199 12.900935 11.209803
-102.31012 12.905358 10.945491
-102.30471 12.912514 10.684968
-102.27946 12.911032 10.419403
-102.28713 12.923743 10.166032
-102.30149 12.939314 9.9157686
-102.29604 12.946259 9.660531
-102.27864 12.957187 9.1519308
-102.27561 12.965052 8.9009771
-102.39217 12.84444 10.965723
-102.36176 12.850464 10.438311
-102.34312 12.851903 10.175918
-102.31335 12.848492 9.9117336
-102.35218 12.874592 9.6695786
-102.33574 12.876826 9.4120073
-102.3438 12.889589 9.1625881
-102.30517 12.88214 8.9016771
-102.31791 12.896852 8.6556263
-102.31967 12.906779 8.4075785
-102.30142 12.908007 8.1557007
-102.317 12.92386 7.9126601
-102.2766 12.915388 7.6580839
-102.2701 12.921589 7.4120445
-102.28864 12.938651 7.1717701
-102.27811 12.94305 6.9264293
-102.26558 12.94654 6.6815958
-102.26009 12.953071 6.4387975
-102.37766 12.863952 7.6759114
-102.37131 12.870253 7.4290161
-102.37962 12.891861 6.9416833
-102.3672 12.895454 6.6959896
-102.3437 12.894212 6.449316
-102.33632 12.899926 6.2062025
-102.33605 12.908701 5.9648166
-102.31562 12.9087 5.7211742
-102.30232 12.911764 5.4792986
-102.27794 12.909982 5.2367992
-102.2972 12.927176 4.9998827
-102.26892 12.923648 4.7582555
-102.26609 12.93119 4.5197525
-102.27962 12.945862 4.2828827
-102.26382 12.947721 4.0439415
-102.25526 12.952724 3.8059428
-102.36577 12.897933 4.0526967
-102.35603 12.91118 3.5756559
-102.36204 12.922524 3.3379424
-102.35698 12.929049 3.0998576
-102.32253 12.922747 2.8612697
-102.29533 12.919588 2.623455
-102.30289 12.931593 2.3862634
-102.29023 12.934763 2.1490033
-102.28483 12.941107 1.9117858
-102.27753 12.94662 1.6745981
-102.25919 12.947291 1.4377759
-102.34492 12.476312 10.171988
-102.35065 12.488016 9.9189405
-102.37256 12.38482 10.435528
-102.30643 12.375797 9.904192
-102.29662 12.278648 9.900609
-102.33479 12.191084 10.166066
-102.32276 12.19537 9.9079456
-102.38802 12.119094 10.180501
-102.33157 12.105214 9.9084349
-102.39519 12.029949 10.181697
-102.31198 12.005286 9.9015093
-102.30404 11.90144 10.153666
-102.30979 11.912982 9.9014626
-102.41759 11.874507 9.6846027
-102.34099 11.734698 10.174598
-102.39164 11.764192 9.9357033
-102.37453 11.174071 21.327486
-102.37855 11.188047 20.983698
-102.35576 11.191679 20.624325
-102.46561 11.163699 20.37591
-102.45947 11.173344 20.035271
-102.37148 11.420714 9.7020149
-102.33042 11.319725 9.6909065
-102.35197 11.243813 9.6962461
-102.35435 11.162434 9.6989031
-102.34589 11.08077 9.7014494
-102.33382 10.972692 10.467908
-102.36263 11.010475 9.7137556
-102.34974 10.90328 10.481826
-102.37 10.937579 9.7245293
-102.34089 10.852476 9.7249737
-102.38028 10.55157 16.871864
-102.42056 10.576642 16.593977
-102.47371 10.362862 21.498507
-102.37656 10.598967 13.434277
-102.35049 10.598589 13.149755
-102.4392 10.649786 12.645212
-102.4149 10.685329 9.2702255
-102.3063 10.754663 1.8120151
-102.32677 10.770207 1.5749793
-102.3453 10.785028 1.3374757
-102.38053 10.806234 1.0986384
-102.3858 10.816043 0.8606087
-102.45675 9.250926 21.251978
-102.42923 9.2531481 20.884768
-102.4964 9.2349968 20.243868
-102.49719 9.2464828 19.908449
-102.41302 8.919733 16.97109
-102.45487 8.9440222 16.691685
-102.44355 8.9505196 16.38496
-102.41223 8.950243 16.070436
-102.40826 8.9689894 15.481154
-102.39339 8.9739189 15.183762
-102.45222 8.883954 17.003492
-102.50277 8.9110489 16.728312
-102.50863 8.9232254 16.430248
-102.49462 8.9287043 16.124071
-102.49455 8.9387293 15.82807
-102.44892 8.9334602 15.511221
-102.47716 8.9527626 15.234806
-102.4598 8.9567518 14.937765
-102.4568 8.9654598 14.650241
-102.45104 8.9731636 14.363681
-102.40773 8.9681864 14.062224
-102.44003 8.9885149 13.797467
-102.43487 8.9961987 13.51771
-102.40948 8.9970026 13.231409
-102.39901 9.0027504 12.953679
-102.38593 9.0075502 12.676924
-102.44719 8.8364 17.015617
-102.49885 8.9231443 14.970399
-102.49071 8.9395924 14.395355
-102.49991 8.9521465 14.117257
-102.48903 8.9579067 13.832068
-102.47543 8.962678 13.547929
-102.47672 8.9723768 13.272336
-102.46662 8.9781809 12.993872
-102.46275 8.9860191 12.71995
-102.45635 8.9929399 12.446864
-102.42961 8.9929333 12.167823
-102.44492 9.007061 11.906628
-102.42206 9.008234 11.632878
-102.40564 9.0115242 11.363393
-102.39577 9.0169706 11.09795
-102.39253 9.0246124 10.836326
-102.36995 9.0342808 10.312315
-102.42637 8.7828627 17.015648
-102.49843 8.9593372 12.472582
-102.48747 8.973527 11.931357
-102.49171 8.9838171 11.666843
-102.49358 8.9932528 11.402936
-102.47504 8.9957428 11.133498
-102.46307 9.0003977 10.868044
-102.44871 9.0041876 10.603435
-102.44105 9.0101938 10.342525
-102.44927 9.0215454 10.087831
-102.42788 9.0228004 9.8255653
-102.43159 9.0325375 9.5719728
-102.40559 9.0321236 9.3113565
-102.42319 9.0465183 9.0637712
-102.38345 9.0413294 8.8024025
-102.3875 9.0510302 8.5534306
-102.38017 9.0568142 8.3026791
-102.37994 9.0649881 8.0545597
-102.44224 8.7384081 17.030912
-102.4861 8.9843664 10.102549
-102.47887 9.0158243 9.0816212
-102.45769 9.0170002 8.8243065
-102.46192 9.0267849 8.5745716
-102.44552 9.0295076 8.3208981
-102.43616 9.0345964 8.0700283
-102.44321 9.0452471 7.8237104
-102.42957 9.0488071 7.5738583
-102.4231 9.0547829 7.3264446
-102.41452 9.0600071 7.0795054
-102.39451 9.0612841 6.8314199
-102.40041 9.0714188 6.588686
-102.39492 9.0776234 6.3446736
-102.38737 9.0830994 6.1010427
-102.3684 9.0846214 5.8565168
-102.36614 9.0918694 5.6150036
-102.35248 9.0951662 5.3726339
-102.35558 9.104229 5.1327953
-102.42651 8.681139 17.02524
-102.4745 8.9893961 8.3286667
-102.46798 9.0121336 7.5825057
-102.45303 9.0235262 7.0872989
-102.46106 9.034483 6.843708
-102.439 9.0351238 6.5956225
-102.44291 9.0446253 6.3526492
-102.44478 9.0534105 6.1098843
-102.43524 9.0582609 5.8660512
-102.43304 9.0656109 5.6238475
-102.41002 9.0657854 5.3796639
-102.41317 9.0749359 5.1392202
-102.38608 9.0736589 4.896059
-102.38521 9.0813961 4.6561551
-102.39178 9.0916872 4.4171939
-102.35865 9.0882607 4.1754913
-102.35194 9.1258688 2.9833126
-102.41829 8.6269617 17.024509
-102.47315 9.022851 5.8718891
-102.46159 9.0270729 5.6280456
-102.45738 9.0337954 5.3857627
-102.45116 9.0398064 5.143765
-102.44291 9.0451069 4.90207
-102.44207 9.0529385 4.6615601
-102.43923 9.0600719 4.421217
-102.35896 9.0404978 4.1755533
-102.37098 9.0527115 3.9374993
-102.3716 9.0609865 3.6988058
-102.37968 9.0718393 3.4606066
-102.37636 9.0787449 3.2219784
-102.36162 9.0816908 2.9832013
-102.3638 9.0904932 2.7450514
-102.36402 9.0986137 2.5068669
-102.34338 9.0994921 2.2686841
-102.35857 9.1128092 2.0304675
-102.34345 9.1155987 1.7924719
-102.40962 8.5751305 17.023857
-102.46078 8.9964581 5.1452527
-102.44886 9.0168877 4.4221878
-102.38744 9.0039053 4.1777287
-102.39002 9.0129204 3.9387267
-102.3812 9.0179949 3.699259
-102.36095 9.0191174 3.4596059
-102.37651 9.0325861 3.221746
-102.3712 9.0388517 2.9831357
-102.38283 9.0509682 2.7449782
-102.37359 9.0558672 2.5064554
-102.38128 9.0666285 2.2680726
-102.35867 9.0668831 2.0298059
-102.37186 9.0795622 1.7911744
-102.3642 9.0850048 1.5527736
-102.35458 9.0897646 1.314429
-102.3713 9.103694 1.0748242
-102.33887 9.1005192 0.83744961
-102.38699 8.9592352 4.1788592
-102.38015 8.9650364 3.9391699
-102.39021 8.9766417 3.7007318
-102.37942 8.9810638 3.4613321
-102.37608 8.9880495 3.2225318
-102.38023 8.9976091 2.9840882
-102.38242 9.0064907 2.7455916
-102.37318 9.011426 2.5069823
-102.37142 9.0189438 2.2685223
-102.36769 9.0257816 2.0300639
-102.37145 9.0352116 1.7914425
-102.36379 9.0406885 1.5529552
-102.3636 9.0487604 1.3141667
-102.36144 9.0561533 1.0752783
-102.34787 9.0595846 0.83684009
-102.48771 8.7747793 9.3492756
-102.39482 8.9193583 4.1814914
-102.38799 8.9252005 3.9416282
-102.38863 8.9335938 3.702503
-102.38729 8.9413013 3.4634442
-102.37453 8.9450722 3.2241299
-102.36923 8.9514065 2.9853468
-102.38087 8.9635735 2.7470181
-102.37164 8.968544 2.5083218
-102.3699 8.9760942 2.2697756
-102.38509 8.9894981 2.0310402
-102.3605 8.9891548 1.7927061
-102.35284 8.9946632 1.5542194
-102.35267 9.0027637 1.315432
-102.37883 9.020009 1.0752124
-102.35582 9.0202036 0.83704418
-102.40246 8.8813763 4.1838274
-102.37676 8.880784 3.9425859
-102.38686 8.8924417 3.7039771
-102.38552 8.9001789 3.4648321
-102.37276 8.9039841 3.2254312
-102.38639 8.916852 2.9870696
-102.38859 8.9257936 2.7483139
-102.37936 8.9307995 2.5094438
-102.35871 8.93186 2.2707393
-102.38336 8.9485445 2.0319109
-102.36823 8.9515038 1.7933073
-102.36057 8.9570446 1.5546467
-102.3604 8.9651737 1.315686
-102.37712 8.9791651 1.0757378
-102.37298 8.985939 0.83642107
-102.47708 8.7257977 8.3459587
-102.47337 8.8337069 5.1549778
-102.39082 8.8384752 4.1846766
-102.36514 8.8378839 3.9434338
-102.39414 8.8560009 3.7058566
-102.36448 8.8540163 3.4652512
-102.38954 8.8707895 3.2273026
-102.37482 8.8739109 2.9879167
-102.36758 8.8795919 2.7489939
-102.37728 8.8910961 2.5103703
-102.3661 8.8954144 2.2715702
-102.37186 8.9055681 2.032757
-102.36619 8.9117842 1.7939708
-102.35854 8.9173212 1.5552226
-102.35838 8.9254427 1.3161743
-102.37512 8.9394197 1.0761396
-102.37099 8.946188 0.83673519
-102.51044 8.5221853 13.619813
-102.4818 8.6911325 8.3540916
-102.46972 8.7954111 5.1598144
-102.39685 8.8032684 4.1898384
-102.39012 8.8091068 3.9496248
-102.39085 8.8174849 3.7101505
-102.39905 8.8284168 3.4711723
-102.39582 8.8354321 3.2317615
-102.38116 8.8385191 2.9921975
-102.35506 8.8376684 2.7527604
-102.39318 8.8588753 2.5143809
-102.3726 8.8599072 2.2753217
-102.36895 8.8667612 2.0364268
-102.36333 8.8729362 1.7975509
-102.36519 8.8816919 1.5584453
-102.37452 8.893033 1.3188665
-102.36298 8.8971729 1.0798968
-102.34946 8.900631 0.84101921
-102.4762 8.6553974 8.363203
-102.46548 8.7588692 5.1677742
-102.37411 8.7600517 4.1960349
-102.37691 8.7690449 3.956511
-102.41553 8.7902756 3.7191136
-102.44273 8.807622 3.4806523
-102.43015 8.8113546 3.2403698
-102.42505 8.8176374 3.000622
-102.4085 8.8199902 2.7608237
-102.39943 8.8249016 2.5214224
-102.38839 8.8291273 2.2821777
-102.38483 8.8359232 2.0430179
-102.37929 8.8420391 1.8038768
-102.37178 8.8474751 1.5647728
-102.37174 8.8554897 1.3253721
-102.38862 8.8693476 1.0849919
-102.35629 8.8662252 0.84681296
-102.51952 8.4256248 14.786489
-102.50297 8.5384398 11.206575
-102.47952 8.6240864 8.3750992
-102.47039 8.7267513 5.1773968
-102.36056 8.7212591 4.2035332
-102.38235 8.7366238 3.9652267
-102.43052 8.7610064 3.7281861
-102.46729 8.7815142 3.4899039
-102.45481 8.7851906 3.2492669
-102.44035 8.7881746 3.0089056
-102.43336 8.7937098 2.7690122
-102.43384 8.8018055 2.5293434
-102.45126 8.8157167 2.2896552
-102.41942 8.8127079 2.0500576
-102.42342 8.8220148 1.8103013
-102.42544 8.8306446 1.5704073
-102.40658 8.8320847 1.3310927
-102.40464 8.8393555 1.0911524
-102.38183 8.8394299 0.85217667
-102.51329 8.450819 13.109959
-102.50398 8.5092793 11.219252
-102.50188 8.5171671 10.955212
-102.49058 8.5304413 10.429168
-102.49731 8.5495472 9.9140158
