# .PCD v0.7 - Point Cloud Data file format
VERSION 0.7
FIELDS x y z
SIZE 4 4 4
TYPE F F F
COUNT 1 1 1
WIDTH 1558
HEIGHT 1
VIEWPOINT 0 0 0 1 0 0 0
POINTS 1558
DATA ascii
-101.45621 55.206306 14.002252
-101.43253 55.19857 13.430521
-101.42171 55.222572 12.86676
-101.39429 55.205265 12.297114
-100.34466 37.634132 18.398586
-100.23419 36.259682 18.415794
-100.28579 35.50732 0.95851725
-100.28088 34.967075 0.97085309
-99.992043 32.125042 18.39131
-99.90593 31.4795 18.593985
-99.858055 30.93504 18.411991
-99.815369 29.926731 18.495218
-99.838707 29.519018 18.37653
-99.730003 28.882526 18.553072
-99.75206 28.484665 18.43564
-99.843575 28.946421 13.923825
-99.710258 27.966667 18.660675
-99.618126 26.544865 18.544058
-99.603897 26.115211 18.393009
-99.868103 27.606037 2.4825706
-99.528969 25.585302 18.576632
-99.812347 27.221125 0.8012107
-99.539543 25.212734 18.454575
-99.816505 26.771984 1.4771967
-99.796677 26.766031 1.1455126
-99.780884 26.765917 0.81375313
-99.444191 24.671341 18.622749
-99.750267 26.295113 1.1541945
-99.751801 26.319675 0.82488757
-99.455444 24.30784 18.502066
-99.555809 25.052788 9.5730791
-99.605965 25.144484 9.2617836
-99.70623 25.833094 1.163319
-99.719582 25.87398 0.83669376
-99.471024 23.960241 18.393101
-99.543373 24.657133 9.5141258
-99.387245 23.462234 18.573442
-99.396118 23.116863 18.463373
-99.36657 22.706186 18.694857
-99.477287 23.675375 6.1960602
-99.512375 23.742598 5.890727
-99.652512 24.238058 1.2121774
-99.661423 24.27075 0.89660847
-99.311172 22.293785 18.540646
-99.592598 23.791977 1.2268304
-99.601906 23.824631 0.9144907
-99.342339 21.996443 18.454094
-99.577629 23.274811 3.3948159
-99.600418 23.443613 1.237047
-99.561707 23.412539 0.92934716
-99.555466 23.033648 1.2484667
-99.553253 23.050388 0.94180197
-99.259575 21.220091 18.525583
-99.418938 22.000978 9.4389858
-99.534607 22.668484 1.2548784
-99.520363 22.669432 0.9512651
-99.265205 20.920498 18.426075
-99.496796 22.290016 1.2635789
-99.495079 22.306734 0.96196878
-99.510231 22.344965 0.65891367
-99.199043 20.500845 18.621431
-99.479942 21.929674 1.2741073
-99.47226 21.938576 0.97515476
-99.208885 20.195391 18.518126
-99.467049 21.577419 1.2799009
-99.447014 21.57077 0.98382193
-99.456642 21.601061 0.68604189
-99.164238 19.80728 18.716064
-99.24128 19.919485 18.427977
-99.438042 21.211018 1.2811689
-99.430649 21.219959 0.98692364
-99.421623 21.22691 0.69258237
-99.132889 19.457994 18.572165
-99.438263 20.883789 1.279369
-99.399216 20.854134 0.98866457
-99.428345 20.907448 0.69440001
-99.157982 19.175768 18.474356
-99.397591 20.511103 1.2793237
-99.390366 20.520081 0.98961413
-99.355972 20.496372 0.70139241
-99.077362 18.757124 18.64069
-99.372833 20.16258 1.2797542
-99.3657 20.171583 0.99231225
-99.38266 20.209267 0.70318359
-99.102028 18.483522 18.54775
-99.300873 19.590311 4.1199155
-99.371475 19.845055 1.2799515
-99.345009 19.831234 0.99536371
-99.336357 19.83836 0.71000534
-99.099434 18.183867 18.43815
-99.255882 19.229805 4.0990558
-99.240051 19.24539 3.5359225
-99.340996 19.498281 1.2830347
-99.321045 19.492174 1.0004039
-99.325539 19.514505 0.71642566
-99.058098 17.829346 18.64422
-99.312462 18.990721 4.0911694
-99.270432 18.976149 3.5282354
-99.333801 19.18269 1.2878505
-99.313927 19.176666 1.0071365
-99.305557 19.183872 0.72587389
-99.310532 18.853069 1.296985
-99.284195 18.839617 1.0186697
-99.302437 18.876871 0.73798865
-99.27195 18.5086 1.3092798
-99.272316 18.525137 1.0319841
-99.244507 18.509996 0.756001
-99.277405 18.217121 1.3202935
-99.23793 18.189051 1.0464975
-99.24366 18.211206 0.77071118
-101.41269 55.437786 17.860161
-101.45501 55.212822 18.289148
-101.46551 55.312859 17.359591
-101.43121 55.278751 16.87063
-101.42374 55.301395 16.402237
-101.38982 55.267628 15.91916
-101.387 55.29977 15.457883
-101.4484 55.034271 16.814369
-101.47424 55.202805 15.448807
-101.48837 55.30817 14.54217
-101.43475 55.231853 14.057631
-101.41254 55.221996 13.592847
-101.40939 55.25251 13.139609
-101.39203 55.252693 12.680805
-101.28083 54.241676 18.473433
-101.40897 54.959049 13.083982
-101.41663 55.011959 12.639122
-101.43937 55.096806 12.201762
-101.40599 55.062542 11.740116
-101.40444 55.095711 11.293801
-101.40543 55.134201 10.849315
-101.42187 54.652763 13.4813
-101.427 54.700001 13.036108
-101.43465 54.752487 12.592948
-101.41962 54.757038 12.140225
-101.40289 54.757866 11.68831
-101.38866 54.763878 11.238963
-101.48551 54.66161 11.228251
-101.45682 54.637184 10.774878
-101.42625 54.042034 13.357136
-101.25872 52.141846 16.502056
-101.25825 52.286533 14.746432
-101.26113 51.865883 15.979408
-101.25514 51.890297 15.538523
-101.25169 51.919693 15.100888
-101.25509 51.962822 14.668769
-101.27831 52.045937 14.248875
-101.28266 52.090824 13.819189
-101.12587 51.059448 18.446503
-101.24251 51.586376 15.025911
-101.25863 51.654964 14.60359
-101.26444 51.70277 14.176237
-101.22963 51.668671 13.728237
-101.1356 50.772152 18.377373
-101.22443 51.276333 14.527045
-101.22144 51.306137 14.097702
-101.22543 51.349827 13.673449
-101.13045 50.468571 18.306479
-101.12164 50.166019 18.237207
-101.00588 49.614407 18.519587
-101.1235 49.879135 18.173954
-101.00724 49.328823 18.451885
-101.0051 49.03743 18.373108
-101.03346 48.804989 18.315899
-101.03156 48.512802 18.236212
-101.04932 48.61253 17.397911
-101.03546 48.36129 16.474014
-101.03368 48.389729 16.055704
-100.96881 48.391636 14.36606
-101.00626 47.949783 17.215481
-101.02894 48.118305 15.568016
-101.03252 48.156204 15.158501
-100.99852 48.122478 14.728127
-101.00313 48.16206 14.322647
-101.03306 48.249805 13.932364
-100.97767 48.235703 12.690475
-101.00397 47.770309 15.476696
-101.00737 47.807453 15.069688
-101.00006 47.824215 14.657759
-101.00005 47.85466 14.251724
-101.0119 47.907486 13.853598
-100.9513 47.882996 12.616856
-100.95647 47.922756 12.220462
-100.95546 47.950691 11.822121
-100.98682 47.458797 14.972798
-101.00635 47.525906 14.579288
-100.83752 46.589718 18.461571
-100.87944 46.356567 18.381805
-100.86745 46.02018 18.269846
-100.75101 45.464409 18.49103
-100.85852 45.690922 18.164724
-100.86499 46.35751 9.5337143
-100.76706 45.186333 18.403261
-100.86816 46.049561 9.4851084
-100.87026 46.08202 9.1076794
-100.77984 44.898365 18.313375
-100.81657 45.580997 10.170823
-100.87378 45.713852 9.8150187
-100.8679 45.731552 9.4363575
-100.8557 45.737602 9.0565071
-100.98611 46.373024 3.8386455
-100.99799 46.423332 3.4636145
-100.67263 44.365974 18.54019
-100.79423 44.643295 17.829239
-100.77156 44.897896 13.891446
-100.81563 45.262463 10.124124
-100.84927 45.351627 9.7619829
-100.84328 45.368912 9.3859034
-100.83571 45.383244 9.0101604
-100.68063 44.075359 18.459093
-100.77568 44.333202 17.333658
-100.78884 44.589607 14.221944
-100.81303 44.94294 10.081877
-100.83728 45.014404 9.7184963
-100.81691 45.005424 9.3399096
-100.8093 45.019371 8.9667492
-100.69957 43.809544 18.390839
-100.75704 43.969486 17.638454
-100.75773 43.999908 17.243275
-100.77003 44.250645 14.150156
-100.7881 44.310829 13.77956
-100.7761 44.317535 13.393491
-100.78616 44.363323 13.020597
-100.81453 44.716419 8.9359617
-100.70877 43.526421 18.317085
-100.72448 43.611637 17.537127
-100.76958 43.944313 14.090984
-100.77345 43.978741 13.714509
-100.79472 44.043797 13.348556
-100.73919 44.054741 11.824363
-100.74982 44.154526 10.718967
-100.60392 43.018066 18.553434
-100.71344 43.293327 17.455992
-100.60812 42.725475 18.4767
-100.68372 42.883842 18.142349
-100.69434 42.957932 17.367588
-100.64767 42.488461 18.422935
-100.61427 42.123749 18.30423
-100.60123 41.792278 18.195431
-100.61352 41.86763 17.434317
-100.61028 41.558922 17.343817
-100.72796 42.533592 2.0289645
-100.44964 40.596035 18.582027
-100.74062 42.242752 2.0360985
-100.4633 40.323181 18.496788
-100.533 40.463837 18.172058
-100.46139 40.020515 18.386461
-100.51009 40.178085 17.297579
-100.36954 39.545769 18.57826
-100.4744 39.741478 18.286356
-100.50251 39.865055 17.188265
-100.40218 39.306671 18.500586
-100.50143 39.646114 15.996233
-100.42896 39.069523 18.424109
-100.45109 39.130569 18.069172
-100.45068 39.181023 17.330038
-100.47763 39.324696 15.895578
-100.46249 39.325245 15.526713
-100.46557 39.354862 15.171835
-100.44051 39.412132 13.746355
-100.29813 38.559906 18.594681
-100.4099 38.762161 18.314096
-100.41602 38.847366 17.215189
-100.46058 38.992443 16.161209
-100.45158 39.027027 15.440118
-100.45448 39.055912 15.087211
-100.42754 39.084999 14.016999
-100.4337 39.118652 13.672563
-100.43313 39.141438 13.325655
-100.32738 38.329288 18.525726
-100.40993 38.484112 18.222759
-100.40714 38.529484 17.48666
-100.43182 38.61758 16.779387
-100.4299 38.711407 15.349888
-100.43764 38.747562 15.002326
-100.40997 38.774704 13.93833
-100.42619 38.823906 13.601721
-100.41013 38.821728 13.248363
-100.36256 38.792427 12.539507
-100.37733 38.838982 12.207252
-100.38538 38.874775 11.872479
-100.39185 38.907986 11.53784
-100.3567 38.097923 18.456282
-100.39139 38.22607 17.387051
-100.44859 38.577461 13.54766
-100.44259 38.591133 13.201302
-100.45551 38.634571 12.866457
-100.44102 38.634644 12.518559
-100.45069 38.67281 12.184266
-100.4277 38.659218 11.835367
-100.41341 38.659248 11.492353
-100.23483 37.603687 18.625441
-100.36361 37.827797 18.364075
-100.36233 38.381851 10.086615
-100.26437 37.37257 18.553669
-100.34866 37.526608 18.257406
-100.3783 38.122799 10.043791
-100.39236 38.166725 9.7218409
-100.27998 37.12402 18.480659
-100.34269 37.291641 17.448118
-100.32656 37.497498 13.958462
-100.37594 37.837833 10.00195
-100.38474 37.873104 9.6798573
-100.52222 38.578972 2.31005
-100.30249 36.888676 18.422121
-100.32466 36.993004 17.362604
-100.32765 37.224537 13.904742
-100.30276 37.424271 10.263496
-100.36095 37.535397 9.9624233
-100.34849 37.537331 9.6345415
-100.32951 37.550171 8.9843082
-100.18227 36.415924 18.609047
-100.28371 36.592018 18.331846
-100.30001 36.662979 17.628746
-100.33842 36.967033 13.858119
-100.29217 37.130142 10.225098
-100.32394 37.199699 9.9157887
-100.33818 37.242352 9.5999203
-100.3241 37.241474 9.2745724
-100.32456 37.262852 8.9552221
-100.20455 36.18087 18.5476
-100.26581 36.295452 18.238905
-100.28173 36.364876 17.539642
-100.28693 36.395252 17.190924
-100.28152 36.431904 16.488083
-100.22658 36.480263 14.404956
-100.27321 36.572079 14.098215
-100.32887 36.677547 13.796674
-100.27099 36.81953 10.179797
-100.30827 36.896767 9.8745737
-100.30643 36.914391 9.5548449
-100.31381 36.94603 9.239151
-100.30889 36.958847 8.9199152
-100.22169 35.93034 18.47193
-100.25243 35.998756 18.14007
-100.25234 36.04377 17.432825
-100.26746 36.088638 17.093992
-100.27688 36.147011 16.406281
-100.24359 36.162838 15.357176
-100.2323 36.167534 15.011868
-100.24544 36.208649 14.684022
-100.26218 36.255074 14.359609
-100.272 36.291077 14.032161
-100.26961 36.30867 13.698915
-100.24164 36.329594 12.697579
-100.21116 36.304539 12.356427
-100.22165 36.341007 12.037686
-100.24624 36.500763 10.126491
-100.10269 35.451134 18.634624
-100.22137 35.648632 18.376961
-100.24069 35.744736 17.335238
-100.25814 35.814903 16.654215
-100.25584 35.898735 15.288524
-100.27052 35.942028 14.961626
-100.26771 35.959251 14.625067
-100.25786 35.965908 14.286028
-100.24625 35.969814 13.94791
-100.2198 36.014069 12.624791
-100.22638 36.044582 12.304679
-100.22063 36.056595 11.979588
-100.22399 36.08215 11.660195
-100.22577 36.105255 11.341119
-100.21516 36.109764 11.01765
-100.13671 35.221779 18.56918
-100.21469 35.358414 18.279278
-100.19147 35.391655 17.211559
-100.23182 35.472931 16.896429
-100.24073 35.594822 15.204084
-100.23399 35.606297 14.865677
-100.21487 35.599384 14.521562
-100.23645 35.65237 14.20431
-100.22978 35.663593 13.871386
-100.20206 35.70583 12.556273
-100.20303 35.727844 12.235471
-100.20778 35.755383 11.917724
-100.20012 35.764442 11.595198
-100.19624 35.779034 11.275783
-100.19077 35.791164 10.956883
-100.15646 34.977894 18.498299
-100.20023 35.130322 17.138218
-100.20958 35.230652 15.783636
-100.22194 35.270061 15.456472
-100.21139 35.275898 15.115822
-100.21496 35.302258 14.786285
-100.22214 35.33379 14.46058
-100.2116 35.339291 14.125668
-100.21001 35.357777 13.797933
-100.17891 35.37394 12.81002
-100.18133 35.397911 12.490818
-100.18213 35.419415 12.172029
-100.16504 35.414505 11.845815
-100.16257 35.431026 11.528185
-100.16939 35.461151 11.215955
-100.04106 34.523247 18.673048
-100.15678 34.711933 18.417974
-100.15804 34.779507 17.375788
-100.18951 34.8466 17.056389
-100.17886 34.895363 16.030882
-100.1981 34.944344 15.708915
-100.19971 34.967705 15.376476
-100.20488 34.996113 15.048142
-100.219 35.037415 14.727071
-100.21004 35.045097 14.393063
-100.18857 35.03447 14.053551
-100.19219 35.0602 13.730925
-100.18219 35.106457 12.760242
-100.15741 35.090389 12.428677
-100.16897 35.127258 12.117312
-100.15171 35.121944 11.792945
-100.17099 35.169968 11.48732
-100.15045 35.159691 11.164344
-100.0766 34.309811 18.621056
-100.15647 34.445778 18.337221
-100.16207 34.475536 17.993359
-100.17281 34.533989 17.311859
-100.06647 34.444878 16.217541
-100.19641 34.67326 15.640993
-100.19756 34.716217 14.980033
-100.19548 34.733715 14.650569
-100.18419 34.778225 13.66973
-100.14271 34.758255 13.005744
-100.15199 34.791534 12.692786
-100.13785 34.79081 12.368891
-100.14935 34.827145 12.059458
-100.13736 34.829361 11.739643
-100.14017 34.852974 11.428259
-100.14142 34.874218 11.117208
-100.21515 34.646027 12.034175
-100.21957 34.671867 11.722901
-100.20034 34.663559 11.401784
-100.18496 34.660698 11.08413
-100.18455 34.679325 10.774454
-100.14929 34.647591 10.45146
-100.14567 34.661427 10.143095
-100.14048 34.672935 9.8351698
-100.21661 34.465797 10.423148
-100.16821 34.415451 10.097893
-100.16283 34.426662 9.7913313
-100.17827 34.467709 9.4933405
-100.2437 34.618229 8.6071711
-100.23631 34.626369 8.3030844
-100.19716 34.644562 7.0925112
-100.18218 34.641483 6.7906766
-100.18265 34.660683 6.492877
-100.14609 34.123562 9.7313757
-100.25552 34.615101 4.3992968
-100.23837 34.608852 4.1020293
-99.865952 30.899275 18.262819
-99.811378 30.55777 18.475014
-99.854439 30.632879 18.178986
-99.879372 30.684536 17.869236
-99.819206 30.314178 18.397728
-99.845749 30.367525 18.089336
-99.875961 30.425474 17.785627
-99.860191 30.424444 17.446747
-99.908867 30.505833 17.161152
-99.825745 30.064079 18.30868
-99.829971 30.088755 17.983433
-99.859856 30.145849 17.681427
-99.83242 30.130047 17.335463
-99.747665 29.682854 18.469999
-99.802742 29.771505 18.188211
-99.839584 29.837183 17.892164
-99.824295 29.856232 17.233797
-99.768127 29.446424 18.385099
-99.800819 29.506693 18.085991
-99.799332 29.543493 17.438681
-99.848877 29.624487 17.158232
-99.81311 29.617609 16.498312
-99.880554 29.884188 13.503053
-99.76693 29.190083 18.289267
-99.788162 29.235807 17.982353
-99.780029 29.264284 17.33383
-99.88884 29.655499 13.147303
-99.690926 28.832762 18.467194
-99.763817 28.941427 18.204388
-99.784813 28.986458 17.898861
-99.770332 29.00684 17.248659
-99.815979 29.24588 14.221631
-99.771828 29.208847 13.89902
-99.813843 29.278435 13.63104
-99.866142 29.360767 13.369398
-99.887459 29.404631 13.090158
-99.705353 28.611984 18.404518
-99.761581 28.699446 18.128679
-99.759911 28.716434 17.805944
-99.75618 28.730749 17.484198
-99.778755 28.776966 17.185854
-99.818642 28.988485 14.463947
-99.861221 29.110302 13.31535
-99.864685 29.131712 13.027448
-99.703201 28.369696 18.327848
-99.742516 28.436007 18.0392
-99.740494 28.452353 17.718006
-99.742081 28.472902 17.402365
-99.775856 28.532211 17.114462
-99.802124 28.724884 14.397205
-99.841682 28.790375 14.127663
-99.83905 28.821512 13.54163
-99.844025 28.844612 13.254806
-99.687202 28.108217 18.231201
-99.726273 28.173702 17.944084
-99.74086 28.209803 17.638332
-99.70787 28.188787 17.296679
-99.747055 28.254095 17.015039
-99.738625 28.298206 16.084322
-99.72995 28.305582 15.774566
-99.725159 28.317482 15.469934
-99.709854 28.334015 14.863441
-99.705269 28.345783 14.565484
-99.740211 28.40517 14.294704
-99.717712 27.901892 18.168451
-99.716866 27.91959 17.849293
-99.725349 27.948212 17.540369
-99.714661 27.953911 17.218487
-99.747902 28.011696 16.933605
-99.738274 28.054224 16.006891
-99.729187 28.061113 15.698483
-99.723999 28.072519 15.395204
-99.719727 28.102232 14.799274
-99.720734 28.120674 14.506365
-99.714005 28.129742 14.210382
-99.717361 28.150784 13.922633
-99.713005 28.162468 13.631867
-99.700874 28.164726 13.338355
-99.704987 28.186365 13.056109
-99.713844 27.712671 17.135923
-99.723717 27.742477 16.834459
-99.712639 27.783043 15.912691
-99.708931 27.796268 15.610106
-99.715088 27.821043 15.316574
-99.704132 27.842678 14.719603
-99.698822 27.853512 14.42438
-99.721512 27.897493 14.148804
-99.700668 27.889639 13.847558
-99.713951 27.922256 13.569125
-99.701477 27.924139 13.27692
-99.687218 27.923763 12.985682
-99.679703 27.646973 13.494003
-99.678986 27.662636 13.210538
-99.676552 27.676161 12.927718
-99.589149 27.020742 18.464455
-99.604225 26.817583 18.410028
-99.64048 26.877129 18.124418
-99.612038 26.6005 18.341333
-99.642448 26.652824 18.051924
-99.610428 26.651283 17.40304
-99.646568 26.709776 17.12467
-99.645767 26.726 16.818935
-99.635544 26.797953 15.321332
-99.528648 26.257055 18.502001
-99.60659 26.362667 18.253819
-99.619347 26.394642 17.951113
-99.603752 26.411692 17.319418
-99.613541 26.697466 12.424256
-99.553925 26.05213 18.43532
-99.602921 26.124575 18.163343
-99.621086 26.162428 17.866783
-99.604538 26.178452 17.237545
-99.556259 25.821957 18.346815
-99.587563 25.874233 18.06123
-99.599442 25.904839 17.76125
-99.634827 25.978603 17.177401
-99.764481 26.648262 7.9273429
-99.743179 26.638218 7.6670494
-99.733307 26.641171 7.4110489
-99.728432 26.649784 7.157186
-99.741585 26.678972 6.9083738
-99.714264 26.661831 6.6504531
-99.711479 26.672731 6.3990273
-99.488335 25.500223 18.51358
-99.561859 25.598576 18.264528
-99.581207 25.637291 17.970205
-99.598572 25.6737 17.676363
-99.566727 25.655762 17.344816
-99.636597 25.897284 14.468548
-99.670555 25.997715 13.372631
-99.657578 25.998672 13.089968
-99.620102 26.135324 9.885581
-99.617073 26.146351 9.626853
-99.612488 26.155565 9.3685875
-99.619255 26.177519 9.115489
-99.611595 26.183161 8.8580418
-99.738319 26.340448 8.6467428
-99.723633 26.562244 4.3888555
-99.7892 26.664913 3.8997998
-99.712639 26.63275 2.9057026
-99.694893 26.62624 2.658303
-99.702003 26.648251 2.4112706
-99.500725 25.289751 18.445042
-99.574295 25.387314 18.196957
-99.564064 25.393393 17.878969
-99.5811 25.429087 17.586491
-99.554649 25.417122 17.261099
-99.627686 25.659592 14.402109
-99.610809 25.908659 9.5866108
-99.606079 25.917589 9.3296118
-99.606277 25.931974 9.0754395
-99.598465 25.937344 8.8193493
-99.510376 25.077576 18.380558
-99.548775 25.136227 18.103428
-99.561714 25.167242 17.806593
-99.560753 25.183069 17.500698
-99.563606 25.20289 17.200562
-99.583931 25.369633 14.599024
-99.58345 25.648468 9.5429516
-99.591576 25.67148 9.292325
-99.585175 25.67835 9.0371656
-99.603317 25.712395 8.7915449
-99.503731 24.844709 18.300434
-99.536049 24.896313 18.019506
-99.536812 24.913961 17.7141
-99.523514 24.916355 17.399942
-99.561218 25.116442 14.526867
-99.57093 25.417076 9.2522345
-99.570915 25.430866 9.0008564
-99.595589 25.471767 8.758852
-99.442535 24.533297 18.475721
-99.51181 24.623812 18.226622
-99.514259 24.643265 17.921722
-99.532417 24.679285 17.632538
-99.488724 24.649334 17.295338
-99.571587 24.896255 14.471216
-99.597588 24.939409 14.210441
-99.608864 24.996668 13.394797
-99.609077 25.011761 13.124114
-99.549789 25.147087 9.4585505
-99.551125 25.162291 9.2082863
-99.544357 25.168619 8.956007
-99.595306 25.237833 8.7245522
-99.457726 24.319407 18.40379
-99.509155 24.39043 18.140413
-99.523087 24.421881 17.846722
-99.52298 24.438406 17.543812
-99.496651 24.427116 17.222469
-99.551407 24.642746 14.392961
-99.593536 24.762445 13.056751
-99.530045 24.89278 9.4109278
-99.601616 25.011042 8.6902542
-99.459869 24.094074 18.320568
-99.499191 24.151896 18.048143
-99.506721 24.176428 17.750729
-99.509399 24.212135 17.153458
-99.483856 24.326691 14.559238
-99.485771 24.343815 14.285235
-99.498459 24.37221 14.019897
-99.475159 24.391998 13.19636
-99.506317 24.43959 12.948058
-99.47184 24.417608 12.663747
-99.527031 24.699154 8.6279001
-99.388763 23.78075 18.482336
-99.459396 23.870451 18.237148
-99.480537 23.908939 17.950611
-99.499672 23.945225 17.664541
-99.444244 23.90416 17.319897
-99.501549 23.979731 17.069691
-99.485199 24.102594 14.494955
-99.461578 24.092854 14.205795
-99.467628 24.11401 13.9379
-99.459183 24.119896 13.66275
-99.455254 24.130405 13.392334
-99.455917 24.145628 13.126435
-99.451973 24.17028 12.596577
-99.408691 23.581635 18.422443
-99.45546 23.646053 18.157471
-99.482376 23.690046 17.877125
-99.43924 23.678129 17.243603
-99.490379 23.746634 16.989681
-99.458481 23.851593 14.417842
-99.447113 23.854546 14.138246
-99.45929 23.881786 13.875609
-99.450562 23.887249 13.601661
-99.446373 23.897327 13.332448
-99.453239 23.918789 13.071503
-99.445488 23.924967 12.80371
-99.442413 23.935917 12.540328
-99.437599 23.944963 12.277639
-99.415802 23.367912 18.354666
-99.438416 23.407232 18.07007
-99.459007 23.444374 17.785925
-99.451416 23.468681 17.184652
-99.478035 23.511587 16.91226
-99.443054 23.612232 14.351629
-99.437721 23.621323 14.077371
-99.436897 23.634943 13.80796
-99.427826 23.639978 13.535373
-99.429771 23.656244 13.271353
-99.42189 23.676371 12.741537
-99.425034 23.693605 12.48312
-99.426476 23.709005 12.225236
-99.340836 23.051699 18.515865
-99.419083 23.146711 18.279547
-99.447464 23.191536 18.001139
-99.449577 23.209805 17.702749
-99.406792 23.182671 17.370321
-99.447235 23.239275 17.108816
-99.461273 23.269148 16.827873
-99.441658 23.38485 14.291597
-99.429604 23.387066 14.014387
-99.447746 23.41992 13.758129
-99.412605 23.398394 13.470886
-99.414246 23.414236 13.208153
-99.405716 23.433592 12.680927
-99.41629 23.47213 12.170731
-99.415779 23.48535 11.914632
-99.362122 22.850847 18.452896
-99.422287 22.927048 18.201714
-99.432182 22.953079 17.908905
-99.439926 22.976828 17.616858
-99.396492 22.949326 17.285646
-99.436691 23.005201 17.025341
-99.444183 23.02828 16.740768
-99.433556 23.152184 14.224685
-99.414673 23.147528 13.944608
-99.413193 23.160297 13.677671
-99.409874 23.171116 13.411474
-99.404732 23.179993 13.146044
-99.408646 23.211824 12.628566
-99.391602 23.208364 12.361765
-99.405624 23.236301 12.113486
-99.363609 22.63311 18.373737
-99.405441 22.69054 18.107916
-99.402702 22.70385 17.806084
-99.416084 22.732941 17.520527
-99.390434 22.723274 17.20566
-99.424232 22.77231 16.941561
-99.418915 22.782476 16.648518
-99.415276 22.897795 14.420627
-99.430092 22.926943 14.161599
-99.397903 22.909029 13.874516
-99.402557 22.92782 13.612838
-99.398918 22.938219 13.347842
-99.386925 22.940149 13.079797
-99.386177 22.953247 12.820189
-99.383667 22.964487 12.561243
-99.380013 22.988077 12.048929
-99.282677 22.320011 18.530254
-99.38063 22.431837 18.31356
-99.391884 22.458857 18.022465
-99.407089 22.489616 17.737253
-99.383255 22.481993 17.42226
-99.429001 22.691229 14.372233
-99.404854 22.68157 14.089235
-99.391647 22.682611 13.815689
-99.396049 22.700991 13.555127
-99.392128 22.711018 13.291253
-99.379822 22.712626 13.024335
-99.372238 22.718817 12.762118
-99.369453 22.729681 12.504387
-99.371529 22.745298 12.250922
-99.365265 22.752531 11.994514
-99.308311 22.129162 18.484873
-99.351654 22.187124 18.221228
-99.393112 22.243185 17.957561
-99.395775 22.261517 17.663036
-99.346741 22.229504 17.328892
-99.452019 22.537205 13.542158
-99.441498 22.540714 13.274704
-99.44886 22.561716 13.01965
-99.467712 22.634491 12.007963
-99.446434 22.626831 11.74522
-99.430046 22.623905 11.486899
-99.432076 22.639093 11.23928
-99.412239 22.632572 10.982638
-99.417694 22.651011 10.739335
-99.401237 22.647667 10.487387
-99.312477 21.922071 18.424261
-99.355759 21.979418 18.161509
-99.372559 22.011238 17.877861
-99.368698 22.023069 17.579386
-99.343925 22.014616 17.266785
-99.388786 22.481434 9.250268
-99.396858 22.50186 9.0162697
-99.417252 22.534403 8.7872734
-99.491547 22.620174 8.5767717
-99.48835 22.629408 8.3400793
-99.497528 22.650831 8.1081047
-99.463524 22.629484 7.8637528
-99.45578 22.634071 7.628479
-99.453514 22.644037 7.3955655
-99.435814 22.63866 7.1593175
-99.423607 22.638674 6.925468
-99.423912 22.651075 6.695426
-99.415771 22.655054 6.4640107
-99.308884 21.712921 18.355339
-99.33979 21.757868 18.082956
-99.356331 21.789038 17.800419
-99.345932 21.794399 17.497913
-99.351898 21.81521 17.211859
-99.392815 21.998623 14.46634
-99.383682 22.249723 9.4558258
-99.379433 22.25787 9.2174311
-99.380554 22.271208 8.9820271
-99.414841 22.31694 8.7590427
-99.457993 22.597286 4.1862235
-99.455452 22.606482 3.9603188
-99.451515 22.614279 3.734468
-99.439087 22.613638 3.5082552
-99.248741 21.434929 18.533972
-99.305916 21.504244 18.284042
-99.348984 21.56019 18.023199
-99.352943 21.579145 17.731035
-99.317268 21.560499 17.408918
-99.359772 22.013712 9.4141836
-99.369247 22.034998 9.1822166
-99.37027 22.048056 8.9479074
-99.418541 22.106876 8.7308445
-99.483025 22.40453 4.1789837
-99.259529 21.236885 18.47151
-99.335136 21.322821 18.238474
-99.328583 21.33193 17.935877
-99.325882 21.344477 17.639681
-99.289574 21.325403 17.318836
-99.317421 21.711876 10.310553
-99.367424 21.771923 10.093572
-99.374512 21.790886 9.8588314
-99.366173 21.795019 9.6188564
-99.356232 21.797552 9.3795061
-99.351669 21.805183 9.1433811
-99.352539 21.817974 8.9102516
-99.42186 21.896496 8.7016048
-99.277687 21.043505 18.413225
-99.309952 21.088627 18.143354
-99.3153 21.108711 17.852594
-99.318375 21.126558 17.562727
-99.300346 21.124678 17.258362
-99.36454 21.555952 10.054641
-99.357559 21.561441 9.8152351
-99.362915 21.578581 9.581933
-99.338783 21.567654 9.3382616
-99.348015 21.588366 9.1084776
-99.341705 21.594261 8.8738632
-99.41819 21.678934 8.6687117
-99.387115 21.880232 4.1473927
-99.398933 21.902994 3.9265234
-99.423721 21.938301 3.7063973
-99.439934 21.965349 3.4852183
-99.426025 21.963272 3.2622349
-99.439453 21.987642 3.0405571
-99.444305 22.003719 2.8183122
-99.433395 22.004532 2.5956972
-99.421089 22.003986 2.3732407
-99.421753 22.016014 2.150774
-99.185753 20.736788 18.558428
-99.275192 20.833973 18.338842
-99.308586 20.909708 17.485996
-99.309013 20.924845 17.198101
-99.29641 21.080191 13.924868
-99.302635 21.2752 10.22793
-99.324799 21.308081 10.001349
-99.331505 21.326399 9.7690277
-99.322655 21.33004 9.5314856
-99.340286 21.358545 9.3052263
-99.335342 21.365755 9.071207
-99.321793 21.364799 8.8351946
-99.433731 21.482182 8.6432629
-99.380928 21.650505 4.3564343
-99.444641 21.722723 4.1415682
-99.442093 21.731604 3.9197514
-99.445351 21.746042 3.698508
-99.447212 21.759144 3.4771645
-99.397186 21.722496 3.2533479
-99.41069 21.746735 3.0329745
-99.415581 21.762728 2.8120358
-99.390236 21.749681 2.5905709
-99.204895 20.551458 18.506517
-99.26339 20.619705 18.260397
-99.29512 20.663576 17.992495
-99.299706 20.682663 17.703724
-99.245239 20.647852 17.368929
-99.292305 20.870831 13.871915
-99.288399 21.054756 10.186591
-99.331482 21.106817 9.9698305
-99.324051 21.111818 9.7326822
-99.329086 21.12837 9.5016375
-99.332581 21.143442 9.2708902
-99.30629 21.130659 9.0301456
-99.313744 21.149323 8.8028822
-99.38633 21.44525 4.3462687
-99.421364 21.489651 4.1295071
-99.411568 21.491571 3.9083066
-99.39312 21.485273 3.6868238
-99.395012 21.498259 3.4670475
-99.210159 20.354597 18.444712
-99.262344 20.416578 18.193953
-99.281319 20.448593 17.916206
-99.243111 20.443569 17.305141
-99.284355 20.619961 14.597395
-99.322479 20.66795 14.3609
-99.325584 20.683979 14.102807
-99.333504 20.7043 13.849612
-99.263039 20.813999 10.376894
-99.293564 20.854044 10.155396
-99.308571 20.879759 9.9278126
-99.300926 20.884514 9.6918335
-99.326988 20.920353 9.4701986
-99.28791 20.895933 9.2244024
-99.282578 20.902647 8.9928246
-99.311218 20.940765 8.7742205
-99.370018 21.265759 3.459826
-99.384254 21.301344 3.0229888
-99.403831 21.330902 2.804559
-99.392921 21.331718 2.5852611
-99.380615 21.331217 2.3661225
-99.388733 21.349997 2.1468718
-99.222946 20.162216 18.386814
-99.256226 20.206871 18.120476
-99.255966 20.221508 17.827597
-99.259689 20.239548 17.541039
-99.235687 20.232666 17.234547
-99.27951 20.286274 16.986124
-99.277802 20.313213 16.424265
-99.257446 20.308992 16.132498
-99.267334 20.33176 15.866292
-99.249031 20.3291 15.581702
-99.248215 20.342005 15.312455
-99.251938 20.358885 15.048678
-99.220558 20.344038 14.763001
-99.220192 20.356995 14.50112
-99.277977 20.422297 14.279377
-99.273933 20.431768 14.018405
-99.236732 20.474735 12.486553
-99.291771 20.64633 10.119627
-99.292549 20.658855 9.8871346
-99.29174 20.669878 9.6550722
-99.275185 20.666416 9.4179697
-99.278313 20.680927 9.1896563
-99.294151 20.707048 8.9668188
-99.322792 20.74489 8.748971
-99.378952 21.021826 4.3251657
-99.392365 21.045376 4.1082482
-99.382477 21.047234 3.8892262
-99.378502 21.054581 3.6709509
-99.365822 21.053808 3.4523263
-99.359055 21.058538 3.234308
-99.358208 21.068785 3.0166509
-99.355972 21.077734 2.7989461
-99.151505 19.878794 18.549387
-99.223907 19.957745 18.317146
-99.256912 20.001863 18.051678
-99.240486 20.016903 17.458153
-99.24144 20.032293 17.173628
-99.272247 20.07399 16.915743
-99.269691 20.100164 16.355843
-99.261864 20.107227 16.074888
-99.238739 20.100555 15.785347
-99.259308 20.132601 15.530535
-99.251579 20.13936 15.257378
-99.241745 20.144112 14.985243
-99.243118 20.158739 14.723214
-99.23584 20.165531 14.457509
-99.228706 20.185415 13.937573
-99.235741 20.204687 13.687297
-99.227379 20.210081 13.429317
-99.223907 20.219755 13.176297
-99.218582 20.227667 12.924049
-99.218254 20.239979 12.676494
-99.216141 20.250597 12.4296
-99.21225 20.259527 12.183393
-99.213501 20.273008 11.941546
-99.333359 20.794785 3.8755083
-99.388023 20.856281 3.6628065
-99.162315 19.684603 18.493382
-99.222115 19.751944 18.250856
-99.247421 19.803919 17.689795
-99.199265 19.776424 17.362803
-99.231743 19.819414 17.105671
-99.255814 19.854942 16.843622
-99.245888 19.874628 16.280848
-99.250656 19.892828 16.010853
-99.240196 19.897493 15.731974
-99.240738 19.911715 15.463732
-99.225952 19.9123 15.186974
-99.228966 19.928465 14.925208
-99.243355 19.954573 14.673243
-99.229042 19.955206 14.403949
-99.2145 19.968571 13.881611
-99.214447 19.981491 13.628151
-99.198898 19.980558 13.367149
-99.208717 20.002047 13.123433
-99.209915 20.015797 12.8762
-99.209312 20.027857 12.629609
-99.20002 20.032091 12.37987
-99.209671 20.053116 12.14218
-99.203743 20.060183 11.897577
-99.209991 20.07803 11.660851
-99.207581 20.088078 11.421071
-99.172852 19.49687 18.447859
-99.220047 19.55274 18.194988
-99.189903 19.57078 17.30407
-99.228653 19.618864 17.053051
-99.239624 19.642704 16.781555
-99.235573 19.667385 16.225725
-99.240089 19.68523 15.956642
-99.222733 19.683859 15.673841
-99.236229 19.709297 15.416115
-99.234467 19.721296 15.149565
-99.217293 19.719683 14.874681
-99.218079 19.733667 14.614597
-99.216881 19.745811 14.355292
-99.193443 19.738329 14.083679
-99.20182 19.758652 13.834837
-99.208359 19.777271 13.586539
-99.21991 19.800205 13.342948
-99.215958 19.809423 13.091681
-99.189484 19.798712 12.829268
-99.195564 19.816574 12.587616
-99.19297 19.826704 12.342657
-99.188591 19.835173 12.098392
-99.203362 19.860483 11.865801
-99.195511 19.865728 11.622748
-99.206955 19.887968 11.390928
-99.172501 19.307613 18.397112
-99.214012 19.372721 17.849321
-99.182472 19.374481 17.250963
-99.214699 19.416443 16.995554
-99.218979 19.434227 16.719814
-99.227531 19.469393 16.175915
-99.218697 19.475466 15.897839
-99.207657 19.479483 15.62086
-99.207703 19.492968 15.354531
-99.198997 19.498753 15.084373
-99.194885 19.50839 14.819856
-99.175255 19.504446 14.547192
-99.173767 19.516123 14.289132
-99.190666 19.543686 14.045003
-99.198952 19.563679 13.796947
-99.184883 19.564114 13.536793
-99.182556 19.574669 13.28596
-99.171471 19.577488 13.031828
-99.172295 19.590603 12.786593
-99.178246 19.608118 12.545903
-99.203331 19.642282 12.317175
-99.17794 19.632236 12.062346
-99.178658 19.644936 11.82334
-99.17765 19.656052 11.584915
-99.083588 19.032803 18.562368
-99.170433 19.121229 18.344948
-99.198555 19.159681 18.077013
-99.205376 19.179886 17.793175
-99.197037 19.187025 17.499487
-99.186264 19.191925 17.207001
-99.211998 19.227842 16.947048
-99.20311 19.23407 16.66177
-99.204697 19.262667 16.114679
-99.202217 19.273975 15.842497
-99.197586 19.283304 15.571264
-99.184128 19.284937 15.29625
-99.188583 19.301823 15.036455
-99.184303 19.311092 14.772784
-99.184731 19.324297 14.514558
-99.176384 19.329845 14.252666
-99.186455 19.351149 14.004867
-99.174149 19.353071 13.744707
-99.173576 19.365005 13.494006
-99.178001 19.38117 13.248178
-99.166779 19.383715 12.994838
-99.174454 19.402512 12.754376
-99.166443 19.407656 12.50661
-99.170563 19.423216 12.267314
-99.179947 19.44327 12.032293
-99.104843 18.867262 18.533995
-99.160248 18.928324 18.28911
-99.167046 18.97641 17.42996
-99.18187 19.002769 17.15967
-99.193192 19.066372 16.065342
-99.197182 19.082947 15.798906
-99.17907 19.080614 15.518751
-99.185471 19.098997 15.258941
-99.176399 19.104101 14.990462
-99.171951 19.113028 14.727636
-99.165459 19.120089 14.465729
-99.177345 19.142736 14.21813
-99.166862 19.146181 13.957908
-99.17495 19.165396 13.711578
-99.167412 19.171156 13.457367
-99.157928 19.175152 13.204052
-99.167343 19.195238 12.96384
-99.168015 19.20776 12.720118
-99.159897 19.21265 12.473148
-99.170959 19.233929 12.238476
-99.159233 19.235546 11.992966
-99.107697 18.683941 18.488894
-99.163147 18.744427 18.244673
-99.178322 18.771181 17.967175
-99.17836 18.785137 17.679502
-99.143661 18.769854 17.366024
-99.177765 18.812054 17.112576
-99.1903 18.836067 16.843679
-99.187546 18.847124 16.565178
-99.195114 18.879848 16.026232
-99.165695 18.868076 15.735886
-99.167313 18.882299 15.471316
-99.173561 18.900311 15.212349
-99.150787 18.893723 14.935333
-99.152878 18.908003 14.678122
-99.146164 18.914738 14.417142
-99.157913 18.936979 14.170481
-99.154068 18.945934 13.915571
-99.155151 18.958961 13.665808
-99.154327 18.970284 13.416761
-99.165489 18.99169 13.176739
-99.140053 18.981934 12.916854
-99.140549 18.994108 12.674169
-99.153267 19.016594 12.439945
-99.143166 19.019594 12.194614
-99.13829 19.026953 11.95389
-99.138718 19.03875 11.717552
-99.1138 18.502699 18.437805
-99.164986 18.572941 17.900841
-99.164711 18.586445 17.61404
-99.123077 18.565479 17.296076
-99.163498 18.612474 17.048874
-99.182335 18.641449 16.786085
-99.185898 18.657604 16.513546
-99.153122 18.656288 15.946134
-99.163307 18.677578 15.686507
-99.164719 18.691444 15.422697
-99.143799 18.686533 15.145428
-99.147713 18.702257 14.888243
-99.142815 18.710499 14.627189
-99.142685 18.72263 14.371593
-99.147423 18.738741 14.121252
-99.143356 18.747366 13.867201
-99.137314 18.754238 13.614
-99.136261 18.7652 13.365898
-99.133308 18.774481 13.118541
-99.149452 18.79974 12.88414
-99.128792 18.793938 12.630145
-99.120255 18.798246 12.385094
-99.131058 18.818783 12.152352
-99.125992 18.825857 11.912514
-99.028625 18.232229 18.587082
-99.136665 18.334681 18.390001
-99.125481 18.380011 17.234194
-99.161125 18.448793 16.433281
-99.154068 18.468643 15.887944
-99.143852 18.472847 15.614321
-99.131401 18.475071 15.341817
-99.150589 18.503368 15.094276
-99.140663 18.507452 14.828405
-99.128601 18.509645 14.56359
-99.128136 18.521351 14.308922
-99.139458 18.542744 14.063962
-99.135078 18.551001 13.810769
-99.135666 18.563295 13.562728
-99.134354 18.573912 13.315411
-99.117157 18.571205 13.060567
-99.119026 18.584295 12.818991
-99.11908 18.595787 12.578056
-99.10318 18.593876 12.329988
-99.120842 18.619921 12.102021
-99.182426 18.365305 14.545225
-99.175003 18.371223 14.286181
-99.151688 18.363958 14.019198
-99.147057 18.37195 13.766631
-99.140442 18.378216 13.514922
-99.138863 18.388536 13.268312
-99.156448 18.414595 13.034861
-99.122978 18.398394 12.773324
-99.10865 18.3979 12.525154
-99.10659 18.407469 12.285764
-99.124092 18.433157 12.058508
-99.023781 17.844072 18.747402
-99.211502 18.339169 11.597749
-99.202469 18.342676 11.360616
-99.206131 18.356558 11.131243
-99.171829 18.339108 10.885317
-99.1866 18.362 10.663981
-99.163292 18.353447 10.426629
-99.145538 18.349386 10.193474
-99.140732 18.355947 9.9673672
-99.134293 18.361099 9.7418451
-99.126221 18.364845 9.5169287
-99.116539 18.367191 9.2926369
-99.236244 18.341133 8.0096283
-99.245857 18.359016 7.7975163
-99.216339 18.344599 7.5747437
-99.207878 18.347496 7.359139
-99.235703 18.380325 7.1539154
-99.186462 18.349461 6.9293728
-99.188683 18.361071 6.7188668
-99.189453 18.371466 6.5085459
-99.158401 18.355478 6.2918749
-99.156273 18.363403 6.0823188
-99.152718 18.370119 5.8729992
-99.155365 18.381956 5.6653113
-99.280739 18.374842 4.0183339
-99.278625 18.382481 3.8116446
-99.282806 18.395329 3.6055334
-99.254829 18.381542 3.39763
-99.240845 18.379324 3.1910229
-99.248566 18.395082 2.9854555
-99.231819 18.390549 2.7791784
-99.221382 18.391243 2.573297
-99.224953 18.403563 2.3675542
-99.204063 18.395563 2.1619337
-99.260002 18.271116 1.7485727
-99.25811 18.27877 1.5425794
-99.247131 18.278923 1.3369246
-99.21936 18.265211 1.1324201
-101.50832 55.592346 15.11154
-101.42982 55.536041 13.933303
-101.41155 55.548912 13.356384
-100.39169 38.969715 18.235207
-100.5774 39.333435 1.581527
-100.26512 37.205311 18.216583
-100.13919 35.995781 18.332094
-100.18638 35.566925 18.223036
-100.415 36.440742 2.4060497
-100.41451 36.467854 1.9871386
-100.40035 36.475655 1.5680498
-100.32317 35.239323 3.6283376
-100.34708 35.299232 3.2191281
-100.00849 32.429897 18.266569
-99.846474 30.820776 18.243151
-99.744415 29.315432 18.221458
-99.874542 28.279018 3.0917273
-99.847481 28.292927 2.3629
-99.549362 26.542006 18.259516
-99.785637 27.758326 3.0788455
-99.640144 26.244518 18.202951
-99.791458 27.395329 2.3511453
-99.830063 27.004812 2.6986187
-99.819122 27.036201 1.9855839
-99.813866 27.052149 1.6288786
-99.746994 26.998287 1.273577
-99.55265 24.962551 18.198406
-99.479256 23.7439 18.222744
-99.59938 24.606329 5.701508
-99.558723 24.146164 6.3438659
-99.587486 24.215807 5.6666884
-99.665031 24.435493 3.2910881
-99.656944 24.466534 2.6094315
-99.663597 24.493326 2.2686684
-99.654427 24.503452 1.9275578
-99.643204 24.511417 1.5864507
-99.336174 22.846327 18.299248
-99.622559 24.071581 2.2526519
-99.627274 24.096043 1.9141269
-99.643768 24.132818 1.575053
-99.383972 22.524847 18.215994
-99.597954 23.552574 4.2531371
-99.59301 23.663933 2.2387545
-99.576897 23.666765 1.9027234
-99.600525 23.710552 1.5662401
-99.426292 22.693289 9.5688725
-99.590088 23.227989 3.2294188
-99.58004 23.237137 2.8955355
-99.581963 23.258455 2.5620646
-99.581848 23.277704 2.2283742
-99.579681 23.29488 1.8944901
-99.568459 23.302843 1.560545
-99.264175 21.651176 18.309404
-99.407417 22.325975 9.1744633
-99.573059 22.915787 1.8886012
-99.568901 22.930887 1.5566437
-99.312576 21.342443 18.242226
-99.299057 21.226847 13.813653
-99.303581 20.877378 13.758448
-99.399605 21.680662 1.252553
-99.17894 20.149866 18.291508
-99.218735 19.843084 18.244209
-99.414146 20.486343 3.533416
-99.407051 20.497166 3.2150462
-99.397926 20.506084 2.8967562
-99.408699 20.533566 2.5790687
-99.395515 20.538691 2.2607491
-99.387604 20.548742 1.9425738
-99.392273 20.570553 1.6242101
-99.375641 20.059504 4.1590695
-99.382935 20.117588 3.2118936
-99.381302 20.133215 2.8959475
-99.399704 20.167295 2.5804336
-99.106979 18.698423 18.30234
-99.304237 19.640461 4.1440759
-99.363708 19.745068 3.2071395
-99.35482 19.753887 2.8929424
-99.351295 19.767582 2.5790179
-99.335381 19.365114 3.2044709
-99.334007 19.380623 2.8926239
-99.330612 19.394312 2.5807071
-99.06913 17.954435 18.474182
-99.316315 18.961918 3.8195453
-99.327271 19.004936 3.2003446
-99.303513 19.000561 2.8895581
-99.300186 19.014265 2.5797374
-99.302315 19.032808 2.2699542
-99.302414 19.049562 1.9599741
-99.315437 19.077806 1.649639
-99.308052 18.654207 2.8799331
-99.29184 18.673279 2.2634845
-99.276939 18.676853 1.9553481
-99.282578 18.698429 1.6471118
-101.41544 55.235817 18.597973
-101.397 55.259766 17.68276
-101.44547 55.115517 17.203577
-101.4475 55.147057 16.759272
-101.42854 55.141537 16.304617
-101.40276 55.123863 15.848621
-101.41785 55.178024 15.417287
-101.38325 55.144531 14.961135
-101.38968 55.183239 14.528371
-101.12177 50.395386 18.850031
-101.07695 49.433887 18.987671
-101.0616 49.192825 18.907549
-101.05861 48.974403 18.842571
-100.87847 46.255955 18.935286
-100.87623 46.056759 18.877724
-100.72788 43.756363 18.974018
-100.86644 44.726112 5.9314618
-100.67101 42.908813 19.136189
-100.65802 42.710857 19.083582
-100.64954 42.520649 19.034863
-100.80389 43.552891 2.1467307
-100.83347 43.412067 2.1512976
-100.80072 43.145279 2.8338783
-100.77547 43.14917 2.1570215
-100.17402 36.237022 18.925148
-100.42396 37.494442 1.8049742
-100.44888 37.542316 1.4979055
-100.17724 36.088596 18.872196
-100.45116 37.373783 1.7964426
-100.45724 37.398254 1.4906263
-100.46163 37.420654 1.1843605
-100.17841 35.940258 18.820957
-100.44604 37.214504 1.7905934
-100.43324 37.215649 1.4864801
-100.41248 37.20697 1.1828061
-100.19242 35.812206 18.788769
-100.42159 37.032017 1.7913675
-100.41517 37.040905 1.4881085
-100.40707 37.047745 1.1847489
-100.11445 35.560364 19.047308
-100.39046 36.841881 1.7951915
-100.41582 36.889431 1.4917598
-100.40151 36.888515 1.1895478
-100.10171 35.406452 18.998854
-100.37749 36.67527 1.7976173
-100.40938 36.730453 1.4948654
-100.4015 36.737255 1.1931573
-100.11597 35.277882 18.965914
-100.39636 36.563648 1.4960582
-100.38218 36.562752 1.1956749
-100.12719 35.138638 18.930536
-100.38943 36.404602 1.4992132
-100.37523 36.403793 1.1997044
-100.11442 34.97065 18.879702
-100.38838 36.253193 1.5045197
-100.38054 36.260185 1.2054334
-100.12782 34.838482 18.85186
-100.121 34.686829 18.812611
-100.06324 34.458813 19.087835
-100.1542 34.582123 18.806002
-100.03138 34.142921 19.005304
-100.03632 34.013683 18.982456
-100.02796 33.873669 18.94861
-100.31086 35.12907 1.573649
-100.31678 35.151611 1.2801355
-100.30156 35.149414 0.98749959
-100.0307 33.747349 18.924076
-100.30669 34.97879 1.5832263
-100.2998 34.986122 1.2911932
-100.03413 33.620628 18.899073
-100.30844 34.836475 1.5921038
-100.2952 34.836231 1.3011109
-99.983826 33.410347 19.173391
-100.08337 33.539165 18.901848
-100.31033 34.693813 1.5969638
-100.29061 34.686035 1.3070109
-99.989243 33.27721 19.133127
-100.07689 33.392323 18.853109
-100.29867 34.536411 1.5961312
-100.29206 34.543747 1.3063607
-99.97963 33.124847 19.074299
-100.29236 34.387272 1.5902704
-100.28571 34.394611 1.3012862
-99.984146 32.984917 19.022568
-100.27295 34.222809 1.5827979
-100.27281 34.237679 1.2944242
-99.992485 32.8507 18.979086
-100.23989 34.043613 1.5796186
-100.27933 34.103535 1.2902604
-99.985489 32.703121 18.930571
-100.22572 33.887497 1.5799273
-100.26525 33.947369 1.2914385
-99.981911 32.561478 18.89032
-100.258 33.783451 1.5820814
-100.25789 33.798389 1.2959778
-99.994064 32.440269 18.86554
-100.20361 33.582508 1.5893167
-100.24346 33.642273 1.3024955
-99.909782 32.199745 19.110111
-100.19484 33.434269 1.5944147
-100.22823 33.486507 1.3087353
-99.90966 32.06691 19.073639
-100.19258 33.293465 1.5976123
-100.23279 33.353085 1.3122817
-99.916512 31.93956 19.041685
-100.18311 33.145496 1.6009587
-99.911057 31.799292 19.000202
-100.16656 32.990181 1.604423
-100.21375 33.057106 1.3204062
-99.910362 31.667105 18.962685
-100.20333 32.894398 1.6049809
-100.19023 32.894623 1.3242892
-99.908775 31.536604 18.923948
-100.19266 32.747066 1.6060756
-100.1796 32.747299 1.3261682
-99.926239 31.425894 18.897161
-100.18851 32.607021 1.6047207
-100.18896 32.622005 1.3248087
-99.836685 31.183176 19.122875
-100.17747 32.47514 1.3222222
-99.863724 31.07902 19.096283
-99.859047 30.944387 19.045481
-99.857277 30.817432 19.001543
-99.884033 30.722502 18.983133
-99.892357 30.608343 18.950441
-99.802017 29.645351 18.989443
-99.81012 29.533377 18.971962
-99.803764 29.403257 18.934139
-99.822411 27.755058 3.174938
-99.66922 26.746304 19.125528
-99.84259 27.642921 3.4235761
-99.842072 27.654297 3.1691897
-99.789253 27.473488 3.415781
-99.718323 26.859539 2.6368983
-99.620399 25.952015 18.838581
-99.577965 25.860865 19.075518
-99.590134 25.758806 19.053431
-99.537498 25.601345 18.978802
-99.606277 25.675913 18.710251
-99.51181 25.465717 18.923824
-99.531914 25.367538 18.906158
-99.526215 25.24581 18.868374
-99.529724 25.137197 18.843315
-99.792191 26.193762 1.0384073
-99.5205 25.024759 18.818821
-99.784752 26.0746 1.0475252
-99.515839 24.917599 18.801865
-99.507935 24.791676 19.098881
-99.53949 24.83284 18.802402
-99.762115 25.829172 1.067969
-99.546288 24.730965 18.784599
-99.636497 25.204746 10.020665
-99.629417 25.210291 9.7595501
-99.768791 25.723509 1.0725794
-99.522049 24.588146 19.061794
-99.591026 25.056005 9.9933033
-99.635147 25.105412 9.7511444
-99.752815 25.597822 1.0776356
-99.489342 24.454147 19.011457
-99.527229 24.500072 18.721472
-99.60379 24.957655 9.9871149
-99.618599 24.981821 9.7349062
-99.749878 25.472128 1.3280514
-99.751991 25.484991 1.0816702
-99.457428 24.321058 18.959164
-99.602356 24.847095 9.9736233
-99.624519 24.877388 9.724411
-99.466629 24.220814 18.935595
-99.623734 24.766781 9.7087669
-99.470016 24.114031 18.906715
-99.453789 23.990013 18.862778
-99.450348 23.876984 18.829372
-99.467155 23.780159 18.810802
-99.563789 24.423576 6.1566191
-99.457283 23.647993 19.090567
-99.476852 23.677948 18.787453
-99.623215 24.361345 6.158206
-99.392448 23.486444 19.011541
-99.583862 24.183924 6.8750863
-99.398788 23.383692 18.991945
-99.57399 24.063999 6.8668208
-99.596474 24.114689 6.1420894
-99.675781 24.413889 0.84986991
-99.418427 23.292353 18.982145
-99.601845 23.976103 6.8659439
-99.593903 24.00148 6.1359625
-99.681892 24.306185 0.85277259
-99.400032 23.168718 18.938578
-99.562988 23.843369 6.6060739
-99.555176 23.847544 6.3625979
-99.533279 23.955164 3.4872537
-99.581306 24.005268 3.2513309
-99.672363 24.185537 0.85467768
-99.671761 24.195589 0.61337954
-99.381691 23.044998 18.894726
-99.408478 22.958303 18.889662
-99.405678 22.850853 18.866322
-99.415138 22.754551 18.854101
-99.398895 22.638174 18.818779
-99.342819 22.477551 19.064148
-99.403893 22.538225 18.796762
-99.59008 23.362408 3.0124757
-99.340797 22.372765 19.036676
-99.395103 22.427963 18.764372
-99.332222 22.261557 19.004885
-99.474937 23.036039 3.474844
-99.357025 22.175879 18.999725
-99.354691 22.070568 18.972425
-99.364899 21.976875 18.955606
-99.33886 21.857893 18.9146
-99.331932 21.753784 18.891029
-99.325821 21.649433 18.866795
-99.320137 21.546116 18.840485
-99.314812 21.444176 18.812275
-99.327171 21.357328 18.803288
-99.271851 21.114891 19.040575
-99.267982 21.014629 19.008394
-99.277504 20.922911 18.988064
-99.276428 20.825409 18.9674
-99.280106 20.734772 18.953127
-99.284859 20.645386 18.935976
-99.268951 20.342762 18.842245
-99.217178 20.006283 19.040653
-99.200058 19.902273 19.007454
-99.230759 19.830921 19.013685
-99.21666 19.723917 18.978907
-99.21949 19.623758 18.953156
-99.212685 19.519135 18.925043
-99.207375 19.335495 18.907164
-99.195381 19.145733 18.866386
-99.338127 19.821795 4.3154573
-99.306442 19.808628 4.0890684
-99.285515 19.855803 2.528306
-99.293282 19.878866 2.0827751
-99.281258 19.687756 4.3053241
-99.322762 19.734159 3.8628459
-99.360748 19.840134 1.8564774
-99.26548 19.581919 4.2988653
-99.306984 19.628197 3.8572531
-99.320267 19.716932 1.8553579
-99.282547 19.498547 4.294126
-99.340553 19.555983 3.8538766
-99.337334 19.633188 1.8515576
-99.291367 19.40967 4.2864218
-99.259384 19.396616 4.0616179
-99.370789 19.56065 1.8451735
-99.300484 19.320644 4.2770734
-99.24366 19.290785 4.0504103
-99.15612 18.544067 18.986988
-99.27626 19.209044 4.2646117
-99.244072 19.196033 4.040524
-99.346634 19.353249 1.8311507
-99.151443 18.442627 18.950521
-99.252563 19.096531 4.2513828
-99.22023 19.083555 4.0278292
-99.322273 19.240351 1.8236473
-99.270393 19.011551 4.2404399
-99.254501 19.00976 4.0183306
-99.280922 18.993147 2.4671731
-99.218895 18.960451 2.2471595
-99.238335 18.982368 2.0272021
-99.110878 17.971565 18.837921
-99.097191 17.880688 19.15189
-99.095535 17.891975 18.841667
