# .PCD v0.7 - Point Cloud Data file format
VERSION 0.7
FIELDS x y z
SIZE 4 4 4
TYPE F F F
COUNT 1 1 1
WIDTH 1558
HEIGHT 1
VIEWPOINT 0 0 0 1 0 0 0
POINTS 1558
DATA ascii
-102.3257 17.083229 4.7848392
-102.32741 17.100233 4.4945316
-102.32001 17.108644 4.2035513
-102.30349 17.10845 3.9121816
-102.30692 17.127048 3.6226411
-102.31579 17.15077 3.3333747
-102.30827 17.159037 3.0432146
-102.31345 17.179291 2.7535951
-102.28773 17.170328 2.4632039
-102.27472 17.173357 2.1733978
-102.2889 17.202148 1.8835974
-102.28671 17.215454 1.5935363
-102.26818 17.213259 1.3037598
-102.27682 17.236845 1.0130091
-102.65176 16.482632 16.56292
-102.65427 16.502684 16.226826
-102.64069 16.508038 15.883834
-102.62463 16.510992 15.542036
-102.61983 16.524044 15.208882
-102.60575 16.528551 14.873041
-102.59618 16.537033 14.541879
-102.5912 16.549574 14.215181
-102.58392 16.559916 13.889356
-102.43629 16.637297 9.7946186
-102.42318 16.656832 9.1904154
-102.41723 16.667065 8.8901625
-102.40209 16.668774 8.5884562
-102.3994 16.681906 8.2911835
-102.38754 16.686522 7.992507
-102.38095 16.695965 7.6961017
-102.37969 16.710279 7.4017344
-102.36926 16.716078 7.1061201
-102.34992 16.728949 6.5176892
-102.3483 16.742794 6.2260132
-102.33026 16.741364 5.9321766
-102.32488 16.751656 5.6410928
-102.31764 16.760185 5.3502531
-102.33041 16.787294 5.062438
-102.30486 16.778751 4.7702284
-102.29933 16.788809 4.4809141
-102.30656 16.81073 4.1930776
-102.30464 16.824127 3.9045031
-102.29358 16.828987 3.6154742
-102.30259 16.852564 3.3278642
-102.27324 16.840319 3.0384283
-102.27857 16.860456 2.7507272
-102.28371 16.895603 2.1746552
-102.2669 16.910212 1.5980883
-102.27762 16.935453 1.3092026
-102.2646 16.938456 1.0207475
-102.4102 16.53223 5.9243178
-102.41055 16.577969 5.056139
-102.39962 16.628271 3.9014318
-102.37389 16.619614 3.6117823
-102.37569 16.636322 3.324297
-102.36642 16.657839 2.7488253
-102.35534 16.662642 2.4610577
-102.3571 16.679316 2.1735272
-102.34968 16.687494 1.8858489
-102.38685 16.246355 5.6150532
-102.74416 15.718788 16.75009
-102.79751 14.733893 21.177252
-102.85582 14.855433 19.755514
-102.87326 14.532984 21.157991
-102.78857 12.318167 16.594938
-102.82723 12.409036 15.335424
-102.83925 12.448387 14.71382
-102.83795 12.462417 14.402238
-102.80132 12.493819 13.161196
-102.78763 12.512447 12.554589
-102.73951 12.490351 12.236855
-102.76518 12.538303 11.657052
-102.66758 12.575193 9.3192444
-102.66419 12.586233 9.035903
-102.66654 12.601604 8.7551765
-102.65746 12.621671 8.1928034
-102.64601 12.626349 7.9113736
-102.64818 12.641417 7.6340961
-102.64839 12.654952 7.3570766
-102.61536 12.642915 7.0738769
-102.61948 12.659371 6.799314
-102.59815 12.656229 6.5205746
-102.60627 12.675697 6.2479529
-102.5732 12.663427 5.9690046
-102.58535 12.685958 5.6980662
-102.55627 12.676681 5.421536
-102.5489 12.6841 5.1488166
-102.53963 12.690032 4.8763785
-102.55212 12.712761 4.6067524
-102.54697 12.721849 4.3354301
-102.50838 12.705042 4.0616279
-102.49158 12.705059 3.7904403
-102.48871 12.715838 3.5206163
-102.47607 12.719044 3.2504501
-102.47737 12.733045 2.9811664
-102.46101 12.733339 2.7113547
-102.4586 12.744449 2.4421182
-102.43853 12.741838 2.1727433
-102.44029 12.756195 1.9036012
-102.4402 12.769114 1.6342928
-102.39092 12.743722 1.3660927
-102.41077 12.77219 1.0961479
-102.3736 12.756189 0.82825863
-102.36608 12.763333 0.55910051
-102.71396 12.193416 12.782337
-102.71007 12.218973 12.187637
-102.6404 12.318204 9.0046005
-102.6021 12.329401 8.1577559
-102.5144 12.471664 3.7887988
-102.51953 12.488494 3.5203354
-102.53073 12.509975 3.2521598
-102.53214 12.523956 2.9833999
-102.5079 12.51825 2.7138808
-102.52937 12.547632 2.4456782
-102.50933 12.545139 2.1766493
-102.5033 12.553395 1.9078903
-102.4954 12.560222 1.6391389
-102.49356 12.571715 1.3702083
-102.48194 12.57568 1.1014467
-102.47637 12.584313 0.83237255
-102.46894 12.591516 0.56321371
-102.8242 11.850046 16.507587
-102.87396 11.90182 16.214407
-102.85535 11.903427 15.884065
-102.81927 11.892103 15.54698
-102.81745 11.905765 15.231351
-102.83542 11.933858 14.928261
-102.80632 11.927268 14.602869
-102.80451 11.94063 14.293793
-102.78529 11.941072 13.978296
-102.78616 11.956202 13.674654
-102.74303 11.953094 13.052687
-102.73681 11.962711 12.751765
-102.71748 11.97659 12.152435
-102.72734 11.997868 11.863253
-102.71972 12.006124 11.568534
-102.70219 12.006959 11.271695
-102.69783 12.017486 10.981435
-102.68359 12.020606 10.689107
-102.69041 12.03929 10.405546
-102.64236 12.057437 9.2591324
-102.62315 12.05644 8.9738216
-102.62534 12.071355 8.695734
-102.62553 12.084736 8.4179897
-102.58445 12.067225 8.1308088
-102.61206 12.101021 7.8617458
-102.61416 12.115703 7.5870409
-102.60641 12.122979 7.3108945
-102.60459 12.13466 7.0368209
-102.58502 12.132988 6.7599907
-102.58722 12.147611 6.4881678
-102.56374 12.142916 6.2124453
-102.55416 12.148623 5.9399838
-102.5744 12.176734 5.672658
-102.56895 12.185505 5.4017563
-102.55366 12.186832 5.1301036
-102.56826 12.21067 4.8626099
-102.57304 12.227098 4.5940599
-102.55207 12.224078 4.3232322
-102.57698 12.255689 4.0569124
-102.50447 12.213659 3.7831554
-102.54157 12.254481 3.517874
-102.85638 11.734209 14.272692
-102.77934 11.735378 13.02676
-102.75349 11.758511 12.128483
-102.67773 11.838318 9.2418795
-102.65057 11.831517 8.9550295
-102.57975 11.972519 4.8535705
-102.49994 11.963588 3.7767792
-102.50528 11.98019 3.5106668
-102.84664 11.483517 14.222443
-102.86483 11.510929 13.926732
-102.82762 11.498424 13.60655
-102.79575 11.545354 12.10824
-102.63702 11.577529 8.9257231
-102.53333 11.693096 4.838625
-102.48544 11.70788 3.7704036
-102.80524 11.211918 14.156507
-102.83075 11.244235 13.865891
-102.82357 11.253251 13.561299
-102.63773 11.335546 8.9000301
-102.59085 11.529063 4.0374103
-102.68071 11.17738 7.788991
-102.56528 11.268684 4.0258679
-102.7814 8.6776791 7.8335958
-102.816 8.050909 7.8255725
-102.83671 8.0746822 7.5686841
-102.83858 8.0871658 7.3081226
-102.7602 8.0627899 6.7732496
-102.72275 8.1072969 5.2278037
-102.81863 7.8405099 7.8222198
-102.82258 7.8540711 7.5622535
-102.8076 7.8564081 7.2989488
-102.78004 7.8623619 6.7758684
-102.82698 7.9012713 6.5267601
-102.69208 7.8761973 5.2268486
-102.76914 7.6015229 7.8031673
-102.78159 7.6198182 7.5462875
-102.78356 7.6319823 7.2876968
-102.76452 7.6427746 6.7681255
-102.82874 7.6912704 6.5229831
-102.80576 7.6887364 6.262217
-103.33889 4.6608696 21.955177
-103.34076 4.6769676 21.594316
-103.13736 4.7241206 18.053591
-103.16302 4.7497158 17.749559
-103.13834 4.7513447 17.417286
-103.15708 4.3165183 18.317926
-101.03181 55.40274 18.283392
-101.02951 55.437397 17.813723
-101.10197 55.359196 17.321814
-101.0433 55.272388 16.81809
-101.03955 55.303371 16.354643
-101.03405 55.330452 15.891822
-101.01051 55.318508 15.419671
-100.98111 55.293709 14.946486
-100.97445 55.317787 14.488871
-100.94971 55.302677 14.02289
-100.93964 55.319065 13.56688
-100.93607 55.349426 13.115709
-100.91441 55.340485 12.656968
-100.89516 55.336628 12.201238
-100.87836 55.33791 11.748299
-100.85989 55.335453 11.2962
-101.08775 54.940136 18.633181
-101.15156 54.804188 18.604195
-101.13757 53.002869 18.564472
-101.03232 53.149727 14.03038
-101.1814 52.780746 18.504162
-101.18921 52.489578 18.422174
-101.23071 52.256565 18.360054
-101.22291 51.921673 18.257084
-101.22649 51.611721 18.164526
-101.2508 51.771679 16.851505
-101.24047 51.325336 18.08889
-101.2643 51.410091 17.663101
-101.26509 51.4487 17.222082
-101.25555 51.46648 16.775814
-101.22064 50.977894 17.999659
-101.20586 50.985359 17.548782
-101.25781 51.125381 17.146793
-101.25236 51.151134 16.705675
-101.24081 51.164589 16.262499
-101.2404 51.200089 15.828475
-101.20841 51.208424 14.946574
-101.20093 50.680397 17.482065
-101.21864 50.751568 17.058311
-101.22601 50.802197 16.628647
-101.21004 50.806438 16.185158
-101.18361 50.789722 15.737335
-101.19438 50.846668 15.314865
-101.16872 50.831104 14.871908
-101.17171 50.872356 14.447734
-101.29672 50.617146 17.055029
-101.29135 50.642056 16.617079
-101.27552 50.646168 16.174252
-101.26656 50.66367 15.738029
-101.25584 50.677509 15.302645
-101.23462 50.670452 14.863001
-101.21598 50.668324 14.427092
-102.61481 16.477907 16.773476
-102.61742 16.492163 16.484316
-102.60278 16.494947 16.186705
-102.43676 16.66608 9.5711489
-102.41887 16.664461 9.3238792
-102.69426 16.38925 15.928473
-102.66076 16.415432 14.788211
-102.65595 16.447332 13.968847
-102.61831 16.445513 13.41522
-102.62302 16.45994 13.153511
-102.57168 16.448538 12.606412
-102.59132 16.505451 11.590725
-102.5632 16.519135 10.82643
-102.43638 16.528564 8.5976191
-102.43521 16.608208 6.7215252
-102.44467 16.624481 6.4918351
-102.35043 16.600554 5.5566149
-102.38438 16.633205 5.3329806
-102.38373 16.64255 5.1046224
-102.38966 16.656326 4.8773561
-102.37744 16.657837 4.648345
-102.36355 16.658201 4.4196835
-102.30667 16.629492 4.1879344
-102.31425 16.64432 3.9622731
-102.32021 16.658041 3.7364924
-102.31625 16.665056 3.5101798
-102.31067 16.670956 3.2839568
-102.2869 16.66452 3.0573292
-102.29459 16.679413 2.8318477
-102.30065 16.693203 2.6061585
-102.29681 16.700274 2.3802853
-102.41653 16.477432 5.3379421
-102.41596 16.486784 5.1097579
-102.30528 16.461084 3.9652274
-102.30304 16.4692 3.7395394
-102.29086 16.470644 3.5134907
-102.30194 16.487688 3.2887414
-102.2865 16.486917 3.0629756
-102.29431 16.501774 2.8380203
-102.29219 16.509958 2.6127734
-102.28844 16.517042 2.3875101
-102.28307 16.523029 2.1622474
-102.27605 16.527916 1.9370027
-102.2757 16.537294 1.7115278
-102.2737 16.545574 1.4859307
-102.27835 16.55835 1.2597891
-102.4073 16.236063 6.7135239
-102.38389 16.230413 6.4788814
-102.38349 16.239902 6.2493925
-102.38985 16.282915 5.3372536
-102.40593 16.303215 5.1119399
-102.39444 16.324524 4.4301224
-102.32029 16.294502 3.9722428
-102.3707 16.395086 2.3969691
-102.36541 16.40114 2.1713572
-102.35847 16.406101 1.945762
-102.34991 16.409967 1.7202015
-102.34801 16.418299 1.4943436
-102.31438 16.414999 1.0438977
-102.59203 15.90039 13.355746
-102.5287 15.892978 12.544662
-102.58949 15.942891 12.31603
-102.55576 15.942847 11.792026
-102.5317 15.938081 11.529851
-102.52935 15.947202 11.278555
-102.54094 15.965242 11.034247
-102.39812 16.064276 6.4783502
-102.39775 16.073763 6.2492075
-102.37911 16.071276 6.0175033
-102.38364 16.083914 5.7903066
-102.36158 16.079126 5.5595374
-102.35444 16.084074 5.3316598
-102.35393 16.093355 5.1051254
-102.35175 16.10153 4.8787313
-102.35625 16.114073 4.6533685
-102.32578 16.103619 4.4248638
-102.54294 15.72781 12.532024
-102.52216 15.86143 9.0681181
-102.54113 15.883741 8.8357773
-102.37582 15.924331 5.3303046
-102.39201 15.944464 5.1061258
-102.39729 15.976684 4.4292727
-102.53474 15.696918 9.0593061
-102.521 15.69827 8.8176231
-102.37897 15.764056 5.1000142
-102.35076 15.774558 4.4218402
-102.51419 15.512118 9.0401001
-102.35693 15.578887 5.092483
-102.62855 15.265292 12.513159
-102.48792 15.314609 9.25702
-102.50038 15.332524 9.0236998
-102.51105 15.349293 8.7905502
-102.57542 14.785008 11.18037
-102.55545 14.793865 10.681946
-102.5192 14.7926 10.18371
-102.52264 14.804946 9.9444704
-102.65839 12.737376 8.2298603
-102.66383 12.749895 8.0021181
-102.62849 12.12227 8.2350197
-102.6515 12.143671 8.0129471
-102.67274 12.164146 7.7907872
-102.6662 12.170112 7.562501
-102.64277 11.982212 8.2424183
-102.63123 11.985652 8.0116673
-102.66123 12.010511 7.7920513
-102.65511 12.025989 7.3385582
-102.67113 12.043568 7.117023
-102.63108 11.830869 8.2398062
-102.63692 11.843176 8.0137835
-102.63226 11.850072 7.7859035
-102.61703 11.851524 7.5564418
-102.66978 11.887795 7.3431292
-102.64425 11.694793 8.2404747
-102.61537 11.689357 8.0057487
-102.63686 11.709425 7.784626
-102.66532 11.733026 7.5654607
-102.65708 11.737962 7.3383117
-102.67329 11.755302 7.1172075
-102.61118 11.544763 8.0003147
-102.624 11.560268 7.7773337
-102.62629 11.570453 7.5524292
-102.61801 11.575284 7.3258758
-102.66933 11.610138 7.1127896
-102.68385 11.626436 6.8919253
-103.35566 4.7548847 22.584074
-103.16287 4.8379412 18.47167
-103.21578 4.8961821 17.306559
-103.17025 4.4698124 18.799894
-101.36757 46.480206 12.493862
-101.26485 45.902256 8.9142714
-101.37393 45.131245 12.826797
-101.23563 45.160366 9.3467188
-101.21404 45.197392 8.3688335
-101.12227 45.334526 4.4827294
-102.258 18.130651 4.8050079
-102.74973 16.517021 21.062481
-102.61424 16.853096 13.158443
-102.59735 16.860046 12.803107
-102.45406 16.906023 10.022973
-102.43749 16.912363 9.683074
-102.43423 16.928482 9.3478575
-102.41277 16.931053 9.0093718
-102.38889 16.931736 8.6717196
-102.3863 16.948174 8.3400154
-102.36631 16.723434 5.6891923
-102.68838 16.012165 16.644192
-102.75594 15.711009 16.605038
-102.74011 12.647679 14.911973
-102.75491 12.674719 14.572844
-102.78026 12.778915 12.882622
-102.68839 12.910345 9.2514973
-102.59303 12.884576 8.5913124
-102.60844 12.91069 8.2773228
-102.57351 12.921963 7.6383829
-102.5818 12.943536 7.3251724
-102.56253 12.947925 7.0078359
-102.53247 12.945528 6.6898255
-102.55894 12.978337 6.3813362
-102.53257 12.978157 6.0655971
-102.51228 12.981715 5.7516499
-102.50651 12.994318 5.4402385
-102.51531 13.016014 5.130867
-102.48803 13.015099 4.8182073
-102.49223 13.033877 4.5090718
-102.46879 13.035297 4.1980224
-102.4515 13.040547 3.8880429
-102.77488 12.26164 16.280905
-102.49001 12.662226 5.1197057
-102.47119 12.666592 4.8093238
-102.52645 12.716638 4.5058947
-102.46998 12.745458 3.2706375
-102.48837 12.77276 2.9638822
-102.4705 12.777585 2.6559141
-102.47582 12.796801 2.3485711
-102.44489 12.793495 2.0409338
-102.42868 12.799314 1.7336847
-102.42717 12.814278 1.4263234
-102.42337 12.827828 1.1188285
-102.39185 12.824099 0.81220192
-102.40044 12.845392 0.50394517
-102.74454 12.035629 13.802137
-102.7428 12.051899 13.464188
-102.62059 12.373143 5.7436128
-102.5895 12.370181 5.4305544
-102.59012 12.386393 5.1218505
-102.51624 12.373138 4.499022
-102.51843 12.390227 4.1920385
-102.68861 9.0474949 7.1248236
-102.6908 9.0771685 6.5210228
-102.73698 9.1149206 6.2263217
-102.76259 8.4415302 7.0898705
-102.69356 8.4359131 6.4777212
-102.72218 8.4640112 6.1823382
-103.2261 4.6776586 18.214212
-101.03933 55.339909 18.063093
-101.02631 55.345181 17.606234
-101.12874 55.283215 17.624016
-101.07633 55.218048 17.144857
-101.07336 55.240723 16.699312
-101.05901 55.242966 16.249069
-101.07359 54.856464 18.88019
-101.30053 49.814945 18.721375
-101.31062 49.612522 18.660141
-101.36853 49.488144 18.638113
-101.45943 46.875427 16.809528
-101.46504 46.642822 17.571438
-101.27235 45.842308 10.028868
-101.28137 45.87714 9.6665201
-101.41525 45.437042 17.232235
-101.34018 45.75193 10.018847
-101.45136 45.300022 17.203711
-101.42671 45.491261 13.35048
-101.34117 45.563362 9.9907703
-101.45393 45.115845 17.158152
-101.439 45.297909 13.696285
-101.43895 45.319958 13.32085
-101.30289 45.296814 10.316604
-101.45446 44.930176 17.117844
-101.42754 45.094006 13.660439
-101.43291 45.123722 13.288825
-101.32392 45.139519 10.303474
-101.47252 44.766071 17.08918
-101.41164 44.880974 13.623434
-101.40583 44.894562 13.248058
-101.29005 44.90044 10.273077
-101.36241 45.025883 9.9356337
-101.34326 45.019485 9.5689659
-101.39632 44.667236 13.586412
-101.39034 44.680595 13.212387
-101.44356 44.778374 12.866287
-101.29563 44.717354 10.255816
-101.35124 44.818344 9.9140453
-101.35448 44.844193 9.5554943
-101.34464 44.851215 9.1938581
-101.24799 44.942051 5.2723966
-101.27772 44.521996 9.8727493
-101.30338 44.579853 9.5232697
-101.29904 44.594769 9.1651497
-101.28156 44.590851 8.8043165
-101.19057 44.627415 5.9632788
-101.21959 44.689945 5.6166463
-101.25256 44.758221 5.2697554
-101.20641 44.482025 5.611012
-101.19385 44.484711 5.2600703
-101.19666 44.509434 4.9111977
-101.18632 44.515266 4.5611534
-101.13999 44.469364 4.208848
-101.16041 44.519363 3.8616819
-101.15627 44.534054 3.5127792
-101.12756 44.513393 3.1632121
-101.16004 44.310959 4.2122626
-101.16342 44.336349 3.8649178
-101.13646 44.318264 3.516115
-101.44856 42.512379 11.514925
-101.46148 42.549343 11.167166
-101.4146 42.504993 10.798701
-101.34148 42.539143 8.3486223
-101.33208 42.545223 8.0030432
-101.30331 42.524796 7.6540151
-101.22544 42.52367 2.5531483
-101.21556 42.52879 2.2151754
-101.26952 42.430111 2.2135048
-102.52728 18.040457 15.957749
-102.52272 18.049231 15.655686
-102.52336 18.060894 15.358855
-102.51351 18.066458 15.058811
-102.50896 18.07497 14.763902
-102.50983 18.086496 14.473917
-102.48421 18.082752 14.173132
-102.48805 18.095823 13.888887
-102.48948 18.107441 13.605375
-102.48044 18.112967 13.318985
-102.48517 18.126343 13.040654
-102.47133 18.128956 12.756027
-102.46323 18.134806 12.475795
-102.44463 18.13452 12.193121
-102.44823 18.146984 11.921185
-102.43317 18.148609 11.64355
-102.52635 17.976921 15.053709
-102.53769 17.994469 14.766956
-102.53063 18.001442 14.472933
-102.54257 18.040815 13.619258
-102.53365 18.046415 13.332543
-102.5223 18.050543 13.046777
-102.54106 18.071863 12.775879
-102.53313 18.077818 12.495154
-102.52285 18.082354 12.215296
-102.50203 18.080763 11.933103
-102.51176 18.096666 11.664568
-102.50281 18.101772 11.390359
-102.47506 18.095989 11.110996
-102.47816 18.107912 10.844374
-102.47079 18.113752 10.575459
-102.47793 18.127903 10.312708
-102.46626 18.131159 10.045069
-102.44407 18.128273 9.7756271
-102.45324 18.143475 9.5170336
-102.41837 18.133141 9.2467852
-102.4234 18.145861 8.9892292
-102.41798 18.152489 8.7297926
-102.41052 18.157892 8.4708881
-102.40104 18.162077 8.2125368
-102.398 18.169971 7.9567251
-102.37599 18.166803 7.6975808
-102.38597 18.182196 7.4463983
-102.37699 18.186531 7.1919246
-102.35751 18.184723 6.9363174
-102.35313 18.191671 6.6844611
-102.33826 18.19248 6.4315124
-102.33001 18.197117 6.1804752
-102.3027 18.190599 5.9272823
-102.32489 18.212965 5.6819892
-102.29375 18.204145 5.4298224
-102.29501 18.214256 5.1825228
-102.27723 18.213194 4.9334931
-102.29194 18.23115 4.6883278
-102.2704 18.227848 4.4399595
-102.2728 18.238564 4.1941304
-102.25612 18.238077 3.9471693
-102.24619 18.241537 3.7011001
-102.53175 17.862106 15.637377
-102.52661 17.903444 14.460831
-102.52888 17.926376 13.887675
-102.52948 17.948072 13.321405
-102.53432 17.961401 13.042992
-102.51239 17.959396 12.754807
-102.50587 17.986786 11.926414
-102.5156 18.002611 11.658045
-102.51489 18.012409 11.387061
-102.49541 18.011387 11.110758
-102.50686 18.028042 10.847029
-102.49955 18.033888 10.57803
-102.48172 18.033634 10.307013
-102.4784 18.041664 10.042183
-102.47258 18.067867 9.2560997
-102.52846 17.799753 14.743779
-102.51965 17.816391 14.161562
-102.51697 17.83618 13.590565
-102.52412 17.85079 13.311769
-102.51514 17.86659 12.74913
-102.51528 17.87702 12.47245
-102.52512 17.903137 11.927679
-102.51842 17.909502 11.65302
-102.49293 17.905083 11.373014
-102.52313 17.932369 11.114997
-102.49311 17.925243 10.836707
-102.4941 17.935766 10.570852
-102.48968 17.953003 10.040792
-102.46835 17.960371 9.5106134
-102.46713 17.969398 9.2501774
-102.26358 18.131254 1.7409308
-102.50656 17.715496 14.14504
-102.51086 17.749487 13.29621
-102.52378 17.767168 13.021918
-102.5181 17.774277 12.741167
-102.52642 17.789248 12.46804
-102.52428 17.798235 12.192143
-102.49513 17.791862 11.907294
-102.51312 17.812136 11.642562
-102.51241 17.82176 11.371989
-102.50119 17.825359 11.099076
-102.48772 17.827621 10.826993
-102.47202 17.828554 10.555763
-102.47918 17.84244 10.293595
-102.48425 17.855093 10.031826
-102.47883 17.861731 9.7679195
-102.48812 17.876715 9.5095749
-102.47009 17.876064 9.2443552
-102.47527 17.888624 8.9868803
-102.42867 17.881075 8.4601574
-102.43621 17.894867 8.2063284
-102.51135 17.603477 14.711452
-102.51208 17.614548 14.42242
-102.51032 17.624142 14.134227
-102.50607 17.632267 13.846901
-102.50745 17.643476 13.564189
-102.51929 17.670811 13.008188
-102.50538 17.67322 12.724208
-102.51364 17.688046 12.451406
-102.5032 17.69228 12.172527
-102.51515 17.709076 11.904222
-102.50011 17.71059 11.626912
-102.49934 17.720097 11.356668
-102.49635 17.728296 11.087066
-102.4995 17.73991 10.82102
-102.46708 17.731348 10.544252
-102.49095 17.754604 10.287786
-102.47925 17.757666 10.020814
-102.46539 17.759447 9.7545996
-102.45779 17.764738 9.491641
-102.47343 17.783176 9.2364874
-102.47014 17.790836 8.9768744
-102.47327 17.802109 8.7199926
-102.4659 17.807367 8.4613371
-102.44798 17.80658 8.2011871
-102.43652 17.809429 7.943747
-102.43282 17.835274 7.1836286
-102.50578 17.546324 13.545741
-102.50464 17.556017 13.264033
-102.50926 17.568869 12.986669
-102.4952 17.57119 12.703016
-102.49513 17.581284 12.42715
-102.50099 17.594641 12.155296
-102.49635 17.602053 11.880786
-102.4977 17.612772 11.610174
-102.48023 17.612854 11.334062
-102.48543 17.62562 11.067848
-102.4968 17.641819 10.805026
-102.4726 17.637945 10.531325
-102.48806 17.656355 10.272294
-102.45946 17.649876 10.000295
-102.48754 17.675337 9.7472849
-102.47991 17.680601 9.4843273
-102.45327 17.67507 9.2172318
-102.46681 17.692213 8.9626465
-102.4529 17.693792 8.701582
-102.45292 17.712595 8.1897736
-102.44138 17.715403 7.9325066
-102.44492 17.726721 7.6795893
-102.43793 17.73204 7.425158
-102.50269 17.437761 13.809473
-102.50384 17.448778 13.527243
-102.49075 17.462049 12.961555
-102.50108 17.477983 12.688719
-102.4927 17.483431 12.409629
-102.49021 17.492098 12.134715
-102.49369 17.504042 11.863756
-102.47836 17.505415 11.587113
-102.47734 17.514725 11.317532
-102.49909 17.536734 11.057511
-102.46866 17.52947 10.78032
-102.46939 17.539612 10.515545
-102.47638 17.553211 10.254038
-102.49809 17.575041 9.998209
-102.47563 17.572031 9.7296991
-102.46788 17.57723 9.4670801
-102.45802 17.581198 9.2051001
-102.44607 17.583941 8.9437799
-102.466 17.604607 8.6920023
-102.46696 17.614553 8.4359903
-102.45739 17.618523 8.178318
-102.44578 17.621305 7.9212246
-102.4407 17.627737 7.6666026
-102.43362 17.633013 7.4124298
-102.3112 17.7178 3.1905324
-102.49239 17.346949 13.507396
-102.48078 17.381197 12.391084
-102.47819 17.389767 12.116498
-102.48157 17.401602 11.845867
-102.48271 17.412138 11.575831
-102.48163 17.421385 11.306415
-102.46999 17.424696 11.03467
-102.48119 17.44068 10.772423
-102.46513 17.441416 10.502121
-102.48046 17.459618 10.243584
-102.47688 17.467224 9.9800091
-102.44585 17.45944 9.7093706
-102.46335 17.478737 9.4546623
-102.47037 17.492142 9.1977024
-102.45837 17.494862 8.9364681
-102.4613 17.505903 8.6803446
-102.4622 17.515779 8.4245863
-102.43549 17.510117 8.163085
-102.44943 17.527245 7.9122915
-102.44431 17.533634 7.6578412
-102.44576 17.543694 7.4056258
-102.4256 17.550741 6.8988824
-102.41511 17.572231 6.1480732
-102.32789 17.621954 3.4299335
-102.49152 17.271696 12.934548
-102.49318 17.292757 12.383435
-102.48228 17.296715 12.10563
-102.4939 17.313061 11.838381
-102.48672 17.318947 11.56529
-102.48558 17.328131 11.296038
-102.47388 17.331402 11.024461
-102.45993 17.333366 10.753718
-102.47732 17.352669 10.495048
-102.45057 17.347422 10.222995
-102.47216 17.368984 9.9678288
-102.44949 17.365892 9.6999979
-102.4585 17.380383 9.4429874
-102.45698 17.388975 9.183898
-102.4534 17.396378 8.9253006
-102.45628 17.407345 8.6694298
-102.45713 17.417152 8.4139252
-102.43888 17.416254 8.1547251
-102.42713 17.418943 7.8982315
-102.43907 17.434853 7.6479492
-102.43994 17.453718 7.1443295
-102.42022 17.451817 6.8897634
-102.43298 17.468098 6.6419873
-102.42658 17.473612 6.3913455
-102.41662 17.486156 5.8924875
-102.33444 17.538454 3.1806145
-102.71725 16.993593 21.447645
-102.70415 16.999403 21.085175
-102.68745 17.003115 20.724319
-102.68938 17.016693 20.381357
-102.47225 17.205826 11.818837
-102.48158 17.220785 11.55243
-102.48872 17.234495 11.286478
-102.4686 17.233118 11.012098
-102.45457 17.235041 10.741607
-102.47191 17.254236 10.483184
-102.4535 17.253632 10.214104
-102.46664 17.270424 9.9564676
-102.4608 17.27668 9.6939907
-102.46133 17.286415 9.434598
-102.44278 17.28554 9.1709146
-102.44764 17.297596 8.9149523
-102.44195 17.303761 8.6571245
-102.45982 17.322987 8.4062109
-102.44153 17.322077 8.1471834
-102.4383 17.32951 7.8928156
-102.4245 17.33102 7.6370087
-102.43446 17.345736 7.3871751
-102.43388 17.354553 7.1357718
-102.42272 17.357445 6.8830767
-102.43548 17.373657 6.6354704
-102.80325 16.943546 21.495163
-102.79127 16.975275 20.437733
-102.77853 16.993177 19.748755
-102.47243 17.100006 12.079249
-102.47562 17.111614 11.809274
-102.47659 17.121941 11.539896
-102.46696 17.126413 11.268089
-102.47182 17.138775 11.003031
-102.45773 17.14068 10.732708
-102.45823 17.150547 10.468847
-102.45657 17.159187 10.205538
-102.44434 17.161951 9.9401693
-102.4384 17.168137 9.6781139
-102.44732 17.18247 9.421607
-102.44569 17.190952 9.1630239
-102.45905 17.207664 8.909524
-102.46186 17.218531 8.6539917
-102.437 17.214064 8.3924522
-102.43574 17.222599 8.1379309
-102.42388 17.225243 7.881866
-102.42719 17.236248 7.6301394
-102.43714 17.250908 7.380475
-102.4193 17.25013 7.1258497
-102.44259 17.272156 6.8799419
-102.42944 17.273928 6.6277604
-102.42297 17.279385 6.3775501
-102.42156 17.296635 5.8808217
-102.26259 17.385378 0.97841042
-102.47513 17.005249 12.071909
-102.46255 17.018023 11.526619
-102.4612 17.027018 11.258195
-102.46601 17.039328 10.993386
-102.46865 17.050409 10.729082
-102.44388 17.04644 10.456903
-102.45059 17.05965 10.196647
-102.43829 17.062403 9.931531
-102.44926 17.077862 9.6748257
-102.4327 17.07818 9.4110107
-102.43953 17.091293 9.1551447
-102.46138 17.112631 8.9041948
-102.42145 17.099976 8.637784
-102.44783 17.123745 8.3895884
-102.42084 17.118111 8.129035
-102.43469 17.134935 7.8791733
-102.438 17.145926 7.627532
-102.42211 17.146297 7.3726068
-102.42146 17.155046 7.1217184
-102.41886 17.162691 6.871151
-102.42295 17.174011 6.6224494
-102.42512 17.184248 6.3739357
-102.43403 17.1982 6.1269822
-102.39766 17.187054 5.8737578
-102.39722 17.204739 5.3799758
-102.4072 17.219219 5.134882
-102.38918 17.218149 4.8869915
-102.39539 17.230516 4.6420937
-102.36732 17.2327 4.1496749
-102.36347 17.257177 3.4163358
-102.45418 16.926796 11.250561
-102.46159 16.950089 10.721949
-102.46205 16.959902 10.458423
-102.45191 16.963896 10.192732
-102.4396 16.966648 9.927783
-102.46755 16.991323 9.6763458
-102.451 16.99168 9.4125299
-102.45787 17.004782 9.1566648
-102.43709 17.002731 8.8942404
-102.43985 17.01351 8.6393032
-102.44058 17.023149 8.3847342
-102.4393 17.031652 8.1305542
-102.43601 17.039022 7.8767853
-102.4221 17.040539 7.6215787
-102.41481 17.045641 7.3687782
-102.4228 17.059111 7.1198449
-102.42885 17.071499 6.8710604
-102.41565 17.073278 6.6193957
-102.41782 17.083488 6.3711414
-102.41807 17.092621 6.1230955
-102.39034 17.086309 5.8714805
-102.41282 17.107656 5.627707
-102.39862 17.108761 5.3793106
-102.39993 17.118401 5.1333857
-102.37942 17.124866 4.640286
-102.3925 17.140987 4.3964777
-102.3688 17.13674 4.149878
-102.60842 16.717611 16.724607
-102.60374 16.737064 16.115032
-102.58801 16.750248 15.509697
-102.46254 16.853952 10.719225
-102.45457 16.859161 10.453065
-102.44904 16.875069 9.928194
-102.44308 16.881218 9.6666431
-102.45202 16.89542 9.4106445
-102.45039 16.903843 9.1525688
-102.44669 16.911098 8.894989
-102.42378 16.907869 8.633503
-102.42451 16.917459 8.3792744
-102.43182 16.930605 8.1274767
-102.41993 16.933252 7.8720078
-102.41463 16.939459 7.6190114
-102.41597 16.949263 7.3682513
-102.41534 16.957968 7.1177926
-102.41277 16.965578 6.8676548
-102.43424 16.986328 6.6224365
-102.42779 16.991777 6.3727427
-102.41939 16.996136 6.1234298
-102.40036 16.994638 5.873251
-102.40549 17.006372 5.6272063
-102.40002 17.012268 5.3801618
-102.38393 17.012306 5.1323967
-102.38336 17.020864 4.8869505
-102.38965 17.033175 4.6424885
-102.37659 17.03483 4.3965302
-102.38786 17.049871 4.1529121
-102.36982 17.057573 3.6633325
-102.67721 16.659912 16.764154
-102.65689 16.660109 16.447042
-102.64947 16.667036 16.140202
-102.63129 16.668156 15.830148
-102.6422 16.684641 15.538504
-102.6265 16.686886 15.235011
-102.6161 16.691856 14.936864
-102.6111 16.699623 14.643854
-102.61161 16.710249 14.355773
-102.59334 16.710773 14.060792
-102.58878 16.718531 13.77459
-102.5899 16.729263 13.493003
-102.44882 16.84384 8.1348724
-102.45425 16.855858 7.883316
-102.44908 16.862089 7.6301465
-102.4419 16.867203 7.3774285
-102.44139 16.87591 7.126883
-102.43024 16.878807 6.8750439
-102.41713 16.880596 6.6237173
-102.4281 16.895487 6.3772511
-102.40238 16.89035 6.1253963
-102.3921 16.893604 5.8768263
-102.3886 16.900536 5.6298599
-102.40936 16.920704 5.3864489
-102.40205 16.925535 5.1397748
-102.38412 16.924526 4.8924828
-102.39924 16.941589 4.6490316
-102.395 16.948048 4.4039049
-102.38013 16.948666 4.1583047
-102.38088 16.957834 3.9142349
-102.36224 16.95636 3.6692414
-102.35661 16.988203 2.6950357
-102.59876 16.687996 12.11713
-102.41941 16.802731 6.1354246
-102.33079 16.763412 5.8753934
-102.34478 16.779764 5.6315775
-102.63207 16.435968 17.052416
-102.35807 16.672165 6.1339874
-102.38483 16.588476 6.1425123
-102.63253 16.240089 17.04307
-102.64586 16.14389 17.035946
-102.43067 16.422611 5.8969207
-102.65462 16.044069 17.018581
-102.68761 15.957832 17.011833
-102.72761 15.87721 17.009899
-102.82845 15.024378 21.228758
-102.82901 15.036905 20.879923
-102.80345 15.03672 20.515991
-102.78173 15.038227 20.159286
-102.77924 15.048858 19.820303
-102.81529 14.612789 21.51568
-102.82245 14.517202 21.511257
-102.81993 14.417258 21.503485
-102.82587 14.320651 21.50045
-102.72021 14.444009 13.613369
-102.54665 14.42942 8.7724352
-102.4408 14.384967 5.7776957
-102.43119 14.397724 5.2918391
-102.50436 14.441142 5.0583167
-102.46782 14.432402 4.8126154
-102.48329 14.448392 4.5727077
-102.91444 13.075802 21.407259
-102.86431 13.067055 21.019739
-102.8559 13.075904 20.667837
-102.91856 12.804335 21.063
-102.91707 12.704254 21.04759
-102.74857 12.727034 15.813275
-102.72885 12.740368 15.216642
-102.72732 12.750401 14.926291
-102.71468 12.755665 14.632786
-102.70773 12.763239 14.344424
-102.6981 12.769602 14.057062
-102.63986 12.82572 11.840285
-102.81805 12.629591 16.748873
-102.8062 12.635776 16.439491
-102.7831 12.637165 16.126871
-102.76524 12.640624 15.820103
-102.80264 12.667061 15.544968
-102.7958 12.674949 15.248821
-102.79456 12.685086 14.957915
-102.78219 12.690479 14.663853
-102.7924 12.705252 14.382959
-102.77463 12.708206 14.090941
-102.77114 12.717076 13.807817
-102.73946 12.71401 13.51427
-102.73928 12.724116 13.236897
-102.73661 12.733102 12.960312
-102.71421 12.733697 12.677484
-102.74111 12.755028 12.416508
-102.71372 12.753375 12.135551
-102.70988 12.761602 11.865667
-102.71238 12.772454 11.599737
-102.71256 12.782269 11.334422
-102.69289 12.783609 11.063674
-102.68841 12.791336 10.799825
-102.67282 12.794291 10.533793
-102.63724 12.788682 10.263069
-102.59444 12.789335 9.7358227
-102.62302 12.810881 9.4888058
-102.63171 12.823926 9.2368517
-102.62044 12.828404 8.9804878
-102.60699 12.831909 8.724802
-102.60034 12.838283 8.4720097
-102.59158 12.84371 8.2197685
-102.59871 12.85591 7.972146
-102.59478 12.863342 7.722837
-102.57073 12.862102 7.4702673
-102.5717 12.871567 7.2238021
-102.52537 12.860664 6.9692478
-102.54944 12.880008 6.7286386
-102.51709 12.875043 6.4788165
-102.51904 12.884817 6.2355704
-102.50081 12.885867 5.989872
-102.51701 12.901752 5.7497525
-102.81407 12.566456 15.845811
-102.84341 12.589439 15.565957
-102.84514 12.600883 15.273748
-102.81895 12.600634 14.969923
-102.76445 12.629826 13.52547
-102.73956 12.649651 12.688192
-102.7666 12.670949 12.427057
-102.71668 12.717985 10.548913
-102.59425 12.694522 9.7368336
-102.70304 12.749965 9.5127087
-102.68519 12.75172 9.2527323
-102.63436 12.812358 6.9913626
-102.63142 12.820088 6.7450242
-102.56317 12.861903 4.7912836
-102.53136 12.874565 4.0672131
-102.53215 12.883677 3.8274167
-102.51267 12.884021 3.5867412
-102.50044 12.88748 3.3468721
-102.5138 12.902011 3.1081541
-102.48856 12.899816 2.8683729
-102.49809 12.912688 2.6295502
-102.48736 12.916771 2.3904634
-102.48389 12.924002 2.1514895
-102.45099 12.91844 1.9129528
-102.45287 12.927991 1.6740522
-102.4345 12.928732 1.4356579
-102.76434 12.534955 13.524539
-102.74814 12.558393 12.691033
-102.55981 12.791694 4.0713201
-102.81701 12.345729 16.742964
-102.73047 12.426498 13.507165
-102.68803 12.438993 12.66428
-102.56997 12.701192 4.0728049
-102.75943 12.293057 14.93439
-102.74698 12.298417 14.640958
-102.73933 12.315932 14.069321
-102.72726 12.321198 13.782981
-102.72111 12.328807 13.501474
-102.74676 12.349408 13.235672
-102.76145 12.365456 12.966558
-102.68724 12.344858 12.662604
-102.78368 12.394446 12.429821
-102.55159 12.59913 4.0727167
-102.70346 12.236453 13.215449
-102.69214 12.241819 12.93598
-102.70529 12.266989 12.397263
-102.68649 12.269093 12.120401
-102.68522 12.287993 11.585906
-102.68544 12.297713 11.321253
-102.65691 12.295554 11.04812
-102.66128 12.306864 10.787974
-102.70318 12.371075 9.5107231
-102.67638 12.369249 9.2486258
-102.54256 12.500681 4.0733924
-102.5619 12.517546 3.8349755
-102.81638 12.060903 16.733326
-102.8128 12.070485 16.428972
-102.7897 12.072127 16.116732
-102.78851 12.082466 15.819172
-102.77612 12.088207 15.518282
-102.77762 12.09945 15.227099
-102.76797 12.106108 14.932649
-102.77244 12.118381 14.647492
-102.74879 12.119216 14.35109
-102.73938 12.125711 14.063884
-102.74439 12.137968 13.78542
-102.72113 12.138693 13.49636
-102.73821 12.155702 13.227029
-102.73562 12.164666 12.950931
-102.70454 12.16198 12.665047
-102.71426 12.175816 12.397755
-102.71291 12.185083 12.127634
-102.70041 12.189747 11.854955
-102.68546 12.193346 11.583195
-102.68568 12.203073 11.318624
-102.67476 12.208193 11.051655
-102.67917 12.219526 10.791427
-102.64078 12.250707 9.4909258
-102.65866 12.267313 9.2417688
-102.65649 12.275639 8.9880228
-102.62518 12.271911 8.7279339
-102.6367 12.285802 8.4798765
-102.62811 12.291355 8.2278023
-102.65359 12.310952 7.9844112
-102.65442 12.338357 7.2413697
-102.64453 12.343222 6.9932747
-102.54276 12.406637 4.0732584
-102.88889 11.997011 16.771717
-102.87862 12.025723 15.864526
-102.86762 12.053303 14.979818
-102.83016 12.048765 14.673296
-102.84072 12.063402 14.39249
-102.83164 12.070078 14.104483
-102.80276 12.068705 13.809784
-102.74535 12.055736 13.505127
-102.81424 12.093587 13.257816
-102.79462 12.095699 12.973838
-102.703 12.06864 12.662724
-102.75624 12.100034 12.412777
-102.77248 12.116427 12.14907
-102.76016 12.121202 11.875896
-102.74539 12.124916 11.603641
-102.73698 12.131149 11.335452
-102.7262 12.13636 11.068067
-102.72192 12.14415 10.804465
-102.68409 12.175658 9.5022869
-102.6662 12.177595 9.242979
-102.67306 12.189607 8.9916019
-102.66879 12.19703 8.7382793
-102.66238 12.203536 8.4854841
-102.66287 12.21284 8.2353535
-102.67034 12.224974 7.9876509
-102.63946 12.221317 7.7324276
-102.64276 12.231675 7.4855881
-102.64402 12.241166 7.2390389
-102.64323 12.249792 6.9928007
-102.64043 12.257555 6.7468929
-102.62645 12.260684 6.4998217
-102.61044 12.262938 6.2532926
-102.61987 12.275682 6.0113482
-102.61815 12.283804 5.7682123
-102.61446 12.291086 5.525332
-102.60878 12.297528 5.2827253
-102.60113 12.303133 5.0404119
-102.58913 12.315659 4.5575604
-102.58479 12.322593 4.3168864
-102.54166 12.313362 4.0738201
-102.57029 12.333994 3.8361394
-102.90304 11.910483 16.779091
-102.85338 11.965821 14.684213
-102.74317 11.962751 13.504057
-102.70086 11.975684 12.661892
-102.7803 12.017447 12.422394
-102.70916 12.093447 9.5100641
-102.69135 12.095438 9.2505865
-102.66067 12.110392 8.4859819
-102.68835 12.130754 8.24228
-102.54974 12.224072 4.0765033
-102.55077 12.233175 3.8371439
-102.90733 11.819858 16.78525
-102.83277 11.865391 14.678062
-102.72243 11.862462 13.498845
-102.7857 11.927437 12.428536
-102.72427 12.007447 9.5187407
-102.70654 12.009509 9.2591743
-102.68513 12.028283 8.4965134
-102.5388 12.127643 4.0813184
-102.54912 12.140555 3.8426971
-102.91877 11.732463 16.796535
-102.845 11.778509 14.688789
-102.86432 11.796486 14.412016
-102.85547 11.803286 14.123925
-102.83535 11.805552 13.832994
-102.79005 11.837565 12.435158
-102.72044 11.914433 9.5228157
-102.71173 11.920161 9.265789
-102.68149 11.935424 8.5009212
-102.69125 11.948421 8.2529116
-102.6227 12.03601 5.0558372
-102.51764 12.0279 4.0859561
-102.55574 12.05215 3.8492949
-102.89661 11.634848 16.788872
-102.81421 11.677438 14.678652
-102.85906 11.705343 14.414279
-102.81302 11.707714 13.82768
-102.78513 11.74654 12.437971
-102.69811 11.816347 9.5214396
-102.69843 11.825665 9.2671261
-102.67734 11.844578 8.5049667
-102.68716 11.857553 8.2570448
-102.5145 11.937408 4.0915194
-102.54345 11.957822 3.8543873
-102.88934 11.546235 16.791662
-102.84146 11.60186 14.69839
-102.8323 11.628824 13.842827
-102.76157 11.650552 12.434981
-102.66589 11.716219 9.5186081
-102.64821 11.718311 9.2597046
-102.67239 11.755026 8.510108
-102.70046 11.775176 8.2665205
-102.62482 11.859063 5.0683961
-102.5295 11.855018 4.0994611
-102.54932 11.871605 3.8616793
-102.89629 11.464934 16.805643
-102.86659 11.527132 14.720018
-102.84368 11.528434 14.422943
-102.84362 11.538508 14.139034
-102.83233 11.544148 13.852115
-102.75346 11.562456 12.440774
-102.65025 11.633513 9.2689095
-102.68388 11.673689 8.5215311
-102.68486 11.682972 8.2714863
-102.61961 11.770166 5.0765691
-102.52463 11.766187 4.107944
-102.53532 11.778978 3.8696821
-102.87186 11.370845 16.798527
-102.79962 11.416284 14.693971
-102.86192 11.4504 14.437863
-102.87059 11.4638 14.157747
-102.84229 11.462852 13.862837
-102.74652 11.474537 12.444131
-102.67794 11.585557 8.5261173
-102.65171 11.584075 8.2697687
-102.61466 11.681898 5.0823374
-102.51067 11.674335 4.1133704
-102.53071 11.690795 3.8758612
-102.87545 11.285438 16.800619
-102.79485 11.328046 14.691953
-102.84864 11.358791 14.431897
-102.85728 11.372183 14.151943
-102.82892 11.371299 13.857192
-102.84178 11.396032 13.305249
-102.73293 11.383216 12.439297
-102.68216 11.501662 8.5282335
-102.66503 11.503828 8.2740145
-102.6099 11.594937 5.0834537
-102.50589 11.587683 4.1148305
-102.51669 11.600443 3.8768344
-102.81574 11.249971 14.700218
-102.84399 11.270918 14.427902
-102.85261 11.284324 14.148029
-102.83281 11.286813 13.857235
-102.811 11.298342 13.290443
-102.728 11.29578 12.435878
-102.65199 11.378174 9.2754107
-102.66781 11.411245 8.5238743
-102.65974 11.417012 8.2719564
-102.60445 11.508643 5.0825329
-102.51115 11.514493 3.8763545
-102.60361 11.5596 3.6427324
-102.64562 11.292785 9.27563
-102.66151 11.325847 8.5243511
-102.65346 11.331635 8.2725191
-102.59845 11.423472 5.0842156
-102.51453 11.4332 3.8790424
-102.58849 11.470832 3.6444497
-102.64494 11.222368 9.0277205
-102.65029 11.233343 8.7773724
-102.62622 11.232958 8.5207243
-102.59129 11.340742 5.0884233
-102.51694 11.354107 3.8842425
-102.60033 11.395229 3.6501565
-102.61762 11.186996 7.5328302
-102.6103 11.201449 7.0397129
-102.62656 11.216318 6.7978177
-102.64083 11.230406 6.5559239
-102.62542 11.233018 6.3097029
-102.5792 11.232196 5.8176765
-102.60394 11.250266 5.5792241
-102.59894 11.256809 5.3372121
-102.54558 11.244573 5.0904055
-102.6201 11.281941 4.8577929
-102.63704 11.296968 4.6188855
-102.50873 11.272278 3.8907003
-102.57365 11.305965 3.6557336
-102.84451 10.886052 16.505728
-102.57921 11.138138 6.3106394
-102.54601 11.167443 5.0985742
-102.52264 11.18347 4.3773751
-102.58401 11.232244 3.6644042
-102.95654 10.854216 16.578638
-102.88268 10.857958 15.642519
-102.85189 10.856707 15.333425
-102.89461 10.882612 15.063694
-102.79826 10.856845 14.728106
-102.86131 10.890165 14.47208
-102.82751 10.887428 14.17215
-102.80807 10.889944 13.881488
-102.77834 10.898134 13.311261
-102.78564 10.910395 13.038718
-102.78393 10.937996 12.221657
-102.75487 10.936398 11.941979
-102.73209 10.93708 11.666776
-102.73345 10.946762 11.402125
-102.71465 10.948812 11.13197
-102.70235 10.953244 10.865788
-102.64703 11.003182 8.8011665
-102.63303 11.023787 8.0482197
-102.62104 11.027804 7.7976112
-102.62528 11.037965 7.5513816
-102.62747 11.047317 7.3054371
-102.59998 11.045324 7.054657
-102.61646 11.060077 6.8128562
-102.59402 11.059945 6.5648894
-102.58798 11.066051 6.3205433
-102.59842 11.07844 6.079319
-102.58835 11.082958 5.8355875
-102.57626 11.086679 5.592279
-102.5807 11.096726 5.3516312
-102.54604 11.091734 5.1070065
-102.57439 11.110937 4.8697615
-102.55432 11.111512 4.6279016
-102.55087 11.118465 4.3880835
-102.57536 11.152709 3.6723425
-102.79066 10.831409 13.327684
-102.75584 10.945579 9.600605
-102.75626 10.963162 9.0916052
-102.74408 10.967229 8.8355284
-102.67499 10.94975 8.566762
-102.69866 11.001269 7.328743
-102.6806 11.002841 7.0789819
-102.67886 11.010586 6.8331499
-102.66585 11.014014 6.5861158
-102.65076 11.016626 6.3396177
-102.63362 11.018425 6.0936747
-102.63296 11.02648 5.8508782
-102.62102 11.030211 5.6071315
-102.62563 11.040242 5.3660507
-102.58179 11.031741 5.1199536
-102.59171 11.043765 4.8804913
-102.57175 11.044342 4.6384492
-102.58705 11.058408 4.3999858
-102.54667 11.067468 3.6796753
-102.75309 10.89056 9.1001091
-102.69938 10.887472 8.581934
-102.56172 10.951621 5.1263175
-102.51783 10.983518 3.6865549
-102.70448 10.801971 9.0960608
-102.71976 10.816153 8.8473587
-102.64192 10.848763 4.9119506
-102.45629 10.904871 1.0853742
-102.87146 8.7812424 14.316091
-102.82047 8.8309135 12.342296
-102.90877 8.869586 12.103629
-102.91435 8.880682 11.834839
-102.76743 8.8945789 9.9366541
-102.84485 8.7952385 12.357183
-102.74136 8.9034243 8.1482487
-102.73112 8.9341383 7.1464663
-102.73959 8.945487 6.8999586
-102.68986 8.9370556 6.6442828
-102.66602 8.9373703 6.3942347
-102.84237 8.7527103 12.361539
-102.85454 8.8388853 9.9708195
-102.68349 8.9609537 4.6895347
-102.63367 8.9522343 4.4427052
-102.8392 8.7129154 12.365826
-102.90983 8.7456522 12.120023
-102.84462 8.7877874 10.232992
-102.87003 8.8052063 9.9796848
-102.86577 8.8126717 9.7187243
-102.72749 8.8186684 8.1521435
-102.76738 8.9086905 5.9227962
-102.66244 8.9147463 4.6895318
-102.83257 8.684576 12.100614
-102.8651 8.7045565 11.841818
-102.80308 8.7379999 10.228629
-102.73232 8.7838917 8.1601419
-102.76357 8.8704185 5.9279408
-102.82722 8.7302752 9.727087
-102.77301 8.805171 5.9477839
-102.7715 8.8128014 5.7015114
-102.78725 8.7537718 6.7007332
-102.74859 8.7648821 5.9529767
-102.60287 8.7372618 3.2683501
-102.67695 8.7222395 3.5142951
-102.66475 8.7257538 3.271203
-102.62216 8.7188778 3.0275891
-102.6154 8.7242241 2.7855034
-102.59718 8.7256441 2.5434637
-102.58643 8.7296095 2.3017573
-102.58314 8.7361298 2.0601413
-102.58731 8.7452087 1.818372
-102.58003 8.7503624 1.5767223
-102.58021 8.7580776 1.3347819
-102.57838 8.765111 1.0927399
-102.55566 8.7649603 0.85165387
-102.59944 8.6781368 3.0270941
-102.63999 8.6996403 2.7859859
-102.61231 8.6978369 2.5435066
-102.60155 8.7018089 2.3015385
-102.60773 8.7115736 2.059577
-102.62135 8.7238998 1.8172878
-102.62351 8.7323046 1.574944
-102.63312 8.7432728 1.3321351
-102.65016 8.7568073 1.0886183
-102.63684 8.7599163 0.84622854
-102.63848 8.6609535 3.0297203
-102.64117 8.6695423 2.7873569
-102.6324 8.6742134 2.5448637
-102.61217 8.6749592 2.3025208
-102.61832 8.6847267 2.0602782
-102.60354 8.6873322 1.818218
-102.64351 8.708703 1.5748264
-102.62841 8.7265797 0.84656149
-102.65768 8.6550951 3.0257607
-102.59425 8.6410589 2.7815254
-102.60452 8.6521482 2.5392284
-102.59385 8.6560917 2.2967224
-102.59064 8.6625814 2.0543096
-102.60435 8.6748629 1.8115792
-102.59714 8.679986 1.5690442
-102.91476 8.3273067 12.255729
-102.92211 8.3381472 11.984134
-102.83699 8.31845 11.681281
-102.85452 8.3489962 10.880313
-102.76308 8.4063025 7.9972081
-102.71543 8.4365768 6.4809504
-102.84721 8.2756939 11.96203
-102.88796 8.297471 11.704329
-102.90604 8.3282671 10.901618
-102.84785 8.3334541 10.087894
-102.82664 8.3344784 9.8194342
-102.67995 8.4023666 5.9817209
-102.71671 8.4223175 5.7392325
-102.88155 8.2421551 12.251703
-102.85299 8.2411613 11.967124
-102.87817 8.2743359 11.163187
-102.86664 8.2787418 10.89137
-102.78996 8.2777395 10.073032
-102.78697 8.2847719 9.8101912
-102.75237 8.3898926 5.992126
-102.77982 8.4067059 5.7476258
-102.74875 8.4038467 5.495996
-102.87185 8.2019186 12.245035
-102.91101 8.2315159 11.712128
-102.85014 8.2280321 11.150485
-102.88392 8.2473602 10.893499
-102.73212 8.3459539 5.9841537
-102.75951 8.3627291 5.7397337
-102.74722 8.3661747 5.4904804
-102.89112 8.1692886 12.244317
-102.8445 8.1624413 11.952986
-102.85818 8.1753101 11.685474
-102.82401 8.1807013 11.133722
-102.87581 8.2059898 10.88275
-102.81412 8.2182016 9.8057985
-102.7691 8.3206139 5.9800262
-102.72118 8.312191 5.7253623
-102.76527 8.3345947 5.4832053
-102.88227 8.1268911 12.236344
-102.8715 8.1318617 11.95806
-102.84916 8.1329823 11.677512
-102.87825 8.159276 11.146841
-102.87564 8.166728 10.877711
-102.79538 8.1730595 9.7952633
-102.79601 8.2914991 5.9773445
-102.76686 8.289444 5.7247934
-102.77326 8.2992668 5.477562
-102.90802 8.0966568 12.245652
-102.87934 8.0958157 11.960527
-102.88404 8.1058369 11.689342
-102.87707 8.1203718 11.145802
-102.87444 8.1278534 10.876591
-102.80328 8.1373425 9.7964096
-102.78504 8.2499743 5.9733205
-102.76527 8.251092 5.7219949
-102.7528 8.2546272 5.4724073
-102.88894 8.0528622 12.237766
-102.84222 8.0461349 11.946215
-102.86483 8.0620108 11.681623
-102.83961 8.070569 11.132236
-102.85506 8.0839729 10.869123
-102.82952 8.1085196 9.8022308
-102.76467 8.205822 5.9674797
-102.76368 8.2132225 5.7186837
-102.76061 8.2199106 5.4701443
-102.85825 8.0151291 11.951267
-102.91697 8.0427923 11.699112
-102.86507 8.0342579 11.409498
-102.87125 8.0529976 10.873175
-102.77184 8.1717691 5.9653749
-102.76143 8.1760178 5.7151866
-102.75834 8.1826897 5.4665604
-102.86613 7.974195 12.231072
-102.85532 7.9791636 11.952545
-102.869 7.9920716 11.684445
-102.87752 8.0199194 10.877039
-102.85043 8.0998831 7.9959083
-102.73166 8.1227703 5.9594684
-102.76829 8.1426725 5.7156291
-102.74637 8.1430359 5.4645662
-102.86218 7.938015 12.235517
-102.88738 7.9546947 11.969924
-102.85614 7.9529219 11.685551
-102.85564 7.9777198 10.87522
-102.81206 7.9960971 9.8018064
-102.72871 8.0862694 5.9618564
-102.75596 8.1030083 5.7167139
-102.79061 8.1222134 5.4724402
-102.88534 7.9099188 12.248651
-102.84772 7.9061451 11.959947
-102.82742 7.9246254 11.138458
-102.91567 7.9617553 10.89839
-102.84138 8.0339041 7.7450213
-102.76311 8.0622854 5.9681711
-102.77158 8.0727806 5.7201591
-102.72142 8.0637321 5.4654384
-102.91038 7.8808236 12.258855
-102.86383 7.8742151 11.966573
-102.86831 7.9092875 10.883564
-102.84391 8.0062227 7.4902282
-102.76929 8.036005 5.7182727
-102.75682 8.0395584 5.4679952
-102.87347 7.8316412 12.243557
-102.83337 7.8526907 11.139069
-102.88525 7.8780236 10.887047
-102.83572 7.8868184 10.073074
-102.87861 7.9091053 9.8216486
-102.83073 7.9501367 7.9943962
-102.75872 7.9894366 5.9624462
-102.74828 7.9937596 5.7118292
-102.7263 7.9942241 5.4605131
-102.87166 7.7948489 12.241502
-102.85189 7.7971101 11.959156
-102.84755 7.8043213 11.684223
-102.83138 7.8161521 11.136696
-102.82867 7.8237433 10.867072
-102.86548 7.926549 7.9989858
-102.84428 7.9276218 7.738914
-102.84884 7.9371586 7.4850769
-102.70879 7.9384108 5.9519138
-102.73593 7.9552717 5.7065034
-102.75161 7.9683223 5.459703
-102.93095 7.7805419 12.266276
-102.90704 7.8159199 10.894375
-102.85269 7.8893151 7.9971137
-102.85944 7.8996301 7.7427521
-102.71465 7.9076037 5.9526567
-102.73238 7.9213653 5.7058587
-102.75748 7.9375715 5.4600983
-102.86562 7.7453847 11.700873
-102.84972 7.7573633 11.152518
-102.87441 7.7739115 10.891234
-102.80355 7.7843628 9.8067541
-102.83604 7.8604288 7.7435403
-102.84064 7.8699951 7.4895325
-102.71018 7.8745832 5.9566336
-102.71852 7.8852181 5.7085361
-102.75308 7.9045491 5.4639068
-102.87003 7.7338924 11.169062
-102.86044 7.8300934 8.0122929
-102.84404 7.8407907 7.4976964
-102.82785 7.8434606 7.2403374
-102.82819 7.8515539 6.9869261
-102.75166 7.8579121 5.9689512
-102.76011 7.868576 5.720336
-102.72876 7.8660173 5.4672852
-102.88352 7.6829233 11.999658
-102.85247 7.681479 11.714385
-102.90938 7.7170978 11.189732
-102.86193 7.8090458 7.7621408
-102.82934 7.806344 7.5003376
-102.74653 7.8266091 5.972888
-102.71733 7.8247843 5.7193179
-102.72369 7.8347335 5.4710464
-102.91577 7.6551452 12.2923
-102.84994 7.6682773 11.17417
-102.83845 7.6730347 10.900791
