# .PCD v0.7 - Point Cloud Data file format
VERSION 0.7
FIELDS x y z
SIZE 4 4 4
TYPE F F F
COUNT 1 1 1
WIDTH 838
HEIGHT 1
VIEWPOINT 0 0 0 1 0 0 0
POINTS 838
DATA ascii
-100.88634 43.198414 18.107212
-100.85583 41.140179 18.059601
-100.73217 39.630413 18.116783
-100.63013 38.200043 18.15383
-100.2847 30.723972 18.036154
-100.16762 29.610867 18.085545
-100.21834 29.24754 17.991879
-100.04842 27.218906 18.100107
-100.07367 26.837542 17.98193
-100.08819 26.450731 17.860126
-100.00121 25.906265 18.049417
-99.840393 26.78377 1.8090417
-100.02402 25.54427 17.938931
-100.00585 25.130449 17.80159
-99.953972 24.657764 18.017988
-99.870132 23.786121 18.092739
-99.886787 23.451246 18.00009
-99.895172 23.111626 17.899923
-99.905045 23.194118 16.831675
-99.787231 22.605518 18.07398
-99.890121 22.75902 17.789766
-99.704437 23.381205 4.3309255
-99.824615 22.312057 17.994469
-99.854019 22.371756 17.65852
-99.861137 22.425995 16.955345
-99.646912 22.64023 9.2559195
-99.822067 21.98316 17.886055
-99.840485 22.073067 16.841312
-99.819397 21.68663 17.431253
-99.742157 21.22261 17.979645
-99.770447 21.321918 16.951597
-99.760315 20.918882 17.886013
-99.791 20.977158 17.558403
-99.790497 20.997974 17.210348
-99.770241 20.994949 16.851126
-99.699806 20.246113 16.931927
-99.702446 19.866964 17.852638
-99.716446 19.904135 17.518385
-99.734268 19.94561 17.188866
-99.702347 19.929361 16.826971
-99.727859 19.979475 16.507021
-99.724831 20.016693 15.836783
-99.701279 20.029522 15.162659
-99.705841 20.074514 14.514174
-99.69902 20.086245 14.18748
-99.690193 20.09551 13.86166
-99.651596 20.165533 11.952652
-99.654053 20.187281 11.644204
-99.635963 20.184837 11.328068
-99.653519 20.224152 11.02865
-99.644272 20.231922 10.719058
-99.599335 20.361717 7.7040544
-99.596161 20.375952 7.4078794
-99.62764 19.446972 18.031893
-99.623985 19.928041 10.044406
-99.611839 19.968418 9.1426764
-99.529228 20.173052 4.161561
-99.512856 20.206249 3.2954364
-99.687881 19.226582 17.625643
-99.59079 19.593985 9.6769457
-99.577553 19.668013 8.1977701
-99.642258 18.850121 17.830133
-99.651093 18.880449 17.497129
-99.645683 18.89473 17.156321
-99.638031 18.90634 16.816566
-99.658524 18.949301 16.49839
-99.658714 18.969412 16.168489
-99.656776 18.987005 15.839427
-99.652718 19.002089 15.511235
-99.65271 19.021589 15.187723
-99.644478 19.031717 14.861287
-99.64035 19.046337 14.539433
-99.627975 19.051554 14.21488
-99.644691 19.089415 13.908612
-99.633377 19.133139 12.965718
-99.618225 19.15317 12.341902
-99.56115 19.33967 8.1504116
-99.554466 19.349535 7.8581538
-99.539597 19.349976 7.5646248
-99.542488 19.370701 7.2765007
-99.523758 19.383953 6.6963429
-99.521645 19.398829 6.4088931
-99.504845 19.396811 6.1191196
-99.518974 19.430281 5.8357344
-99.511902 19.439377 5.5488167
-99.461769 19.5187 3.2682252
-99.459625 19.533323 2.9843855
-99.429726 19.515802 2.6996303
-99.404747 19.503948 2.4156435
-99.57132 18.455244 18.020021
-99.63002 18.540249 17.724142
-99.644554 18.576447 17.397352
-99.632668 18.583328 17.054096
-99.618477 18.587503 16.712063
-99.638702 18.629599 16.395868
-99.656914 18.669361 16.080011
-99.623863 18.652193 15.733021
-99.644081 18.693943 15.422424
-99.631363 18.699038 15.093211
-99.622726 18.708523 14.768797
-99.636948 18.743292 14.459813
-99.611725 18.734076 14.129984
-99.609444 18.750267 13.815322
-99.605255 18.782749 13.191528
-99.599632 18.813219 12.573709
-99.606651 18.839306 12.271895
-99.586372 18.834763 11.958638
-99.555412 18.942326 9.5644436
-99.557213 18.961845 9.2724304
-99.557289 18.979364 8.9807138
-99.601509 18.200361 17.952015
-99.65432 18.277899 17.652981
-99.620064 18.260303 17.292841
-99.607742 18.266472 16.951551
-99.623772 18.303486 16.632378
-99.637733 18.338125 16.313675
-99.618759 18.33658 15.975382
-99.628502 18.36635 15.658113
-99.617561 18.373316 15.329833
-99.616936 18.39147 15.010186
-99.608002 18.400368 14.687629
-99.615784 18.427536 14.376898
-99.609032 18.438595 14.05962
-99.600243 18.4473 13.743218
-99.595764 18.460638 13.431096
-99.593613 18.494518 12.815607
-99.576904 18.49404 12.502599
-99.577385 18.512461 12.199735
-99.559914 18.528625 11.589946
-99.567642 18.554821 11.294569
-99.567139 18.571815 10.996784
-99.547745 18.585173 10.397637
-99.548271 18.6031 10.104025
-99.553528 18.626223 9.81318
-99.544037 18.632872 9.5180197
-99.539307 18.661848 8.9359169
-99.527634 18.682863 8.3554554
-99.515938 18.686735 8.064971
-99.51564 18.703293 7.7785978
-99.445915 18.841547 4.0949292
-99.415817 18.82408 3.8123808
-99.351807 18.866972 1.8548545
-99.61615 17.91151 18.21612
-99.559334 18.236101 11.53906
-99.547623 18.240538 11.23698
-99.540527 18.249939 10.938415
-99.538086 18.264372 10.643136
-99.520821 18.262444 10.343299
-99.514748 18.272734 10.049256
-99.519958 18.295361 9.7605267
-99.51033 18.301609 9.4674826
-99.512047 18.320276 9.1794615
-99.505463 18.329748 8.8896284
-99.494789 18.384359 7.7443991
-99.489166 18.411079 7.1763682
-99.4702 18.422853 6.6080894
-99.590752 17.582468 18.450745
-101.27563 50.488869 14.413508
-101.18039 49.187897 17.139069
-101.01404 46.382309 17.146114
-101.09173 46.617733 15.977177
-101.0747 46.617092 15.561841
-101.07876 46.655117 15.161709
-101.03523 46.605293 14.734735
-101.03218 46.100086 17.067148
-100.83949 46.365982 4.594831
-100.82771 45.967922 5.3173656
-100.81255 45.96804 4.9434509
-100.84818 46.061867 4.5751824
-100.90535 45.167557 13.580544
-100.9109 45.206505 13.19877
-100.84491 45.707077 4.9310217
-100.82816 45.704243 4.5590134
-100.87997 44.809666 13.506419
-100.82662 45.380829 4.5492358
-100.83298 42.605892 16.917431
-100.80772 41.917576 17.10656
-100.61575 42.650753 2.0246129
-100.62145 38.325951 17.10491
-100.59968 38.598133 12.534149
-100.58873 38.603756 12.188952
-100.5761 38.60664 11.844537
-100.57745 38.631397 11.508029
-100.56673 38.637112 11.167292
-100.39414 38.643356 2.6314185
-100.39486 38.666004 2.3095875
-100.37283 38.65239 1.9879947
-100.48837 37.814621 13.034382
-100.49004 37.53981 12.985727
-100.49101 37.2645 12.938098
-100.49252 36.989025 12.88778
-100.42118 37.150692 8.6381445
-100.14313 29.752415 16.978796
-100.18716 29.576084 16.618923
-99.945068 26.58577 12.761193
-99.959068 26.632477 12.218202
-99.932137 26.617418 11.931388
-99.915993 26.614424 11.652031
-99.92337 26.637922 11.385694
-99.891144 26.616558 11.102067
-99.832718 26.700733 4.1519151
-99.861473 25.548359 12.780381
-99.925179 25.147421 17.040703
-99.701965 22.62253 8.3835011
-99.705597 22.650616 7.9122353
-99.656204 22.614336 7.6630545
-99.601128 21.652037 8.467598
-99.597588 21.660545 8.2344675
-99.557404 18.119917 18.583242
-99.627869 18.189859 18.348658
-99.631348 18.206242 18.058517
-99.638916 18.225752 17.774801
-99.624321 18.227396 17.475885
-99.593903 18.216206 17.167749
-99.654015 18.27742 16.934267
-99.625397 18.267384 16.633636
-99.621078 18.276703 16.354864
-99.614456 18.284037 16.077135
-99.578377 18.267553 15.780834
-99.580681 18.281807 15.515259
-99.560303 18.277668 15.236239
-99.530724 18.265985 14.953862
-99.547157 18.291288 14.705224
-99.547783 18.303747 14.447988
-99.511551 18.28631 14.1693
-99.500992 18.289503 13.909697
-99.50943 18.30797 13.663974
-99.494843 18.307701 13.406172
-99.492363 18.317144 13.157697
-99.466301 18.329834 12.413086
-99.528526 18.325361 9.631197
-99.504784 18.316252 9.3980675
-99.509171 18.329954 9.1768875
-99.511986 18.342339 8.9560289
-99.490761 18.335096 8.7277832
-99.505417 18.357044 8.5128613
-99.465942 18.334801 8.2811317
-99.462448 18.341856 8.0622568
-99.434776 18.329117 7.8370876
-99.435738 18.339722 7.6214724
-99.427628 18.342873 7.4040732
-99.410416 18.338533 7.1851645
-99.414452 18.351557 6.9726043
-99.409431 18.357124 6.758399
-99.387688 18.348953 6.5410986
-99.379692 18.352011 6.3277903
-99.359306 18.354424 5.9023566
-99.354568 18.360075 5.6916451
-99.552368 17.750095 18.777401
-99.337654 18.325903 1.9525771
-101.39992 55.574718 12.783636
-100.8168 41.360779 17.969223
-100.83211 40.805664 17.825966
-100.71944 39.492207 17.950285
-100.60659 37.728661 17.951283
-100.22375 35.263912 1.1654418
-100.44231 33.513569 17.758011
-100.22809 30.861498 17.914179
-100.2893 30.964245 17.525368
-100.23211 30.407417 17.793215
-100.26334 30.47258 17.390497
-100.26233 30.498236 16.971474
-100.21276 29.933527 17.662352
-100.21357 29.961351 17.245981
-100.23603 30.015188 16.843441
-100.18197 29.454615 17.528048
-100.20644 29.510422 17.128145
-100.21642 29.548838 16.721895
-100.12489 28.925776 17.798456
-100.16355 28.997757 17.408295
-100.16943 29.031033 17.001257
-100.15704 28.562414 17.304935
-100.15958 28.617275 16.493538
-100.10168 28.355274 12.837596
-99.997589 28.707945 5.3122587
-99.982193 28.736374 4.5743198
-100.07201 27.610525 17.464859
-100.07934 27.644102 17.065706
-100.06554 27.653517 16.657188
-100.02003 27.119734 17.733919
-100.06055 27.190208 17.354601
-100.06754 27.22294 16.957981
-100.0345 27.210516 16.541986
-100.06161 27.265615 16.16025
-100.06123 27.289671 15.765888
-100.04581 27.296638 15.36611
-100.05953 27.336361 14.982514
-100.03925 27.337582 14.584629
-100.04193 27.364616 14.199321
-100.04228 27.388922 13.814587
-100.02757 27.396061 13.42511
-100.02966 27.422132 13.044381
-100.02948 27.445538 12.664158
-100.02062 27.459007 12.282048
-100.00948 27.469788 11.900678
-99.989632 27.470577 11.517824
-99.999741 27.505318 11.146779
-99.994759 27.522839 10.771724
-99.981102 27.530405 10.395195
-99.98465 27.557497 10.025126
-99.986038 27.582073 9.6553001
-99.97879 27.596731 9.2840071
-99.956383 27.594013 8.9098806
-99.957802 27.618448 8.5428724
-99.937576 27.618074 8.1716089
-99.941254 27.644993 7.8066616
-99.929779 27.65453 7.4391708
-99.955338 27.706461 7.0794625
-99.941467 27.735756 6.3489466
-99.919212 27.755274 5.6195269
-99.921295 27.780184 5.2572703
-99.92131 27.802696 4.894938
-99.893082 27.792658 4.5300984
-99.902031 27.825438 4.1691012
-99.889282 27.833191 3.8064406
-100.0136 26.707785 17.622215
-100.01008 26.728516 17.220818
-99.997734 26.739302 16.816963
-100.07738 26.852217 16.464355
-100.07915 26.878475 16.0714
-100.0658 26.887783 15.672838
-100.05631 26.901253 15.278473
-100.05074 26.918961 14.888093
-100.02364 26.912495 14.489784
-100.00683 26.917397 14.09854
-100.02607 26.962461 13.724926
-100.01739 26.976219 13.340728
-99.999931 26.980051 12.954754
-99.98658 26.988356 12.572302
-99.99675 27.022926 12.200416
-99.965889 27.011391 11.814748
-99.971573 27.040768 11.443874
-99.962074 27.05302 11.068966
-99.969841 27.084608 10.700972
-99.968933 27.106377 10.331169
-99.965851 27.125624 9.9617558
-99.94754 27.127645 9.5891123
-99.946625 27.14921 9.222477
-99.930489 27.153534 8.8528423
-99.938362 27.184917 8.4901552
-99.924477 27.191658 8.1230478
-99.915001 27.203333 7.7579007
-99.923096 27.234844 7.3971009
-99.896255 27.226757 7.0301266
-99.906723 27.260891 6.6707888
-99.895378 27.270275 6.3081217
-99.895103 27.292179 5.9477415
-99.892738 27.311697 5.5874062
-99.888306 27.328833 5.2271433
-99.868622 27.328598 4.8655787
-99.89296 27.37846 4.5087867
-99.882301 27.38847 4.1486459
-99.862991 27.388588 3.7882485
-99.887711 27.438936 3.4307036
-100.00699 26.295811 17.507885
-100.01559 26.329613 17.115932
-100.00275 26.339735 16.714365
-99.919792 26.886744 6.2760487
-99.91288 26.90097 5.9167862
-99.90387 26.912821 5.557745
-99.899406 26.929747 5.199738
-99.879616 26.929405 4.840435
-99.871002 26.941608 4.4828343
-99.880203 26.973867 4.1269655
-99.860817 26.973909 3.7690074
-99.865891 27.001509 3.4128385
-99.849007 27.004335 3.0555952
-99.842186 27.0404 2.3423817
-99.980644 25.876665 17.380653
-99.982468 25.902605 16.987801
-99.921341 25.404472 17.628645
-99.907219 25.436529 16.837517
-99.926758 25.027704 17.523157
-99.868431 25.089577 8.9236259
-99.844139 24.211399 16.891315
-99.727341 24.620239 7.7936373
-99.730591 24.644014 7.4472928
-99.711296 24.643951 7.0971651
-99.844025 23.818403 17.173252
-99.826553 23.822737 16.781233
-99.845734 23.864439 16.411457
-99.842819 23.883406 16.031836
-99.863747 23.926693 15.666406
-99.849312 23.933613 15.285041
-99.825752 23.931025 14.901647
-99.819572 23.946152 14.528813
-99.82428 23.972363 14.162836
-99.819969 23.989206 13.794518
-99.826668 24.017279 13.432622
-99.810982 24.022194 13.062962
-99.819763 24.05224 12.704938
-99.785957 24.038244 12.331824
-99.796898 24.070353 11.977546
-99.785385 24.079182 11.616302
-99.798637 24.113544 11.26513
-99.789398 24.124571 10.907391
-99.791489 24.147253 10.554633
-99.777817 24.153524 10.198112
-99.768723 24.164471 9.8443098
-99.764244 24.180145 9.493
-99.771248 24.207684 9.1457644
-99.741982 24.19747 8.7900496
-99.751534 24.22756 8.4451885
-99.752136 24.248306 8.0987978
-99.743782 24.259674 7.7511654
-99.719604 24.254482 7.401197
-99.727585 24.282795 7.0584874
-99.706032 24.280237 6.7109122
-99.701988 24.355518 5.3405519
-99.827301 23.429979 17.05735
-99.802635 23.426989 16.664043
-99.847771 23.494453 16.310562
-99.844406 23.512754 15.932981
-99.838539 23.528397 15.556307
-99.82354 23.534653 15.177332
-99.79937 23.531469 14.796341
-99.806053 23.559479 14.432055
-99.823769 23.598608 14.074295
-99.792252 23.587582 13.69643
-99.805305 23.62179 13.339771
-99.782417 23.619297 12.96972
-99.770622 23.628004 12.606154
-99.776787 23.654936 12.251176
-99.746834 23.644907 11.884158
-99.77562 23.694786 11.540035
-99.768265 23.70768 11.184103
-99.751862 23.711226 10.826592
-99.767311 23.747313 10.480678
-99.760124 23.760151 10.128608
-99.75074 23.770666 9.777112
-99.732307 23.771832 9.4243269
-99.739128 23.798847 9.079567
-99.716339 23.795399 8.7280722
-99.725761 23.824993 8.3856087
-99.719315 23.838228 8.0400753
-99.717636 23.856323 7.6964045
-99.648193 23.981031 4.2834597
-99.658279 24.011044 3.9458132
-99.659393 24.031742 3.6074214
-99.7939 22.999271 17.313358
-99.790855 23.018169 16.932302
-99.811676 23.060772 16.566475
-99.836716 23.107498 16.204485
-99.812859 23.105219 15.818916
-99.806381 23.120192 15.444707
-99.790733 23.125849 15.06821
-99.806084 23.162453 14.708627
-99.785522 23.16293 14.334045
-99.789406 23.187828 13.97263
-99.790947 23.210279 13.611797
-99.776619 23.216682 13.245939
-99.746361 23.206928 12.87559
-99.761223 23.242495 12.52516
-99.746635 23.248316 12.16466
-99.757004 23.279211 11.815007
-99.744667 23.287125 11.458419
-99.723213 23.285732 11.100317
-99.726891 23.309652 10.752136
-99.735245 23.338245 10.406452
-99.686859 23.487482 6.9631252
-99.692566 23.512907 6.6250362
-99.668388 23.507803 6.2824869
-99.676895 23.536032 5.9457812
-99.669418 23.547916 5.6070671
-99.659874 23.557652 5.2685971
-99.64827 23.565245 4.9303975
-99.613686 23.549278 4.590457
-99.621994 23.596643 3.9191949
-99.616104 23.61002 3.5829108
-99.768974 22.599216 17.196466
-99.858795 22.731451 16.493473
-99.831123 22.811285 14.633578
-99.823563 22.824881 14.266883
-99.813583 22.835958 13.901077
-99.780815 22.824299 13.527488
-99.800003 22.864128 13.177901
-99.776039 22.860973 12.812057
-99.761993 22.888056 12.099364
-99.66275 22.969736 8.9524441
-99.68782 23.014662 8.6180382
-99.67601 23.022545 8.2751522
-99.675995 23.042223 7.9359055
-99.65992 23.045713 7.5939794
-99.662666 23.068085 7.2567725
-99.656342 23.081287 6.9183965
-99.647926 23.092342 6.5803361
-99.658409 23.122425 6.2459502
-99.631828 23.115089 5.9062905
-99.638184 23.140955 5.5720596
-99.621452 23.143486 5.2351761
-99.623688 23.165157 4.9010305
-99.63089 23.191841 4.5675125
-99.747551 22.186428 17.463078
-99.741615 22.224262 16.709269
-99.806732 22.45763 13.819957
-99.720757 22.65591 8.9189854
-99.688232 22.81888 5.5506396
-99.685471 22.835491 5.2168493
-99.666534 22.835928 4.8816352
-99.666702 22.855421 4.5489206
-99.711487 22.280373 8.8732882
-99.722565 22.310709 8.5387983
-99.728333 21.677738 13.298717
-99.753899 21.722343 12.958381
-99.756424 21.744808 12.609842
-99.622452 22.077412 4.515563
-99.62072 22.094534 4.187264
-99.746742 21.355656 12.902947
-99.644135 21.432795 9.7928696
-99.672997 21.53623 8.4643469
-99.621658 21.655361 5.4899287
-99.607727 21.697575 4.5086989
-99.598976 21.707644 4.1818981
-99.631157 20.832422 13.851871
-99.675102 20.893064 13.5217
-99.610558 21.042982 9.7529716
-99.663818 21.111866 9.4347334
-99.657906 21.124987 9.1004543
-99.642677 21.129255 8.7648535
-99.639603 21.144928 8.4333763
-99.617653 21.28965 5.4829369
-99.589752 21.317799 4.5060787
-99.566704 21.314028 4.1801748
-99.63279 20.343472 16.285452
-99.631119 20.361961 15.923905
-99.620171 20.391602 15.203523
-99.610924 20.402773 14.844754
-99.613106 20.424334 14.493464
-99.605888 20.437145 14.139709
-99.59819 20.468653 13.440898
-99.590759 20.480959 13.092663
-99.595062 20.503994 12.750903
-99.589996 20.518303 12.406918
-99.560928 20.566498 11.043229
-99.570625 20.66785 9.3823977
-99.564613 20.680555 9.0510254
-99.570839 20.704601 8.7237606
-99.539452 20.927071 4.1801996
-99.605354 20.02887 15.13748
-99.609848 20.052269 14.787251
-99.597916 20.060642 14.4312
-99.580666 20.083061 13.728382
-99.530441 20.222387 10.331072
-99.523697 20.234316 9.9985399
-99.529167 20.257393 9.6707277
-99.532478 20.278446 9.3431826
-99.519203 20.284187 9.0121336
-99.503746 20.287859 8.6817465
-99.507851 20.309484 8.3572302
-99.517105 20.335815 8.0345564
-99.495224 20.333399 7.7057157
-99.485741 20.342358 7.3805828
-99.503242 20.376202 7.0614305
-99.475006 20.367756 6.7342863
-99.488373 20.397728 6.4152484
-99.472473 20.418161 5.7715182
-99.457771 20.42207 5.4496427
-99.455612 20.437576 5.1299224
-99.52063 19.807116 11.279587
-99.527618 19.831446 10.949833
-99.510773 19.83415 10.613433
-99.486191 19.918222 8.6451073
-99.463516 20.019524 6.391263
-99.460297 20.033867 6.0718899
-99.447662 20.039581 5.751687
-99.430893 20.058676 5.1142521
-99.441475 20.085569 4.7982769
-99.420708 19.661161 5.7298975
-99.461525 19.155785 9.2159367
-99.574303 18.445108 17.687963
-99.584068 18.472963 17.331274
-99.563255 18.474478 16.959732
-99.567703 18.497511 16.6049
-99.583626 18.530287 16.258368
-99.568832 18.536552 15.897727
-99.572617 18.558668 15.549032
-99.545494 18.55406 15.18711
-99.503868 18.591965 13.795387
-99.507027 18.61289 13.458466
-99.405327 18.855837 7.2620392
-99.509789 18.544098 8.1945257
-99.481201 18.55345 7.5572834
-99.463707 18.555267 7.239562
-99.451561 18.561672 6.9238601
-99.467293 18.592186 6.6138425
-99.443474 18.588388 6.2975793
-99.402542 18.569685 5.9797726
-99.412064 18.594727 5.6703248
-99.389488 18.59186 5.3569574
-99.387383 18.606762 5.0467982
-99.375725 18.613319 4.7359729
-99.362007 18.618065 4.4254589
-99.346252 18.621004 4.1152802
-99.343513 18.635265 3.8064964
-99.327293 18.687675 2.5722818
-101.34896 51.433952 18.730478
-101.36108 51.236214 18.687624
-101.17461 48.136005 18.691576
-101.11208 46.828484 18.753193
-100.95266 44.099304 18.743244
-100.64521 43.674507 2.4752848
-100.84579 42.815598 18.791075
-100.60688 43.434978 2.4826217
-100.87498 42.67804 18.769384
-100.63072 43.286243 2.4883385
-100.88852 42.518261 18.734261
-100.62518 43.096695 2.492389
-100.917 42.381676 18.710371
-100.61849 42.907661 2.495986
-100.77982 41.189148 18.794294
-100.82434 41.075481 18.778275
-100.82553 40.903328 18.728548
-100.77876 39.672787 18.718012
-100.66061 38.727718 18.797146
-100.57377 37.611603 18.811163
-100.60193 37.484066 18.786066
-100.62251 37.351093 18.756552
-100.48782 36.957882 14.414834
-100.53139 37.02948 14.106808
-100.49154 36.830364 14.381816
-100.48183 36.738346 13.937404
-100.37861 34.705368 16.176771
-100.37506 31.799664 18.512022
-100.2374 29.735203 18.558252
-100.2541 29.620985 18.532169
-100.12243 27.565096 18.608383
-100.1319 27.333536 18.540916
-100.00169 26.728081 18.627981
-100.02335 26.630249 18.61026
-100.05636 26.544205 18.604057
-100.04792 26.425968 18.566235
-100.04598 26.357317 18.518707
-100.02153 26.294893 18.445904
-100.09251 26.372065 18.176596
-100.02766 26.185783 18.419792
-100.03366 26.077625 18.392426
-100.03427 25.962885 18.359251
-100.04181 25.852028 18.332415
-99.808884 26.412804 1.5343974
-100.04953 25.740082 18.305994
-100.05357 25.629984 18.282093
-99.932617 25.405405 18.495119
-100.03831 25.510275 18.254211
-99.941772 25.308315 18.489056
-99.933159 25.194626 18.464931
-99.782692 25.836159 1.3146608
-99.953728 25.102888 18.45776
-99.825966 25.391203 9.5687923
-99.766823 25.710648 1.320007
-99.961525 24.999809 18.439724
-99.824677 25.279554 9.5582523
-99.762154 25.583834 1.5704527
-99.765816 25.598118 1.3237326
-99.968681 24.897306 18.421608
-99.852585 25.193193 9.5575762
-99.7612 25.470987 1.5736169
-99.963409 24.784428 18.391518
-99.88102 25.107021 9.5548954
-99.752739 25.351503 1.5750377
-99.756546 25.365751 1.3292761
-99.966492 24.677185 18.3638
-99.75148 25.238688 1.5735996
-99.970299 24.568871 18.335987
-99.994408 24.476055 18.323719
-99.877304 24.030148 18.461571
-99.892426 23.931246 18.44663
-99.899414 23.826998 18.427977
-99.90641 23.723577 18.408529
-99.688896 24.322636 0.6103282
-99.908409 23.614223 18.381912
-99.687469 24.166489 1.5762573
-99.691742 24.180563 1.3354598
-99.679024 24.180529 1.0952902
-99.910507 23.504705 18.355
-99.76712 23.898817 6.6385612
-99.759483 23.903244 6.393189
-99.696815 23.967871 3.7321525
-99.6894 24.0665 1.3356811
-99.684387 24.072863 1.0954974
-99.670052 24.071522 0.85577154
-99.67717 24.087946 0.6142841
-99.9179 23.400723 18.334993
-99.686378 23.847681 3.7293289
-99.922455 23.297012 18.317913
-99.659447 23.715273 3.72838
-99.905525 23.178038 18.286209
-99.903191 23.070501 18.262621
-99.674294 23.508219 3.7301378
-99.664879 23.531162 3.0169094
-99.66465 23.592112 1.5904949
-99.661537 23.599802 1.3523248
-99.656807 23.606182 1.1140553
-99.908745 22.969048 18.24148
-99.823486 22.784576 18.46619
-99.91394 22.867659 18.220541
-99.687538 23.302994 3.7249162
-99.842415 22.692678 18.456297
-99.888855 22.780863 17.256187
-99.641624 23.188974 3.0116599
-99.82711 22.574602 18.420546
-99.664192 23.080294 3.4835782
-99.825081 22.467863 18.39435
-99.842644 22.378069 18.383324
-99.716393 22.655954 9.4961681
-99.844086 22.278 18.364698
-99.735634 22.536301 10.24669
-99.700851 22.54129 9.4826202
-99.604187 22.808605 1.3653094
-99.851326 22.182686 18.3526
-99.738205 22.467793 9.4885015
-99.599091 22.691044 1.604906
-99.5998 22.71138 1.1353406
-99.852516 22.081951 18.334688
-99.71138 22.313166 10.221516
-99.606812 22.593672 1.6083584
-99.611977 22.60755 1.3737531
-99.59977 22.607874 1.1397613
-99.854103 21.982227 18.314651
-99.587166 22.486391 1.3767874
-99.574997 22.486746 1.1434054
-99.849129 21.878725 18.287525
-99.58815 22.37636 1.6101574
-99.585503 22.384096 1.3767811
-99.589134 22.396704 1.1428587
-99.84153 21.775303 18.263615
-99.578514 22.267923 1.6132455
-99.575935 22.275654 1.3803046
-99.579643 22.288246 1.1468178
-99.838348 21.676708 18.247898
-99.592636 22.177429 1.6185462
-99.574287 22.172987 1.3864883
-99.570183 22.179478 1.1537929
-99.8367 21.578917 18.229145
-99.582169 22.069481 1.6216515
-99.571793 22.071133 1.3896734
-99.575684 22.083693 1.1568844
-99.832947 21.476831 18.198318
-99.744537 21.57943 14.081498
-99.579597 21.967655 1.6176078
-99.569206 21.969309 1.3859799
-99.557205 21.969736 1.1544238
-99.568939 21.85951 1.6148659
-99.558533 21.861177 1.3836753
-99.562447 21.873695 1.1516683
-99.558434 21.750938 1.6173177
-99.564026 21.764662 1.385849
-99.552048 21.765135 1.1549911
-99.563858 21.654558 1.6201236
-99.77282 21.031916 18.379835
-99.802032 21.102192 17.184181
-99.787483 20.944529 18.366558
-99.789986 20.846659 18.341331
-99.538132 21.336006 1.6157095
-99.524025 21.344105 1.156786
-99.771492 20.734568 18.299589
-99.532516 21.241045 1.3822538
-99.779755 20.642946 18.279238
-99.62442 20.706465 13.871857
-99.531006 21.13114 1.6078798
-99.528778 21.138708 1.3789428
-99.779778 20.544933 18.25672
-99.518646 21.023632 1.6075919
-99.509445 20.819706 1.6088496
-99.698524 20.190203 18.446524
-99.498764 20.731968 1.1556193
-99.69841 20.091366 18.423605
-99.708397 19.99477 18.403942
-99.722771 19.903133 18.392778
-99.480965 20.428719 1.155261
-99.72245 19.809063 18.383446
-99.741241 19.870537 17.190083
-99.467377 20.227621 1.1742687
-99.460411 20.127163 1.1801677
-99.404243 19.885481 3.8730495
-99.464859 20.02549 1.4058584
-99.719673 19.436367 18.32465
-99.718117 19.338585 18.300848
-99.714554 19.1478 18.248396
-99.391556 19.400091 3.8398528
-99.437408 19.510483 1.8363626
-99.456879 19.225149 4.4934812
-99.660088 18.705988 18.387686
-99.380669 19.183245 1.8126329
-99.670044 18.6115 18.361944
-99.37899 18.987324 4.2384629
-99.363029 18.985634 4.015491
-99.682724 18.521923 18.346603
-99.666283 18.419577 18.321899
-99.616936 18.32724 18.310249
-99.64225 18.355383 18.025967
-99.665054 18.381838 17.742266
-99.663567 18.392838 17.443808
-99.62291 18.37891 17.121202
-99.630714 18.418581 16.261265
-99.638145 18.434668 15.982854
-99.638252 18.457172 15.423877
-99.360916 18.829201 1.5850343
-99.624084 18.260054 18.330166
-99.649681 18.288239 18.045668
-99.658295 18.305643 17.751352
-99.649712 18.312111 17.447697
-99.601837 18.293688 17.120035
-99.632362 18.358776 15.991492
-99.630066 18.368525 15.70914
-99.62529 18.376604 15.427773
-99.625587 18.387798 15.151936
-99.615929 18.392584 14.872553
-99.596237 18.3909 14.589889
-99.612206 18.411772 14.329882
-99.610687 18.421457 14.061979
-99.583847 18.41494 13.782561
-99.593147 18.431337 13.524701
-99.600311 18.44631 13.267424
-99.57428 18.440035 12.995229
-99.5849 18.457064 12.743314
-99.576462 18.471972 12.230082
-99.567856 18.496422 11.474693
-99.558266 18.500137 11.22321
-99.540977 18.508591 10.725825
-99.557373 18.528816 10.488994
-99.555878 18.5375 10.246409
-99.547165 18.551037 9.762948
-99.538994 18.564726 9.2845516
-99.528061 18.567083 9.0449057
-99.3964 18.768763 1.8091977
-99.54911 18.416731 10.719092
-99.547882 18.435293 10.234051
-99.539009 18.448767 9.7512589
-99.378723 18.660856 1.8097951
-99.610352 18.041586 18.584852
-99.385658 18.569178 1.8075415
-99.318451 18.534164 1.5887965
-99.656242 17.97179 18.599512
-99.314713 18.445263 1.3679529
-99.315018 18.340328 1.5897791
-99.321594 18.353453 1.3694518
-99.309776 18.354675 1.1497741
-99.602058 17.737947 18.839647
