# .PCD v0.7 - Point Cloud Data file format
VERSION 0.7
FIELDS x y z
SIZE 4 4 4
TYPE F F F
COUNT 1 1 1
WIDTH 1560
HEIGHT 1
VIEWPOINT 0 0 0 1 0 0 0
POINTS 1560
DATA ascii
-101.77747 4.8595662 21.322584
-101.78262 4.8767509 20.978519
-101.8063 4.9030828 20.652832
-101.78251 4.9054065 20.294205
-101.78473 4.9206328 19.959606
-101.7687 4.9265084 19.615267
-101.76422 4.9380374 19.283335
-101.72904 4.9739261 17.979469
-101.76236 5.0038972 17.689714
-101.75433 5.0127869 17.37557
-101.74331 5.0200171 17.062675
-101.73711 5.0295711 16.755884
-101.76724 5.0575113 16.47397
-101.75545 5.0639892 16.169167
-101.73288 5.064846 15.861011
-101.74714 5.0843945 15.576826
-101.7349 5.0903006 15.280025
-101.73595 5.1028986 14.993109
-101.73441 5.1140723 14.707087
-101.73837 5.1279721 14.426185
-101.73983 5.1405001 14.146077
-101.72253 5.1432986 13.858721
-101.71896 5.1530643 13.580448
-101.75391 5.1825786 13.322439
-101.72092 5.1770225 13.034163
-101.72657 5.1913004 12.765883
-101.71336 5.1957674 12.490973
-101.72266 5.2117829 12.227708
-101.7214 5.2222719 11.961498
-101.71786 5.2315145 11.696002
-101.71206 5.2395148 11.431244
-101.72081 5.2549963 11.173698
-101.71899 5.2649355 10.913468
-101.70654 5.2692904 10.650825
-101.70699 5.3016586 9.8848591
-101.71146 5.3145957 9.6333752
-101.77982 4.6335201 22.34549
-101.79227 4.8487644 17.361324
-101.78896 4.8599043 17.053474
-101.77489 4.8655243 16.741945
-101.77579 4.963469 14.413486
-101.77721 4.9759364 14.133536
-101.79245 4.9953275 13.862482
-101.78076 5.0009813 13.580094
-101.77477 5.0094333 13.302623
-101.78282 5.0249386 13.033648
-101.77199 5.0307679 12.757858
-101.80025 5.0564208 12.501193
-101.75973 5.0469651 12.216293
-101.76678 5.0616775 11.953716
-101.77161 5.0751896 11.691689
-101.73219 5.0660257 11.413711
-101.73246 5.0770698 11.15327
-101.72208 5.0826006 10.890312
-101.71795 5.0912628 10.631226
-101.71164 5.0987482 10.37281
-101.71169 5.1094351 10.117981
-101.70961 5.1189837 9.8637018
-101.70544 5.1273985 9.6099958
-101.80533 4.9856906 9.8710461
-101.79267 4.9898052 9.6141996
-101.79541 5.0121217 9.1130295
-101.78507 5.0172558 8.8606701
-101.78996 5.0300946 8.61374
-101.77551 5.0330415 8.3625546
-101.7677 5.0393195 8.1142874
-101.75787 5.0445256 7.8665757
-101.73731 5.04421 7.6173959
-101.7322 5.0517368 7.3729
-101.74261 5.0671735 7.132596
-101.72485 5.0681596 6.8870544
-101.72266 5.0770817 6.6455727
-101.73611 5.0940008 6.4076552
-101.73012 5.1009202 6.1666884
-101.70461 5.0977869 5.9232087
-101.7036 5.1072063 5.684535
-101.69189 5.1111007 5.4448295
-101.71361 5.1321816 5.2102876
-101.73366 4.3959775 18.485876
-101.79575 5.020854 4.2601266
-101.78172 5.0235348 4.0227313
-101.78359 5.0343223 3.7870257
-101.76586 5.0350809 3.550211
-101.75517 5.039422 3.3142872
-101.76933 5.0564671 3.0798101
-101.76388 5.0634732 2.8444521
-101.73881 5.0604148 2.6087546
-101.74749 5.0746541 2.3740852
-101.74545 5.0833974 2.1391623
-101.74159 5.0912032 1.9042293
-101.72701 5.0934987 1.6694275
-101.69283 5.0857019 1.4352475
-101.70129 5.0998392 1.200143
-101.69014 5.103889 0.96552157
-101.68604 5.1115794 0.73050666
-102.49793 16.922037 21.582832
-102.52151 16.952749 21.261583
-102.50838 16.958588 20.912167
-102.57349 17.016981 20.633043
-102.54737 17.013741 20.280302
-102.5072 16.574198 17.030619
-102.49019 16.57555 16.726583
-102.51442 16.604139 16.45248
-102.46277 16.582247 16.131973
-102.4747 16.602453 15.854985
-102.45461 16.601265 15.560548
-102.45432 16.613127 15.280801
-102.55871 16.428438 17.029116
-102.56564 16.494976 15.595299
-102.52077 16.477451 15.288209
-102.53318 16.497602 15.017949
-102.55841 16.526142 14.756889
-102.55884 16.538212 14.483495
-102.55698 16.548679 14.210919
-102.55285 16.557552 13.93919
-102.53117 16.554701 13.660378
-102.53783 16.570551 13.398382
-102.51926 16.569578 13.125539
-102.49843 16.567003 12.853812
-102.50634 16.58345 12.597858
-102.50444 16.593302 12.33885
-102.49266 16.5965 12.077057
-102.49441 16.608639 11.822984
-102.47061 16.603674 11.559515
-102.46828 16.612951 11.3069
-102.46395 16.620834 11.054926
-102.54246 16.384272 13.641723
-102.51716 16.401478 12.8401
-102.5535 16.502016 11.07199
-102.55509 16.524403 10.575225
-102.55299 16.53359 10.327644
-102.53298 16.530836 10.074963
-102.527 16.537336 9.8286991
-102.479 16.515829 9.5697193
-102.49326 16.535677 9.3328552
-102.48962 16.543571 9.0911446
-102.47607 16.544811 8.8475256
-102.45959 16.554226 8.3668737
-102.4811 16.578737 8.136013
-102.46838 16.580351 7.8967695
-102.47829 16.597059 7.6640897
-102.47832 16.607132 7.4296203
-102.46026 16.605064 7.1918225
-102.45679 16.612724 6.9581475
-102.49091 16.032736 16.929411
-102.49529 16.047977 16.641573
-102.47187 16.151255 13.854273
-102.49574 16.178129 13.60118
-102.50986 16.198601 13.344451
-102.462 16.189676 12.798708
-102.53983 16.251532 12.577069
-102.46793 16.342283 9.316844
-102.53697 16.398087 9.098381
-102.53968 16.410101 8.8595877
-102.47466 16.387421 8.3651257
-102.46497 16.500004 5.5735359
-102.51304 16.561388 4.8931651
-102.50092 16.56303 4.6633697
-102.48508 15.984635 13.84747
-102.4782 15.991474 13.578769
-102.49227 16.011757 13.322689
-102.44412 16.002787 12.778218
-102.4752 16.033854 12.535286
-102.46519 16.038271 12.274486
-102.42303 16.032499 11.748703
-102.43034 16.04792 11.500778
-102.41983 16.051708 11.246804
-102.41524 16.059273 10.996811
-102.43207 16.091166 10.510874
-102.42163 16.094757 10.262621
-102.44752 16.291895 6.0312538
-102.48516 16.326502 5.8080621
-102.51164 16.382896 4.8969545
-102.53278 16.406603 4.6711597
-102.42626 16.374506 3.7537019
-102.43913 16.392681 3.5281732
-102.43159 15.633505 17.138275
-102.5081 15.835511 13.576501
-102.4584 15.836962 12.76894
-102.51864 15.961388 10.777915
-102.50229 15.961292 10.52561
-102.48392 15.959827 10.274182
-102.49577 15.977819 10.035018
-102.48963 15.984142 9.7905941
-102.43305 15.95776 9.5307465
-102.43111 15.966674 9.290659
-102.44357 15.984877 9.0560646
-102.44611 15.996615 8.8192205
-102.42127 16.000544 8.3398724
-102.45111 16.029911 8.1130733
-102.43008 16.026178 7.8735309
-102.42365 16.031893 7.6387544
-102.42367 16.041773 7.406342
-102.41371 16.04512 7.1724105
-102.41849 16.058044 6.9424467
-102.4133 16.06444 6.7110014
-102.46618 16.224754 3.7589352
-102.53961 16.321274 2.6295829
-102.536 16.328514 2.4027503
-102.53073 16.334661 2.1759174
-102.53215 16.345236 1.948929
-102.50691 16.338154 1.7225791
-102.4967 16.341019 1.4959359
-102.50148 16.35384 1.2684933
-102.42484 15.455884 17.10527
-102.48318 15.634453 13.806385
-102.50705 15.660801 13.554592
-102.39426 15.622422 12.71851
-102.46078 15.811879 9.2875118
-102.44276 15.840531 8.3351564
-102.52151 15.999591 5.8067307
-102.49832 16.023245 4.8923059
-102.46118 16.008703 4.6615343
-102.43787 16.031876 3.7562683
-102.4319 15.288733 17.081438
-102.45027 15.441764 13.766893
-102.37588 15.439266 12.689722
-102.45695 15.637278 9.27318
-102.43862 15.665784 8.3228588
-102.48556 15.842381 4.8868079
-102.50691 15.865782 4.6627622
-102.45348 15.131052 17.06723
-102.42461 15.254633 13.731092
-102.3885 15.276351 12.675548
-102.45264 15.463185 9.2584753
-102.4921 15.508263 8.7966728
-102.4587 15.507172 8.3169422
-102.47216 15.66211 4.8809371
-102.47678 15.67467 4.6557522
-102.4296 14.945547 17.023302
-102.45036 14.970581 16.747717
-102.39407 14.948475 16.424227
-102.42867 15.086483 13.711849
-102.38414 15.103257 12.654169
-102.45274 15.332824 8.304575
-102.37537 15.420648 5.0905023
-102.47408 15.492771 4.8773007
-102.45347 15.489318 4.6499276
-102.4722 15.539555 3.7532244
-102.38478 14.891002 13.667835
-102.38454 14.902035 13.40688
-102.35854 14.897237 13.13496
-102.3696 14.915005 12.88345
-102.37858 14.931442 12.63243
-102.35377 14.927105 12.367259
-102.39724 15.04878 10.168983
-102.39233 15.056025 9.9273167
-102.40186 15.072139 9.6917648
-102.36614 15.070343 9.205987
-102.40299 15.103261 8.9818745
-102.39694 15.109561 8.7453203
-102.42899 15.149447 8.2873411
-102.46633 15.319296 4.8723392
-102.46252 15.326525 4.6472387
-102.41039 14.739964 13.65964
-102.41879 14.778343 12.887223
-102.41991 14.789976 12.632376
-102.42688 14.80508 12.381871
-102.43179 14.818871 12.131905
-102.42664 14.826485 11.878995
-102.41941 14.832756 11.626834
-102.40205 14.832788 11.372105
-102.39873 14.841301 11.124851
-102.40959 14.858408 10.884602
-102.38608 14.854471 10.63233
-102.39304 14.869088 10.393126
-102.37363 14.867528 10.145534
-102.37676 14.879691 9.9073792
-102.36161 14.880612 9.6641397
-102.35274 14.885318 9.4243612
-102.4256 14.756216 9.6725578
-102.35093 14.720948 9.4111319
-102.43085 14.779614 9.2009096
-102.43484 14.792084 8.9669409
-102.40388 14.783213 8.7236309
-102.41098 14.807397 8.2604237
-102.41602 14.820348 8.0303707
-102.41095 14.827089 7.7984886
-102.40409 14.832702 7.5670481
-102.39545 14.837187 7.3360686
-102.38504 14.840549 7.1055689
-102.37286 14.842793 6.8755684
-102.36733 14.849076 6.6477394
-102.36849 14.859436 6.4218416
-102.36795 14.868726 6.1961541
-102.35727 14.871762 5.9693007
-102.34487 14.873715 5.7428656
-102.33922 14.87979 5.5180898
-102.34277 14.747623 4.8457036
-102.42388 14.806674 4.6318736
-102.27167 13.041766 21.626701
-102.31055 12.904891 21.635084
-102.23352 12.749765 16.87044
-102.24718 12.769094 16.595715
-102.22773 12.77035 16.302025
-102.22084 12.778305 16.019402
-102.22677 12.793107 15.747416
-102.20694 12.7938 15.462173
-102.20782 12.805646 15.192096
-102.21555 12.576734 17.12785
-102.30239 12.659009 16.334154
-102.25727 12.646402 16.026833
-102.27658 12.746514 13.896136
-102.27129 12.754444 13.635215
-102.2717 12.765392 13.379251
-102.27793 12.779426 13.128034
-102.24966 12.774604 12.861806
-102.23522 12.777223 12.604524
-102.23482 12.787404 12.355731
-102.22411 12.791894 12.103971
-102.22761 12.80407 11.860263
-102.22906 12.81506 11.617137
-102.22021 12.820355 11.371195
-102.21754 12.828968 11.129384
-102.21284 12.836408 10.888225
-102.21779 12.42666 17.11945
-102.28434 12.64145 12.87281
-102.25422 12.756204 9.7228031
-102.22092 12.747718 9.4798174
-102.24477 12.770388 9.2567053
-102.2245 12.7689 9.0206137
-102.23625 12.784883 8.7953978
-102.20324 12.785779 8.3315172
-102.20954 12.798666 8.1074324
-102.21407 12.810551 7.8835931
-102.19561 12.263486 17.097954
-102.28029 12.320038 16.869242
-102.23973 12.423162 13.866181
-102.28244 12.456692 13.63105
-102.24466 12.468349 12.851008
-102.28717 12.501551 12.621117
-102.25804 12.738661 6.5612559
-102.24738 12.760386 5.8996339
-102.2346 12.762522 5.678813
-102.21141 12.75891 5.4572062
-102.21214 12.777488 5.0222363
-102.19256 12.775777 4.8030295
-102.20618 12.792326 4.5878568
-102.20418 12.116471 17.096434
-102.25851 12.156775 16.847572
-102.25697 12.167817 16.563606
-102.26044 12.181371 16.285608
-102.25184 12.200005 15.727606
-102.24705 12.231414 14.9145
-102.22729 12.232127 14.6379
-102.21291 12.235561 14.366945
-102.22797 12.254414 14.114371
-102.20876 12.255109 13.845382
-102.21926 12.2714 13.594198
-102.20335 12.273653 13.331361
-102.21749 12.291716 13.085589
-102.18887 12.287055 12.820701
-102.22311 12.31564 12.587794
-102.22269 12.325783 12.339896
-102.19549 12.321628 12.081672
-102.17424 12.320544 11.82825
-102.1921 12.340191 11.593461
-102.19143 12.34992 11.352092
-102.20898 12.37928 10.881061
-102.19806 12.432165 9.4733276
-102.21812 11.975261 17.099672
-102.2477 12.126823 13.862286
-102.26645 12.147382 13.615108
-102.25879 12.15404 13.356109
-102.24883 12.159401 13.098026
-102.22028 12.154916 12.833049
-102.2302 12.170549 12.588559
-102.23802 12.185017 12.344583
-102.24376 12.198322 12.101141
-102.21439 12.193069 11.843874
-102.23244 12.212729 11.608931
-102.2153 12.21377 11.360533
-102.20435 12.218001 11.116443
-102.19966 12.22548 10.876436
-102.17992 12.263959 9.6983662
-102.1718 12.269282 9.4651661
-102.16686 12.285784 9.0058975
-102.20337 12.343058 8.111722
-102.22526 12.36413 7.8931026
-102.21095 12.365817 7.6660314
-102.18619 12.361858 7.4375744
-102.19177 12.383357 6.9959784
-102.18762 12.390342 6.7746716
-102.19041 12.401027 6.5553842
-102.18448 12.434347 5.6804094
-102.17873 12.440329 5.462296
-102.17967 12.458938 5.0290675
-102.20389 12.481063 4.815587
-102.244 12.511792 4.6035242
-102.24772 12.549904 3.7399194
-102.25328 12.561933 3.5246108
-102.24841 12.568291 3.3088517
-102.24189 12.573743 3.0931985
-102.21615 12.568727 2.8772862
-102.2151 12.577143 2.6621714
-102.22118 12.589447 2.4470534
-102.19929 12.586488 2.231971
-102.20206 12.596996 2.0167761
-102.20029 11.819981 17.082357
-102.26423 11.999173 13.611155
-102.21807 12.006769 12.8298
-102.24597 12.151289 9.7211647
-102.18706 12.129861 9.4709063
-102.21117 12.152122 9.2491798
-102.22498 12.168924 9.0248308
-102.20276 12.166666 8.7905684
-102.1786 12.163325 8.5571709
-102.19548 12.181635 8.3364153
-102.21922 12.203556 8.1179848
-102.20674 12.206273 7.8907313
-102.20972 12.217137 7.6682749
-102.20226 12.222442 7.4440885
-102.1757 12.217551 7.2165217
-102.17333 12.225477 6.9953065
-102.1779 12.237069 6.7761827
-102.17206 12.24309 6.5555725
-102.1819 12.257442 6.3384991
-102.16388 12.25692 6.116982
-102.21166 11.680308 17.087646
-102.2421 11.830679 13.855844
-102.16756 11.972667 9.4675064
-102.15063 12.001486 8.5530148
-102.23641 12.055792 8.3516197
-102.26472 12.189678 5.4863005
-102.23981 12.194437 5.04918
-102.21162 12.18842 4.8297486
-102.21689 12.200158 4.6145768
-102.22189 11.5397 17.09338
-102.22945 11.678011 13.849797
-102.14176 11.774699 10.387955
-102.15645 11.791919 10.160198
-102.23127 11.84976 9.7226143
-102.15518 11.819909 9.467329
-102.13838 11.848756 8.554183
-102.25024 11.916183 8.3602476
-102.24638 12.050693 5.0580521
-102.25005 12.070484 4.6264839
-102.21967 12.090034 3.7634802
-102.13198 11.172399 21.342302
-102.21677 11.392859 17.087322
-102.20041 11.518591 13.833772
-102.1237 11.521457 12.786005
-102.16747 11.671694 9.7034426
-102.14297 11.706018 8.5587635
-102.22919 11.759692 8.357955
-102.22604 11.893952 5.0622144
-102.14487 11.025944 21.683012
-102.18772 11.370707 13.823168
-102.1437 11.389983 12.792392
-102.20548 11.738816 5.0632157
-102.17072 11.773487 3.7732871
-102.1535 10.896176 21.679815
-102.19122 11.103276 17.055344
-102.20777 11.122897 16.782532
-102.16743 11.114483 16.475239
-102.20436 11.198789 14.866854
-102.17413 11.226008 13.809115
-102.11526 11.362767 9.6811666
-102.13297 11.380959 9.4582386
-102.12518 11.413665 8.550889
-102.22043 11.470955 8.3530693
-102.2101 11.598758 5.0639253
-102.23512 11.6203 4.8516245
-102.16684 11.628568 3.7744637
-102.14205 10.756524 21.656116
-102.20297 10.983929 16.768467
-102.20139 10.994431 16.486528
-102.15147 11.035391 14.826962
-102.15539 11.04785 14.566274
-102.12845 11.065711 13.776283
-102.13092 11.077123 13.523324
-102.13113 11.087337 13.271104
-102.10827 11.09606 12.761106
-102.13475 11.119031 12.526839
-102.11773 11.120443 12.273889
-102.16148 11.246385 9.6909389
-102.11922 11.234438 9.4482431
-102.10273 11.262377 8.5397778
-102.21452 11.458976 5.0628753
-102.15578 10.623343 21.648893
-102.1501 10.935493 13.775289
-102.19344 10.966806 13.543205
-102.17743 10.969094 13.282395
-102.13 10.965859 12.76011
-102.16483 10.992783 12.529696
-102.16447 11.002412 12.284216
-102.09779 11.073333 9.6612215
-102.0897 11.078439 9.4305134
-102.0883 11.086813 9.203146
-102.10231 11.102788 8.9815092
-102.08852 11.10493 8.7524385
-102.10548 11.140106 8.0877476
-102.11045 11.151431 7.8674979
-102.12239 11.166205 7.6496253
-102.08878 11.158219 7.4217362
-102.1235 11.184312 7.2103548
-102.13019 11.196396 6.9930434
-102.14395 11.211997 6.7776666
-102.13839 11.217903 6.5589342
-102.09577 11.205212 6.3341856
-102.1414 10.789074 13.751178
-102.12882 10.823277 12.741214
-102.13792 10.951505 9.6598787
-102.12119 10.952446 9.4262209
-102.15434 10.977838 9.2095747
-102.14243 10.981062 8.9796629
-102.14597 10.991836 8.7554932
-102.09548 10.975956 8.5169973
-102.14753 11.01056 8.3082561
-102.1543 11.022825 8.0875034
-102.15928 11.03418 7.8669982
-102.15371 11.040293 7.64465
-102.13757 11.041134 7.4207325
-102.13717 11.049734 7.2013335
-102.12621 11.053068 6.9804025
-102.12228 11.059856 6.7617464
-102.10777 11.061363 6.5417657
-102.10916 11.07074 6.3255186
-102.09999 11.074841 6.1079817
-102.09795 11.082459 5.8922753
-102.09419 11.089206 5.6768212
-102.07551 10.825321 8.4925013
-102.17333 10.996491 5.4580674
-102.07709 10.95755 5.2309942
-102.17504 11.014612 5.0295143
-102.17336 11.022399 4.8154511
-102.16107 11.024914 4.6006541
-102.03489 9.2019043 21.656113
-102.03238 9.2141523 21.317694
-102.04063 9.230876 20.993023
-102.00176 9.2270269 20.632984
-102.00281 9.2402754 20.311159
-102.05548 9.085288 21.673738
-102.07016 8.9661789 21.683834
-102.06483 8.8377562 21.672092
-102.06534 8.8887081 17.030622
-102.04379 8.89048 16.734926
-102.03506 8.8975773 16.450851
-102.02348 8.9033451 16.167959
-102.00908 8.9077902 15.886285
-102.01598 8.9212217 15.620434
-102.01225 8.9300108 15.350625
-101.98966 8.9306326 15.072411
-101.98876 8.9404373 14.809425
-101.98535 8.9490709 14.547352
-101.99587 8.9635992 14.295163
-101.97103 8.9628496 14.026051
-101.95187 8.9644384 13.762563
-101.96346 8.9791822 13.517206
-101.9561 8.9856873 13.26411
-102.04697 8.8737831 13.805729
-102.06023 8.8990479 13.309858
-102.05084 8.9047241 13.056808
-102.05595 8.9165277 12.812696
-102.05038 8.9236879 12.565312
-102.03407 8.9261589 12.314922
-102.02394 8.9312143 12.069307
-102.02866 8.9425812 11.831926
-102.01412 8.9456005 11.587935
-102.03177 8.9624128 11.35893
-101.99567 8.9560051 11.109628
-102.00919 8.9709311 10.881732
-102.00339 8.9774637 10.647641
-102.00422 8.9868107 10.417428
-101.9856 8.9876871 10.181557
-101.9649 8.9875946 9.9465866
-101.96843 8.9979534 9.7213478
-101.95245 8.9997978 9.4908476
-101.94983 9.0160799 9.0430059
-102.0246 8.901639 9.5110703
-102.04205 8.9179535 9.2918615
-102.02228 8.9181929 9.0620575
-102.01824 8.9251699 8.838295
-101.98566 8.9197693 8.607502
-102.00449 8.9365368 8.3923521
-102.0483 8.964098 8.1842976
-102.01894 8.9599628 7.9577007
-102.01451 8.9665794 7.7385745
-101.99928 8.9684763 7.5178013
-102.01814 8.9851389 7.3056917
-101.99028 8.9814749 7.0839429
-101.98759 8.988718 6.8685451
-101.99216 8.999094 6.6552444
-101.995 9.0086908 6.4421363
-101.97798 9.0096121 6.2260804
-101.96825 9.0136805 6.0120873
-101.94771 9.0129919 5.7971048
-101.95264 9.0234175 5.5866871
-102.01638 8.64254 12.785784
-102.02518 8.7745867 9.5090714
-101.98623 8.7927971 8.6058388
-102.04075 8.8247795 8.4005041
-102.05746 8.9332638 5.8134246
-102.04435 8.9358711 5.5994167
-101.97488 8.9139862 5.378459
-101.96735 8.9189434 5.1670327
-101.99458 8.9389954 4.9601564
-101.97453 8.9384794 4.7480474
-101.98017 8.9491205 4.539114
-101.9184 8.3034945 17.192293
-102.03378 8.3835115 16.428034
-102.0285 8.4338856 15.075034
-102.01951 8.4403887 14.807423
-102.03505 8.4669933 14.297795
-102.016 8.4789219 13.778149
-101.99912 8.5105944 12.77534
-102.00754 8.6415911 9.5020494
-101.98631 8.6672306 8.6048536
-102.03201 8.6952124 8.397172
-101.96632 8.7839928 5.3775077
-101.98618 8.8007221 5.1696944
-101.90141 8.1728897 17.176846
-101.98985 8.3436089 13.761353
-102.01953 8.3752708 13.275537
-102.02682 8.387888 13.031361
-101.99799 8.3855047 12.77181
-102.01768 8.4031143 12.537065
-102.02676 8.4162703 12.298833
-102.01656 8.4213772 12.05362
-102.02988 8.4361753 11.820323
-102.00668 8.4357386 11.573059
-102.00711 8.4450636 11.337433
-102.00545 8.4534559 11.102433
-102.01038 8.4645443 10.871433
-101.98713 8.4638166 10.631134
-102.00544 8.4803801 10.407787
-101.98675 8.4814396 10.172246
-102.00114 8.4962807 9.949688
-101.98717 8.4992104 9.7185755
-101.98003 8.50494 9.4910955
-101.97977 8.5135117 9.2670155
-101.95982 8.5137739 9.0380487
-101.96459 8.5243702 8.8177261
-101.95857 8.5303946 8.5952415
-101.98641 8.550642 8.3830309
-101.96559 8.6581335 5.3767223
-101.96723 8.6669779 5.1667008
-101.94148 8.7045374 3.9100223
-101.97716 8.7279282 3.7039964
-101.99284 8.7427387 3.4964466
-101.9793 8.7449875 3.2875466
-101.97328 8.7504559 3.0792062
-101.95641 8.7512407 2.8707995
-101.93787 8.7512922 2.6627073
-101.96356 8.7704363 2.4550242
-101.94169 8.7690392 2.2471719
-101.92733 8.7708826 2.0395229
-101.92966 8.7799454 1.8315854
-101.90138 8.0462332 17.171059
-102.02316 8.2690315 12.77934
-102.02164 8.3514452 10.640478
-102.02254 8.3607607 10.410513
-102.02142 8.3691912 10.181096
-102.00069 8.3694344 9.946209
-101.99554 8.3760796 9.7181177
-101.97954 8.3781729 9.4877853
-101.97927 8.3867521 9.2637901
-101.97707 8.3944893 9.0402794
-101.97297 8.4013872 8.8172722
-101.95802 8.4037218 8.5922709
-101.96799 8.4164143 8.3752785
-101.96718 8.424571 8.1561623
-101.96452 8.431921 7.9374557
-101.95102 8.4346972 7.717
-101.96272 8.4479914 7.5034413
-101.95457 8.4529457 7.2859921
-101.95367 8.4609032 7.0709481
-101.94192 8.4642754 6.8543978
-101.94652 8.4744911 6.6418686
-101.94028 8.4801254 6.4278679
-101.92318 8.4811544 6.2126708
-101.92252 8.4890852 6.0010314
-101.93838 8.5039673 5.7924485
-101.92515 8.5065546 5.5798216
-101.9376 8.5199757 5.371346
-101.92092 8.521059 5.1593781
-101.92083 8.5291424 4.9500146
-101.90218 7.920074 17.16444
-101.99796 8.132411 12.762049
-102.00592 8.2632141 9.4922123
-101.97558 8.2853432 8.5935154
-102.02143 8.3128843 8.3861675
-102.01744 8.3536224 7.2967677
-102.01662 8.3616676 7.081212
-102.014 8.3689413 6.8659854
-102.00052 8.3716536 6.6493564
-102.01254 8.3849764 6.4382553
-102.0046 8.3899517 6.2240367
-102.00403 8.3979759 6.0117083
-101.98345 8.3976078 5.796813
-101.98853 8.4079542 5.5864811
-101.94614 8.3983822 5.3700905
-101.94775 8.4072342 5.1604166
-101.93851 8.4115067 4.9498215
-101.95507 8.4266129 4.7424717
-101.93324 8.425561 4.5314016
-101.90771 7.8004193 17.163361
-101.98701 8.005229 12.75295
-101.9768 8.1280708 9.4796877
-101.95513 8.1536961 8.5848494
-101.95281 8.2775574 5.3689623
-101.94528 8.2825699 5.1581426
-101.901 8.3126488 3.9028306
-101.91007 7.6828156 17.165323
-101.98222 7.8830266 12.750881
-101.97256 8.0049906 9.4787369
-101.94207 8.0267954 8.5817089
-101.93107 8.1459103 5.3671293
-101.93275 8.1546679 5.1577129
-101.90189 7.5622249 17.166296
-101.967 7.7576971 12.749151
-101.96696 7.8822436 9.4821281
-101.92778 7.9003062 8.582902
-101.99184 7.934504 8.3810234
-101.93618 8.0260792 5.3733339
-101.93795 8.034791 5.1639166
-101.95464 7.3014832 21.529909
-101.91531 7.2992873 21.161924
-101.88645 7.3008394 20.808393
-101.90544 7.3203278 20.499456
-101.87637 7.321435 20.155306
-101.88376 7.4377394 17.163143
-101.93281 7.6251483 12.74061
-101.95959 7.7591271 9.4867287
-101.92072 7.7771482 8.587822
-101.9397 7.9060793 5.3807645
-101.93237 7.9110265 5.1701951
-101.87487 7.3162827 17.163252
-101.95921 7.5161819 12.758051
-101.96165 7.6398568 9.4921503
-101.92307 7.6579237 8.5932322
-101.93409 7.7828465 5.3849306
-101.92683 7.7877927 5.1744452
-101.8657 7.8100142 3.9198852
-101.86982 7.1948261 17.158756
-101.93964 7.2422605 16.643595
-101.93862 7.2522297 16.366247
-101.94288 7.2641006 16.094955
-101.95961 7.2906847 15.564893
-101.93728 7.3871126 12.746839
-101.94807 7.5133462 9.4872227
-101.90945 7.5313439 8.5889721
-101.92059 7.6556292 5.3832264
-101.93179 7.6679173 5.1752214
-101.86154 7.6864796 3.9200227
-101.85681 7.0711684 17.146446
-101.95257 7.1884117 15.027015
-101.95181 7.1978655 14.765103
-101.92805 7.2455282 13.230476
-101.94395 7.2607799 12.991573
-101.94054 7.2685933 12.745129
-101.93102 7.3441801 10.612427
-101.94086 7.356513 10.386803
-101.94267 7.3908844 9.4826365
-101.88595 7.4018083 8.5796738
-101.95947 7.4385962 8.3807688
-101.9244 7.5361533 5.3814812
-101.89867 7.5337782 5.1688619
-101.86772 6.9562626 17.149929
-101.9344 7.2255692 10.610567
-101.92657 7.2310767 10.378559
-101.92553 7.2391353 10.150376
-101.92247 7.2463717 9.9227648
-101.90849 7.2493634 9.6928034
-101.91929 7.2618308 9.4721966
-101.90128 7.2631826 9.2435656
-101.91721 7.2775488 9.0265179
-101.89526 7.2772856 8.7992125
-101.88034 7.2796812 8.5752907
-101.89966 7.2952557 8.3618336
-101.89905 7.3031082 8.1437244
-101.90567 7.313724 7.9282961
-101.91047 7.3236094 7.7131276
-101.90434 7.3292308 7.496139
-101.9055 7.3376503 7.2816291
-101.91401 7.3488975 7.0693598
-101.91159 7.355876 6.8554082
-101.89821 7.358561 6.640049
-101.90139 7.3676662 6.4285665
-101.88441 7.3688951 6.2141271
-101.88407 7.3765798 6.0032554
-101.88198 7.383564 5.7926283
-101.89661 7.3970675 5.5849128
-101.87258 7.3954358 5.3721743
-101.85603 7.3967028 5.1612287
-101.87478 7.4117785 4.955029
-101.87331 7.4189258 4.7466788
-101.87942 7.4290323 4.5393906
-101.85044 7.4407034 3.9151399
-101.86962 6.8381219 17.150434
-101.94032 7.1495357 9.4783878
-101.9384 7.1652584 9.0323725
-101.93453 7.1719513 8.810111
-101.89259 7.1640406 8.5782833
-101.91198 7.1795449 8.3647413
-101.93865 7.1978202 8.1536064
-101.93629 7.2049456 7.9355698
-101.94118 7.2148228 7.7201452
-101.92599 7.2169609 7.5008016
-101.92722 7.2253723 7.2861199
-101.92665 7.2330632 7.0717516
-101.90593 7.2329659 6.8540297
-101.90173 7.239203 6.640511
-101.91415 7.2518272 6.4306979
-101.91562 7.2602105 6.2193394
-101.88767 7.2571959 6.0037146
-101.89484 7.2677383 5.7944984
-101.89105 7.2740197 5.5840449
-101.86702 7.2724304 5.3713923
-101.869 7.2809086 5.1628366
-101.86926 7.2887092 4.9544182
-101.86782 7.2958326 4.7461543
-101.88324 7.3095064 4.539844
-101.83573 7.3139391 3.9143283
-101.87739 6.8532677 13.702066
-101.92872 6.9084663 12.738217
-101.87519 7.0396242 8.5756483
-101.93997 7.0721889 8.3744688
-101.87798 7.1575203 5.3750057
-101.89858 7.1730695 5.1686673
-101.93605 7.1951199 4.964252
-101.93473 7.2022252 4.7553782
-101.91311 7.2014856 4.544888
-101.84718 7.1987119 3.917315
-101.82371 6.9102998 8.3417473
-101.86183 7.0316768 5.3714561
-101.91962 7.0612102 5.1698956
-101.70375 4.9993615 21.501015
-101.72545 5.0179729 21.184172
-101.69881 5.0212402 20.830994
-101.76012 4.8632321 22.600082
-101.74142 5.0041862 18.37649
-101.76821 5.0229559 18.099606
-101.78416 5.038208 17.817881
-101.74919 5.0372338 17.504333
-101.78204 5.0674977 16.956778
-101.76985 5.0733953 16.668524
-101.76278 5.0808082 16.386705
-101.75275 5.0871754 16.10606
-101.7398 5.0925021 15.826619
-101.70735 5.0914941 15.538568
-101.79165 5.1196489 12.06115
-101.78969 5.1272726 11.822334
-101.77663 5.1312585 11.580585
-101.7524 5.1315718 11.336165
-101.74365 5.1368222 11.099862
-101.72376 5.1384082 10.860938
-101.7106 5.1421084 10.626344
-101.70425 5.1479621 10.395856
-101.7975 5.16855 7.1284056
-101.81553 5.1818352 6.9191298
-101.80885 5.1943979 6.4936137
-101.78403 5.1936154 6.2780938
-101.76675 5.1952639 6.0648737
-101.76644 5.2024484 5.8551941
-101.76436 5.209034 5.6457639
-101.73225 5.2057352 5.432672
-101.71719 5.208005 5.2228265
-101.72867 5.2189903 5.0168614
-101.71954 5.2231774 4.8087668
-101.70296 4.6076097 18.653431
-101.77747 5.2550664 0.89698893
-102.5563 17.082083 21.142029
-102.59827 17.180313 19.971613
-102.59637 17.200937 19.577593
-102.58404 17.213627 19.180563
-102.57005 16.85923 12.446073
-102.5556 16.867762 12.095515
-102.54633 16.880016 11.748415
-102.51112 16.873039 11.394701
-102.48889 16.87554 11.047051
-102.49543 16.899185 10.709577
-102.476 16.903576 10.365829
-102.4925 16.218899 16.617834
-102.51723 16.870384 5.0569534
-102.56932 16.926689 4.7366586
-102.563 16.939835 4.410696
-102.53033 16.933443 4.0831895
-102.47128 16.907465 3.7549486
-102.48277 16.951473 3.1074834
-102.54689 16.518881 5.3663025
-102.45396 15.256426 21.002934
-102.44771 15.273326 20.604073
-102.43809 15.287718 20.206581
-102.42513 15.299615 19.810505
-102.3792 15.288527 19.398523
-102.40221 14.517421 21.174536
-102.26591 13.061229 14.123024
-102.23409 13.059093 13.771736
-102.25568 13.090524 13.443609
-102.24212 13.084754 6.9699392
-102.22107 13.104104 6.3451142
-102.22371 12.257315 9.7463064
-102.18138 12.247905 9.4197254
-102.22712 11.404189 19.941433
-102.20686 11.41165 19.554499
-102.17538 11.412399 19.164696
-102.13554 11.518273 16.62644
-102.23659 11.934133 9.7240086
-102.26118 11.965015 9.4152431
-102.10165 11.183312 9.945365
-102.17079 11.23907 9.6509199
-102.19543 11.269056 9.345046
-102.10087 10.887258 9.2916269
-101.97548 9.1735229 16.533838
-101.9986 9.2021675 16.203287
-101.96979 9.2036486 15.850196
-101.99934 8.6462145 21.180365
-102.072 9.2214003 10.068007
-102.05834 9.2290821 9.7574768
-102.04218 9.235384 9.447711
-102.01485 9.2357779 9.1366396
-102.00235 9.2438641 8.8305798
-101.9874 9.2506075 8.5251913
-102.06181 9.2971773 1.7391422
-102.05316 9.3066292 1.4464704
-102.05995 9.3242064 1.1533579
-102.04678 9.3312817 0.86061221
-102.04018 9.3418264 0.567536
-101.91929 7.0370884 21.193182
-101.82642 6.9932637 7.9991999
-101.86779 7.0263262 7.7149892
-101.81377 5.1380854 21.532747
-101.79865 5.2018003 20.037016
-101.78356 5.2127051 19.665436
-101.74851 5.2153072 19.285868
-101.81732 5.2834096 12.071624
-101.80426 5.2923326 11.762314
-101.81511 5.3109946 11.462447
-101.77895 5.3102589 11.14924
-101.77567 5.3229671 10.848038
-101.75195 5.3271809 10.542323
-101.74349 5.3376093 10.242648
-101.72351 5.3432097 9.9412718
-101.8177 5.4026818 3.0977352
-101.77495 5.397985 2.8158827
-101.7853 5.4153633 2.535923
-102.59454 18.230993 22.314064
-102.56879 18.148945 21.564024
-102.55742 18.045797 21.546368
-102.56229 18.114258 19.820004
-102.5786 17.958326 21.546909
-102.57323 17.968725 21.189138
-102.56438 17.976992 20.832829
-102.55937 17.987282 20.483442
-102.5657 18.00386 20.146151
-102.56883 18.018496 19.810005
-102.57867 17.859116 21.529545
-102.5732 17.869467 21.171993
-102.58606 17.890003 20.83238
-102.58106 17.900324 20.482994
-102.57269 17.908594 20.13501
-102.58317 17.927374 19.804285
-102.55252 18.043386 16.274117
-102.54222 17.715446 22.201647
-102.55067 17.733843 21.847584
-102.56286 17.75419 21.500391
-102.5862 17.780643 21.165459
-102.57721 17.788837 20.809439
-102.57207 17.799042 20.460346
-102.57094 17.811346 20.118
-102.56653 17.821671 19.776953
-102.54169 17.869732 18.121952
-102.54881 17.885813 17.80835
-102.56075 17.904514 17.50045
-102.55315 17.923792 16.873432
-102.57227 17.946278 16.577404
-102.55762 17.949503 16.264267
-102.54797 17.955462 15.956768
-102.55914 17.973166 15.663259
-102.55199 17.980358 15.36207
-102.54504 18.020592 14.191541
-102.54904 18.033733 13.906893
-102.52539 17.611954 22.17255
-102.5552 17.642143 21.83597
-102.56017 17.658356 21.48328
-102.58345 17.684647 21.148565
-102.58168 17.696821 20.798254
-102.58385 17.71105 20.454725
-102.57535 17.71917 20.107107
-102.55608 17.721117 19.755661
-102.53774 17.784515 17.788857
-102.55727 17.807392 17.486006
-102.53408 17.817755 16.850269
-102.56087 17.844448 16.559141
-102.54612 17.847586 16.246315
-102.55603 17.88706 15.353454
-102.5462 17.892597 15.053487
-102.54168 17.90106 14.758656
-102.54099 17.922478 14.179679
-102.53844 17.942535 13.607879
-102.54519 17.988564 12.491531
-102.5513 18.002443 12.218372
-102.53516 17.525829 22.168089
-102.53632 17.539959 21.808743
-102.54838 17.559982 21.462049
-102.56435 17.582035 21.122055
-102.56976 17.598087 20.777599
-102.57185 17.612156 20.434361
-102.57064 17.624252 20.092381
-102.56615 17.634384 19.751698
-102.54095 17.68153 18.098557
-102.55567 17.701668 17.790154
-102.52922 17.69862 17.458838
-102.53673 17.72607 16.842382
-102.54021 17.7395 16.537872
-102.54098 17.751305 16.234301
-102.53904 17.761494 15.931704
-102.53502 17.781515 15.333748
-102.53303 17.791407 15.038295
-102.53731 17.815607 14.458151
-102.5316 17.833851 13.881354
-102.54521 17.873243 13.040709
-102.53773 17.900078 12.206403
-102.52424 17.428904 22.14402
-102.53249 17.446814 21.790665
-102.56618 17.478638 21.461098
-102.57496 17.496567 21.115536
-102.5804 17.51251 20.771151
-102.56046 17.514263 20.411722
-102.57393 17.534382 20.080727
-102.56199 17.540279 19.734917
-102.52125 17.578279 18.073095
-102.53587 17.598206 17.765072
-102.52464 17.603611 17.443624
-102.53982 17.635118 16.832216
-102.54329 17.648434 16.527859
-102.53622 17.655748 16.220009
-102.53424 17.665815 15.917644
-102.53943 17.712574 14.738739
-102.5323 17.71932 14.44527
-102.52653 17.737341 13.868951
-102.52801 17.748707 13.585837
-102.51477 17.332508 22.117901
-102.52288 17.35022 21.764828
-102.55649 17.381798 21.435541
-102.55786 17.395525 21.0847
-102.56313 17.411253 20.740675
-102.55772 17.420958 20.39245
-102.54892 17.428652 20.045633
-102.55164 17.442568 19.71081
-102.54775 17.512314 17.757219
-102.52882 17.513374 17.431103
-102.53616 17.540312 16.815409
-102.53177 17.549145 16.506771
-102.5246 17.556324 16.19923
-102.53036 17.570631 15.901531
-102.51773 17.574572 15.596128
-102.52612 17.59017 15.304514
-102.52266 17.662395 13.289512
-102.52407 17.242527 22.099089
-102.52486 17.25617 21.740446
-102.58009 17.299437 21.428268
-102.55227 17.297138 21.055176
-102.55001 17.308678 20.705946
-102.55172 17.322248 20.363503
-102.53531 17.325735 20.011637
-102.5378 17.339462 19.677181
-102.51815 17.388561 18.033415
-102.53258 17.408171 17.725838
-102.52881 17.417625 17.409592
-102.5359 17.444309 16.794355
-102.53136 17.453033 16.485949
-102.53188 17.464462 16.183073
-102.53757 17.478666 15.885529
-102.53271 17.486931 15.584558
-102.52518 17.493618 15.284628
-102.52296 17.503166 14.989883
-102.52615 17.515642 14.700117
-102.52682 17.526644 14.411162
-102.54108 17.545158 14.1308
-102.51259 17.539732 13.832007
-102.5191 17.14378 22.068651
-102.53411 17.165123 21.721703
-102.55298 17.188438 21.381487
-102.55398 17.201881 21.031147
-102.55888 17.217314 20.687624
-102.53094 17.214682 20.323666
-102.55873 17.242334 20.004293
-102.55372 17.251944 19.664566
-102.51067 17.288193 18.0065
-102.54029 17.316093 17.708855
-102.51326 17.31274 17.378544
-102.53548 17.347704 16.773243
-102.5308 17.35634 16.465071
-102.51548 17.359003 16.15357
-102.52096 17.373058 15.856414
-102.52381 17.385574 15.56011
-102.52405 17.396561 15.264689
-102.52966 17.410439 14.974296
-102.51674 17.413965 14.676619
-102.50922 17.420401 14.384028
-102.51526 17.434284 14.100189
-102.51885 17.467451 13.25304
-102.51899 17.049368 22.046358
-102.53387 17.070555 21.699619
-102.57442 17.105516 21.376511
-102.56078 17.110987 21.015051
-102.55825 17.122324 20.666183
-102.5597 17.135681 20.324102
-102.55784 17.147104 19.983288
-102.53775 17.148476 19.633251
-102.50896 17.192366 17.986845
-102.53849 17.220098 17.689421
-102.53333 17.251394 16.754499
-102.53635 17.264231 16.451063
-102.52094 17.266842 16.139721
-102.52635 17.280804 15.842719
-102.50536 17.280153 15.533759
-102.52134 17.299759 15.247115
-102.51089 17.304726 14.948733
-102.52183 17.321404 14.663553
-102.50619 17.323338 14.36717
-102.50407 17.332655 14.079697
-102.51546 17.369997 13.237144
-102.52811 17.387224 12.963648
-102.51389 17.389486 12.680245
-102.48585 16.924284 22.36071
-102.51831 16.954975 22.024809
-102.54031 16.979904 21.683983
-102.59388 17.047234 20.672913
-102.5954 17.060596 20.330685
-102.58617 17.068008 19.984383
-102.56609 17.069405 19.634274
-102.48991 17.075794 18.275545
-102.49144 17.088257 17.958155
-102.52852 17.119968 17.665918
-102.50951 17.132357 17.0313
-102.52292 17.150892 16.731916
-102.5258 17.163599 16.428791
-102.5181 17.170422 16.122189
-102.52341 17.184273 15.825418
-102.49438 17.179222 15.512427
-102.51024 17.198677 15.226096
-102.52363 17.216702 14.940364
-102.5185 17.224495 14.647198
-102.5108 17.230789 14.355008
-102.49245 17.231152 14.059952
-102.50394 17.247843 13.781253
-102.53747 17.276613 13.514262
-102.49535 17.263647 13.214734
-102.50993 17.291964 12.665581
-102.50935 16.85614 21.998297
-102.53844 16.884764 21.663454
-102.4868 16.979664 18.257221
-102.51891 17.008636 17.959608
-102.50983 17.015203 17.638418
-102.48226 17.011629 17.309036
-102.49046 17.027342 17.00457
-102.51933 17.054197 16.714731
-102.52212 17.066801 16.411837
-102.49856 17.064972 16.096619
-102.51163 17.082985 15.804585
-102.53007 17.103849 15.517521
-102.49818 17.097191 15.205894
-102.50346 17.11071 14.916367
-102.51424 17.127161 14.631659
-102.50645 17.133385 14.339708
-102.49609 17.138126 14.048765
-102.49941 17.150282 13.766436
-102.49883 17.17042 13.204029
-102.49493 17.178411 12.924006
-102.48866 17.18503 12.644805
-102.48826 17.194811 12.369835
-102.49382 17.207813 12.098877
-102.47563 16.729692 22.31328
-102.50787 16.760008 21.977865
-102.55136 16.796204 21.654634
-102.49294 16.898945 17.92716
-102.49906 16.913698 17.616051
-102.52378 16.960808 16.702446
-102.5108 16.964848 16.390701
-102.50285 16.971504 16.084644
-102.50794 16.98514 15.788421
-102.51041 16.997265 15.493055
-102.51026 17.007883 15.198579
-102.49148 17.008299 14.896804
-102.4941 17.020262 14.608383
-102.50229 17.03517 14.324732
-102.49183 17.039858 14.034029
-102.50405 17.067074 13.474302
-102.49854 17.084349 12.913785
-102.4922 17.090929 12.634748
-102.4835 17.096146 12.35656
-102.4658 16.628647 22.28916
-102.48348 16.651142 21.942488
-102.53404 16.690945 21.625383
-102.49662 16.804863 17.916641
-102.49496 16.815416 17.600872
-102.49846 16.839865 16.982071
-102.52727 16.866497 16.692539
-102.51422 16.870527 16.380951
-102.522 16.88567 16.083899
-102.49541 16.882198 15.770292
-102.51368 16.902828 15.483776
-102.4895 16.900463 15.176893
-102.47858 16.905159 14.879624
-102.48916 16.921396 14.595551
-102.48112 16.927485 14.304242
-102.49483 16.945284 14.025547
-102.48991 16.952909 13.739832
-102.49066 16.963547 13.458729
-102.47852 16.987226 12.620152
-102.48625 17.001396 12.349054
-102.47829 17.016821 11.802098
-102.48238 16.541906 22.290672
-102.50014 16.564369 21.944
-102.5508 16.604069 21.6269
-102.49075 16.705799 17.903494
-102.51996 16.732805 17.607201
-102.50801 16.748953 16.978931
-102.55253 16.783897 16.698639
-102.54742 16.792194 16.391476
-102.54739 16.803129 16.089844
-102.54466 16.812513 15.789195
-102.53125 16.816078 15.485295
-102.51509 16.818066 15.1826
-102.51225 16.827127 14.88936
-102.50682 16.834707 14.597071
-102.49881 16.840818 14.30576
-102.48824 16.845463 14.015459
-102.4914 16.857443 13.733774
-102.50848 16.876869 13.460249
-102.49047 16.877277 13.172663
-102.49462 16.889593 12.896836
-102.48819 16.896122 12.618208
-102.47652 16.909626 12.06683
-102.47136 16.916649 11.793967
-102.47225 16.926901 11.525003
-102.46187 16.436081 22.264507
-102.48672 16.462164 21.923965
-102.55916 16.513111 21.62426
-102.45977 16.582193 18.193396
-102.48396 16.606495 17.891884
-102.49768 16.625147 17.586197
-102.54799 16.674343 16.995964
-102.56944 16.729591 15.796603
-102.57205 16.752369 15.206604
-102.55335 16.75293 14.904747
-102.54807 16.760578 14.612217
-102.54829 16.771101 14.324616
-102.56226 16.788919 14.045604
-102.53306 16.783508 13.748197
-102.53394 16.794163 13.467012
-102.53241 16.80345 13.186599
-102.52847 16.811378 12.906982
-102.52214 16.817951 12.628189
-102.51344 16.823177 12.350246
-102.51067 16.831545 12.076481
-102.49728 16.83411 11.800236
-102.48989 16.839863 11.528053
-102.48861 16.84885 11.259713
-102.4683 16.847498 10.986081
-102.47826 16.881477 10.198497
-102.45174 16.338505 22.254391
-102.46216 16.356886 21.902517
-102.5637 16.422756 21.626009
-102.4498 16.483582 18.185913
-102.48175 16.511826 17.889524
-102.46454 16.514008 17.564737
-102.56163 16.58765 17.003407
-102.57218 16.729841 13.204923
-102.57667 16.742231 12.928609
-102.56228 16.744448 12.64602
-102.55375 16.749733 12.367828
-102.55116 16.758142 12.093815
-102.53793 16.760777 11.817317
-102.53072 16.766581 11.544885
-102.53799 16.780119 11.279349
-102.51785 16.778858 11.005379
-102.52913 16.794455 10.743963
-102.52984 16.804312 10.480103
-102.51144 16.803823 10.211351
-102.49931 16.80666 9.9461451
-102.50202 16.817459 9.6868086
-102.47707 16.813267 9.420517
-102.50118 16.835556 9.1695061
-102.49763 16.842861 8.9115858
-102.47488 16.839718 8.6497526
-102.46718 16.844687 8.393055
-102.46816 16.254547 22.27029
-102.47881 16.272932 21.918352
-102.55151 16.323452 21.618984
-102.44564 16.387815 18.186022
-102.46227 16.407833 17.880013
-102.44505 16.409962 17.555521
-102.57027 16.730034 10.49861
-102.56558 16.74622 9.9720564
-102.56002 16.752516 9.7096586
-102.55232 16.75762 9.4478788
-102.5425 16.761538 9.1867371
-102.53912 16.768885 8.9285603
-102.51652 16.765825 8.6664629
-102.50898 16.770845 8.4095068
-102.508 16.779367 8.1551552
-102.52226 16.796087 7.9051347
-102.5 16.793053 7.6476979
-102.47568 16.78886 7.3910537
-102.47531 16.797588 7.1403365
-102.49033 16.814625 6.8931751
-102.46868 16.811777 6.6398807
-102.47114 16.821962 6.3916278
-102.44076 16.147873 22.251894
-102.46588 16.173594 21.911877
-102.44871 16.295717 18.191902
-102.45774 16.31163 17.881077
-102.45613 16.321871 17.566372
-102.57311 16.72624 7.9238753
-102.57017 16.742495 7.4180579
-102.56137 16.746634 7.1648593
-102.55926 16.754349 6.9137721
-102.52039 16.74222 6.6568794
-102.54043 16.761826 6.4111819
-102.47924 16.763741 5.4117303
-102.5072 16.787567 5.1687708
-102.49828 16.791424 4.921699
-102.50497 16.803722 4.6766357
-102.48348 16.800735 4.429297
-102.46885 16.801445 4.1831617
-102.47865 16.815401 3.9391522
-102.46902 16.818802 3.6940284
-102.46628 16.825941 3.4495554
-102.47045 16.83683 3.2054906
-102.46439 16.850771 2.7170277
-102.44558 16.055779 22.253231
-102.46356 16.077682 21.907509
-102.4315 16.191267 18.179192
-102.44051 16.207067 17.868671
-102.44665 16.221264 17.559095
-102.55019 16.70335 5.4255629
-102.56757 16.738655 4.688067
-102.55495 16.740475 4.4410458
-102.55798 16.750725 4.1957278
-102.55034 16.755207 3.9498551
-102.52324 16.749155 3.7032101
-102.5206 16.756315 3.4583876
-102.52487 16.76721 3.2139752
-102.50089 16.762804 2.9687848
-102.52779 16.785948 2.7249618
-102.49126 16.774725 2.4801507
-102.49683 16.78631 2.2358971
-102.47414 16.782568 1.9918125
-102.49352 16.801668 1.7471015
-102.48466 16.805435 1.5027711
-102.48271 16.812958 1.2581277
-102.45255 16.805134 1.0147738
-102.43346 15.95024 22.231867
-102.46585 15.979464 21.897999
-102.44102 16.096916 18.176281
-102.45006 16.112703 17.865839
-102.44842 16.122866 17.551517
-102.49088 16.546019 6.1582761
-102.44775 15.853791 22.223537
-102.43648 15.860796 21.85504
-102.5092 15.9104 21.556728
-102.50585 15.933493 20.854239
-102.43567 15.909839 20.458378
-102.43126 15.989095 18.153933
-102.44787 16.008821 17.848696
-102.43829 16.014977 17.529779
-102.44498 16.438929 5.6528578
-102.43037 15.739376 22.180412
-102.4551 15.764739 21.841253
-102.46184 15.780865 21.491604
-102.46481 15.807374 20.796127
-102.45364 15.813994 20.444891
-102.43895 15.81868 20.095188
-102.43582 15.829101 19.757757
-102.44044 15.889662 18.136011
-102.45689 15.909377 17.830923
-102.43932 15.911587 17.507345
-102.45734 15.649094 22.169081
-102.4455 15.656112 21.80102
-102.45921 15.67582 21.457434
-102.47689 15.697387 21.120602
-102.49125 15.717155 20.784784
-102.47993 15.723835 20.433556
-102.47258 15.732376 20.089277
-102.46935 15.742862 19.751774
-102.42709 15.780108 18.09984
-102.44324 15.799707 17.795124
-102.44096 15.809827 17.481571
-102.44688 15.542671 22.128685
-102.44198 15.553247 21.76676
-102.47746 15.58386 21.440565
-102.47282 15.594275 21.086903
-102.49433 15.617649 20.756929
-102.45285 15.609294 20.383976
-102.46762 15.629014 20.056454
-102.47166 15.643219 19.724586
-102.39394 15.651447 18.368971
-102.42041 15.676352 18.068827
-102.43633 15.695837 17.76441
-102.43378 15.705884 17.451162
-102.39687 15.69841 17.120104
-102.42693 15.434308 22.084076
-102.42898 15.448362 21.728352
-102.44947 15.471442 21.391098
-102.46663 15.492733 21.054827
-102.47303 15.508532 20.714022
-102.44611 15.507572 20.352486
-102.46817 15.53091 20.030663
-102.44932 15.533678 19.683002
-102.41966 15.577861 18.044392
-102.451 15.605074 17.749971
-102.41701 15.599328 17.417557
-102.41124 15.607665 17.105833
-102.42432 15.337907 22.060959
-102.44084 15.359102 21.716988
-102.45391 15.378456 21.374102
-102.45615 15.392308 21.026714
-102.4549 15.404287 20.680641
-102.45768 15.418119 20.341406
-102.45708 15.430146 20.003422
-102.45316 15.440376 19.666731
-102.38895 15.455807 18.323616
-102.40737 15.476562 18.018948
-102.43856 15.503607 17.724825
-102.41219 15.501757 17.39753
-102.40627 15.510029 17.086039
-102.41914 15.243991 22.039528
-102.44289 15.268614 21.701534
-102.44115 15.280565 21.347391
-102.43581 15.290592 20.994661
-102.47166 15.320779 20.676718
-102.45944 15.327134 20.326517
-102.4437 15.331594 19.977861
-102.43202 15.337923 19.636127
-102.42414 15.392646 18.015015
-102.42413 15.404019 17.701344
-102.3976 15.402076 17.374355
-102.40731 15.418077 17.072634
-102.41176 15.152637 22.019251
-102.44277 15.180616 21.687233
-102.45576 15.19964 21.344624
-102.45789 15.213207 20.997517
-102.44906 15.221251 20.646172
-102.43667 15.227401 20.296331
-102.44339 15.242804 19.964262
-102.43167 15.249001 19.622673
-102.38194 15.271035 18.29171
-102.40804 15.295296 17.992369
-102.42356 15.314227 17.688766
-102.40482 15.316087 17.366739
-102.41455 15.331949 17.06509
-102.40247 15.060744 22.000769
-102.43346 15.088486 21.668961
-102.45715 15.149282 20.300833
-102.47154 15.168296 19.974092
-102.45996 15.174465 19.632353
-102.37972 15.181149 18.28064
-102.39806 15.201386 17.976486
-102.40571 15.216273 17.668222
-102.38686 15.217994 17.346498
-102.40442 15.237562 17.049883
-102.40122 14.96961 21.988901
-102.43221 14.997187 21.657232
-102.38587 15.092785 18.275396
-102.40423 15.112917 17.971317
-102.39623 15.120037 17.65336
-102.37731 15.121685 17.331861
-102.41854 15.152761 17.049669
-102.39432 14.872405 21.9706
-102.45466 14.914009 21.662218
-102.40398 15.018465 17.960608
-102.40377 15.029368 17.647686
-102.36905 15.023327 17.316648
-102.44191 15.069706 17.053608
-102.441 14.813714 21.636108
-102.38855 14.916878 17.937725
-102.38819 14.927664 17.625105
-102.46572 14.986942 17.055285
-102.39697 14.686481 21.940472
-102.38126 14.819218 17.91909
-102.3808 14.829905 17.606699
-102.38942 14.725738 17.913303
-102.38106 14.732647 17.596106
-102.38148 14.623299 17.898029
-102.38088 14.633956 17.585941
-102.41368 14.178054 16.948828
-102.39408 14.088298 16.318396
-102.39468 14.099109 16.021715
-102.40878 14.11608 15.734852
-102.38808 14.127133 15.141942
-102.39417 14.140158 14.857656
-102.39769 14.151908 14.574155
-102.39864 14.162391 14.291469
-102.37616 14.171787 13.72093
-102.40298 14.194108 13.456148
-102.40755 14.215701 12.90935
-102.39352 14.218778 12.631735
-102.38793 14.2447 11.8248
-102.3814 14.251036 11.557301
-102.38115 14.26026 11.293712
-102.41312 14.284564 11.042942
-102.40845 14.291624 10.780325
-102.28552 13.714548 22.446758
-102.39249 13.97489 16.602509
-102.37679 14.109998 12.613399
-102.38296 14.24308 8.9726286
-102.38716 14.254032 8.7225132
-102.36282 14.251533 8.4661531
-102.35636 14.310192 6.7378812
-102.35129 14.316502 6.4931736
-102.38896 14.343035 6.2559872
-102.38895 14.351716 6.0129514
-102.40107 14.374781 5.5299478
-102.28079 13.612894 22.424877
-102.34357 14.30171 4.0755019
-102.3623 14.31918 3.8374312
-102.35209 14.322915 3.5976462
-102.36706 14.338603 3.359272
-102.36209 14.34482 3.1200428
-102.37329 14.358724 2.881351
-102.35552 14.358844 2.6420636
-102.35394 14.366657 2.4031756
-102.35948 14.377877 2.1642308
-102.37217 14.392509 1.9249855
-102.36492 14.397635 1.6858666
-102.37383 14.41048 1.4461732
-102.40788 14.435363 1.2050029
-102.41296 14.446419 0.96449888
-102.26801 13.50932 22.396162
-102.27724 13.415124 22.385538
-102.28391 13.564549 18.341051
-102.27428 13.605048 17.095541
-102.27655 13.317019 22.372467
-102.29801 13.339484 22.030418
-102.26646 13.459321 18.31953
-102.28023 13.510378 17.089638
-102.2647 13.2168 22.356489
-102.2935 13.24239 22.020557
-102.26152 13.361946 18.311274
-102.26717 13.409296 17.077188
-102.26563 13.124578 22.353987
-102.30188 13.153293 22.024033
-102.26286 13.269413 18.309637
-102.2837 13.301151 17.698053
-102.26865 13.316654 17.075857
-102.28242 13.03892 22.362057
-102.26695 13.045167 21.9907
-102.30714 13.075294 21.667755
-102.25731 13.173471 18.301514
-102.29295 13.200355 18.010504
-102.29404 13.212018 17.70014
-102.2841 13.21874 17.385996
-102.26303 13.220468 17.068336
-102.24873 13.507422 8.9041166
-102.24746 13.551248 7.6684318
-102.25465 12.933703 22.333904
-102.29091 12.962146 22.004236
-102.25912 13.080681 18.29813
-102.28596 13.125831 17.382841
-102.25685 13.124077 17.060453
-102.26692 13.282032 12.787807
-102.26625 13.310498 11.985875
-102.26203 13.355445 10.679241
-102.26212 13.373869 10.166868
-102.25104 13.414111 8.9034653
-102.2549 13.424767 8.6556425
