# .PCD v0.7 - Point Cloud Data file format
VERSION 0.7
FIELDS x y z
SIZE 4 4 4
TYPE F F F
COUNT 1 1 1
WIDTH 1325
HEIGHT 1
VIEWPOINT 0 0 0 1 0 0 0
POINTS 1325
DATA ascii
-97.431023 55.274288 18.131048
-99.639931 27.433903 18.461571
-99.694756 27.093554 18.358786
-99.52227 27.118689 2.1427903
-99.526978 26.712597 2.1395099
-99.851341 25.281321 18.18644
-99.908356 24.972775 18.102497
-99.969391 24.307396 17.911661
-99.79953 24.652937 9.2211733
-99.677917 25.021263 1.1837112
-99.953697 23.919941 17.788078
-99.98555 23.985882 17.446461
-99.965218 23.983141 17.07008
-99.969887 24.06031 16.000252
-99.963615 24.075434 15.642797
-99.962006 24.119719 14.940791
-99.955391 24.133993 14.589238
-99.929665 24.122852 14.228925
-99.901802 24.242958 11.841683
-99.89534 24.256416 11.505555
-99.869598 24.244093 11.162699
-99.836151 24.221371 10.818637
-99.853371 24.266119 10.496482
-99.845497 24.277321 10.1654
-99.948311 23.554897 17.681383
-99.952026 23.583458 17.322407
-99.931145 23.57991 16.948751
-99.947548 23.624662 16.602983
-99.973305 23.68148 16.264954
-99.974457 23.706167 15.912505
-99.95359 23.724913 15.199471
-99.942947 23.733789 14.846186
-99.924545 23.732388 14.490603
-99.933548 23.789091 13.811164
-99.926544 23.802217 13.467632
-99.906029 23.797516 13.118974
-99.905663 23.841101 12.447477
-99.897911 23.874611 11.778162
-99.888702 23.905832 11.113712
-99.78463 24.126165 5.6242461
-99.746857 24.220348 3.4151709
-99.725624 24.253798 2.4704909
-99.938255 23.259811 16.499832
-99.941101 23.286352 16.149359
-99.947632 23.317513 15.803208
-99.929245 23.316431 15.443486
-99.9375 23.349552 15.102302
-99.904724 23.395908 13.717622
-99.903252 23.415884 13.379787
-99.899879 23.433298 13.042582
-99.894623 23.44816 12.706036
-99.887482 23.460478 12.370178
-100.03717 22.339445 16.624577
-100.06709 22.420809 15.947619
-100.0499 22.421295 15.591616
-100.03641 22.426249 15.240394
-100.02083 22.42844 14.890285
-100.01495 22.442577 14.548074
-99.950485 22.370331 3.6956391
-99.955811 22.395872 3.3917322
-99.965714 22.427158 3.087853
-99.905373 22.370413 2.7811294
-99.918198 22.405352 2.477504
-99.876556 22.390806 1.8690226
-100.40592 17.912411 18.203579
-100.46827 17.996723 17.905128
-100.43065 18.014288 16.864071
-100.44762 18.087719 15.882047
-100.42039 18.095598 15.214705
-100.4002 18.092426 14.880927
-100.40346 18.113777 14.56293
-100.38532 18.112492 14.234977
-100.36501 18.10878 13.908213
-100.34253 18.102655 13.58267
-100.33738 18.114691 13.26827
-100.33671 18.131357 12.957871
-100.34057 18.152729 12.651258
-100.30324 18.13043 12.32687
-100.34693 18.132149 7.858202
-100.34602 18.147146 7.5697536
-100.32981 18.145905 7.2783504
-100.3186 18.149912 6.9891024
-100.30564 18.152012 6.7003379
-100.29774 18.159422 6.4134302
-100.3017 18.179398 6.1294074
-100.27673 18.168621 5.8407063
-100.25683 18.163177 5.5538435
-100.23521 18.155855 5.2675786
-100.22093 18.171921 4.7010851
-100.23443 18.077539 1.326314
-101.36513 6.690556 18.803558
-101.29652 6.4572272 18.725569
-101.29405 6.2640195 18.691452
-101.39922 6.3367906 18.44644
-101.36736 6.1264901 18.390068
-101.38309 5.9409742 18.360542
-101.35583 5.7156053 18.611814
-101.4241 5.7658901 18.341976
-101.45181 5.5849137 18.307549
-101.42729 4.9699712 18.763954
-101.57331 4.6975446 22.581873
-101.44735 4.4465103 18.333429
-97.413231 55.777977 17.929459
-97.40358 55.792336 17.47505
-97.388672 55.793861 17.018719
-97.351418 55.925106 14.36377
-97.385063 56.115551 13.089201
-97.441261 55.656078 18.368744
-97.477051 55.779621 17.951103
-97.452782 55.758972 17.484114
-97.434204 55.751762 17.024679
-97.419281 55.937103 14.383838
-97.373787 55.899872 13.490921
-97.351097 56.060452 10.916201
-97.339798 56.068638 10.487309
-97.312408 56.108456 9.209938
-97.498512 55.657299 18.397623
-97.362869 55.981575 10.490392
-97.302437 55.904907 9.6216383
-97.285751 55.969097 8.3571625
-97.347588 55.872181 9.6393471
-97.361771 56.010021 8.3842602
-97.299332 55.960716 7.1105223
-97.347389 55.927448 7.1312232
-97.308884 55.867271 6.7045422
-97.525009 55.274895 18.824476
-97.376488 55.880371 6.7232013
-97.283211 55.752953 5.4560046
-97.269547 55.752827 5.0389342
-97.351952 55.736401 5.878871
-97.335892 55.73048 5.4605236
-97.333603 55.75811 5.0448422
-97.388374 55.604744 6.7084699
-99.446571 29.799515 18.737015
-99.490128 29.600317 18.678848
-99.559662 29.42737 18.636253
-99.522339 29.144787 13.805633
-99.54747 28.401131 18.592245
-99.595123 28.220531 18.558002
-99.629547 28.020456 18.503593
-99.648804 27.80142 18.430225
-99.660652 27.576075 18.352169
-99.695381 27.635612 18.062826
-99.69973 27.659315 17.749983
-99.702042 27.680471 17.437971
-99.648964 27.331375 18.265125
-99.683502 27.390142 17.977156
-99.704742 27.433308 17.679811
-99.666458 27.406797 17.336554
-99.706825 27.47205 17.058966
-99.71064 27.494452 16.754351
-99.704475 27.54022 15.841054
-99.688683 27.539083 15.531495
-99.694557 27.563255 15.239473
-99.682968 27.583805 14.645536
-99.683334 27.601149 14.355679
-99.675903 27.6092 14.062761
-99.672661 27.62207 13.774408
-99.65284 27.696753 12.080202
-99.649689 27.709061 11.803409
-99.644882 27.71932 11.527224
-99.632988 27.752613 10.708108
-99.627869 27.762186 10.437122
-99.621155 27.769793 10.166699
-99.619087 27.782856 9.8993797
-99.5756 27.943062 6.2436152
-99.53846 28.046371 3.6960337
-99.65966 27.12055 18.20709
-99.654022 27.132193 17.886631
-99.69236 27.194607 17.604946
-99.66526 27.181076 17.272249
-99.682388 27.218674 16.977621
-99.709305 27.26753 16.692383
-99.679047 27.284355 15.765655
-99.674805 27.296482 15.465914
-99.674583 27.313171 15.171162
-99.686501 27.360626 14.595779
-99.668762 27.356503 14.295524
-99.673187 27.378174 14.011494
-99.675865 27.397697 13.728032
-99.664673 27.400888 13.43797
-99.669907 27.423212 13.159406
-99.673439 27.443462 12.881326
-99.65696 27.440134 12.593699
-99.657082 27.456192 12.316914
-99.64325 27.455761 12.034314
-99.65847 27.489414 11.768158
-99.641273 27.484844 11.487005
-99.628555 27.485449 11.209761
-99.620369 27.491304 10.936199
-99.622971 27.509813 10.668866
-99.611557 27.511705 10.396533
-99.611 27.526348 10.13014
-99.621384 27.553865 9.8692064
-99.605217 27.549927 9.5986376
-99.599998 27.558874 9.3335733
-99.593246 27.565937 9.0689964
-99.597542 27.586039 8.8092899
-99.59404 27.596855 8.5476809
-99.589035 27.605837 8.2864542
-99.582527 27.612986 8.0256319
-99.599838 27.648397 7.7725902
-99.590385 27.651957 7.5122976
-99.573097 27.646145 7.2508063
-99.579712 27.668749 6.9962997
-99.578537 27.682047 6.7402911
-99.588638 27.708763 6.4872851
-99.584587 27.718575 6.2314949
-99.566353 27.711418 5.9734592
-99.553032 27.710093 5.717164
-99.551033 27.722261 5.4634328
-99.560371 27.747984 5.2117643
-99.549149 27.749083 4.9572144
-99.56205 27.779058 4.7061968
-99.547989 27.776716 4.4519691
-99.564461 27.810982 4.2012448
-99.560349 27.820559 3.9484112
-99.542053 27.813074 3.6947253
-99.669159 26.927877 17.834044
-99.66703 26.943106 17.520327
-99.656982 26.949081 17.202978
-99.685677 26.999496 16.918699
-99.671547 27.000481 16.603222
-99.672966 27.019234 16.302195
-99.664017 27.042742 15.698387
-99.665527 27.061216 15.40415
-99.659187 27.07049 15.106584
-99.658806 27.102922 14.526073
-99.64682 27.105293 14.231179
-99.65715 27.13344 13.952362
-99.641495 27.131321 13.659233
-99.66658 27.176432 13.392387
-99.641243 27.162846 13.097373
-99.644638 27.18257 12.820847
-99.634079 27.185949 12.538126
-99.646378 27.215881 12.269362
-99.632401 27.215094 11.988078
-99.635246 27.233847 11.717035
-99.630264 27.243387 11.443418
-99.611214 27.236393 11.164559
-99.615372 27.256453 10.898127
-99.61171 27.2673 10.629274
-99.612709 27.283531 10.363657
-99.605873 27.290522 10.095835
-99.603729 27.302948 9.8311234
-99.600029 27.31349 9.5668583
-99.582191 27.307352 9.298358
-99.588005 27.328949 9.0397539
-99.579681 27.333876 8.7769585
-99.582489 27.351849 8.5188904
-99.571136 27.353096 8.2570152
-99.577316 27.374947 8.0014944
-99.575668 27.387547 7.7442198
-99.566185 27.390856 7.4854674
-99.567963 27.407415 7.2305222
-99.568291 27.42223 6.9757233
-99.560783 27.42775 6.7195954
-99.551819 27.431509 6.4638267
-99.566978 27.4638 6.2137322
-99.561539 27.471672 5.9596348
-99.529037 27.447435 5.7011819
-99.533524 27.467014 5.4500723
-99.543007 27.492517 5.1998792
-99.544662 27.508726 4.9485812
-99.544907 27.523249 4.6972618
-99.530907 27.520809 4.4445071
-99.528328 27.53194 4.1933761
-99.524338 27.541384 3.942281
-99.666496 26.766691 16.532024
-99.661751 26.778143 16.227848
-99.652214 26.800585 15.626711
-99.646843 26.827284 15.037601
-99.627861 26.837864 14.448035
-99.651871 26.88151 14.1778
-99.649925 26.895212 13.892587
-99.615715 26.871634 13.58971
-99.640663 26.916117 13.324406
-99.627235 26.916264 13.037974
-99.630447 26.935518 12.762836
-99.61348 26.93137 12.478154
-99.613281 26.946497 12.204327
-99.605209 26.952438 11.92788
-99.601654 26.963522 11.655302
-99.602676 26.979824 11.386366
-99.608322 27.001419 11.120849
-99.599869 27.006596 10.849953
-99.577248 26.995235 10.574203
-99.590645 27.025633 10.315639
-99.583641 27.03227 10.04933
-99.587669 27.051674 9.7886553
-99.577538 27.054531 9.5233889
-99.556786 27.07398 8.7380657
-99.554413 27.100048 8.2232008
-99.539696 27.111507 7.7077909
-99.549286 27.137007 7.4560165
-99.538239 27.138304 7.1991935
-99.551338 27.167871 6.949193
-99.550194 27.180714 6.6960244
-99.541176 27.184294 6.4416347
-99.543564 27.201227 6.1902742
-99.544525 27.216463 5.9389691
-99.524757 27.207296 5.6842875
-99.522858 27.219112 5.4334126
-99.538857 27.251997 5.1855836
-99.527679 27.252863 4.9338059
-99.52153 27.259624 4.6831589
-99.507515 27.257088 4.4319682
-99.504982 27.268085 4.1824017
-99.715935 26.555832 17.102545
-99.750404 26.611973 16.824438
-99.741722 26.619097 16.514992
-99.725029 26.616983 16.202255
-99.721245 26.645933 15.606145
-99.692421 26.629578 15.292765
-99.691612 26.644958 15.001344
-99.666183 26.64822 14.40914
-99.653633 26.649845 14.116576
-99.657516 26.670107 13.836333
-99.659637 26.688269 13.556672
-99.64772 26.690289 13.270423
-99.633995 26.690121 12.985135
-99.624649 26.694851 12.704269
-99.53418 26.968555 5.9155922
-99.793488 26.407663 17.082029
-99.718224 26.471802 14.37509
-99.711563 26.480196 14.086933
-99.715309 26.500273 13.807171
-99.692688 26.490366 13.513287
-99.692841 26.506165 13.235045
-99.722198 26.555014 12.975014
-99.738503 26.619699 12.161404
-99.723923 26.618334 11.882601
-99.726425 26.63632 11.614037
-99.714722 26.638041 11.33989
-99.701324 26.637747 11.066557
-99.692566 26.642656 10.796917
-99.688499 26.652843 10.530743
-99.625748 26.595873 10.240952
-99.631065 26.616619 9.9818649
-99.622116 26.620979 9.718008
-99.598831 26.608845 9.4499083
-99.593094 26.616743 9.1898375
-99.598618 26.637499 8.9347916
-99.615471 26.671215 8.6842823
-99.592346 26.658995 8.4210758
-99.606239 26.689243 8.1708202
-99.586487 26.680779 7.9108543
-99.578102 26.685326 7.6553388
-99.574684 26.695543 7.402029
-99.709473 26.226671 14.30003
-99.7024 26.234596 14.013241
-99.705803 26.254173 13.734848
-99.701256 26.264727 13.45337
-99.688713 26.266186 13.169079
-99.736549 26.335484 12.920871
-99.643654 26.380781 10.200295
-99.63604 26.386761 9.9370174
-99.633247 26.39813 9.6768579
-99.628883 26.407671 9.4171553
-99.616554 26.408092 9.1555872
-99.615524 26.421293 8.8992109
-99.696716 26.528048 8.671464
-99.661629 26.629652 6.1385961
-99.597206 26.569777 5.8771477
-99.609589 26.597914 5.6312337
-99.587906 26.586937 5.3797879
-99.57785 26.589264 5.1309214
-99.559822 26.582407 4.8814831
-99.617607 26.676609 4.394783
-99.601875 26.672356 4.146234
-99.547829 26.67915 2.911
-99.556351 26.702822 2.6649532
-99.530762 26.687044 2.4184735
-99.523392 26.692331 2.1722903
-99.698463 25.981878 14.226194
-99.69101 25.98933 13.940772
-99.736511 26.102104 12.860913
-99.597603 26.321705 6.0997114
-99.591736 26.328888 5.8514118
-99.633186 26.596899 1.9181467
-99.7705 25.909904 12.826762
-99.712662 26.079254 8.6050482
-99.785728 25.460478 17.07518
-99.880821 25.333651 17.081057
-100.40657 18.085552 18.509029
-100.45085 18.132875 18.246473
-100.4596 18.152683 17.957235
-100.45247 18.160088 17.6583
-100.41576 18.144466 17.339729
-100.43615 18.185396 16.784061
-100.44632 18.205681 16.509882
-100.43359 18.20809 16.221712
-100.41845 18.208483 15.934767
-100.41477 18.217672 15.658596
-100.37395 18.197847 15.360005
-100.39362 18.22497 15.104632
-100.36908 18.217564 14.82253
-100.37045 18.230236 14.559606
-100.34844 18.224575 14.284364
-100.33842 18.228159 14.018995
-100.31198 18.218807 13.746207
-100.32635 18.241268 13.499567
-100.31725 18.245277 13.241191
-100.31332 18.253262 12.987717
-100.30743 18.259619 12.735036
-100.35162 18.269144 8.9333658
-100.34515 18.274015 8.7041302
-100.32941 18.271542 8.4730225
-100.31963 18.273714 8.244957
-100.30056 18.26852 8.0152283
-100.30285 18.280106 7.7927141
-100.31125 18.29648 7.5725346
-100.29503 18.2934 7.3465338
-100.2849 18.295094 7.1230755
-100.25777 18.283308 6.8964968
-100.26767 18.300741 6.6793895
-100.25285 18.298611 6.4573894
-100.23647 18.29521 6.2359405
-100.24181 18.308971 6.0194535
-100.46402 17.735411 18.755104
-100.29801 18.313087 2.5777521
-100.28608 18.313013 2.363481
-100.27268 18.311771 2.1493871
-100.22652 18.284492 1.9362354
-100.30102 18.172974 1.505669
-100.29742 18.179548 1.2913741
-100.26883 18.166412 1.0785992
-100.3081 17.452841 1.0785986
-101.05304 10.560066 19.151632
-101.0604 10.433407 19.148634
-101.03955 10.292964 19.120352
-101.05135 10.163419 19.113529
-101.0306 10.015638 19.071377
-101.07864 9.9003019 19.077381
-101.14108 9.6729479 18.76973
-101.08475 9.5033169 19.004789
-101.07269 9.3662291 18.977703
-101.16191 9.4185057 18.749596
-101.0733 9.2381477 18.962021
-101.20216 8.9291306 18.743111
-101.20088 8.8055563 18.742138
-101.27156 8.5476656 23.026075
-101.19315 8.6793957 18.734161
-101.27911 8.4279966 23.026932
-101.2014 8.5594854 18.734999
-101.28894 8.3058815 23.026329
-101.20389 8.4345694 18.728588
-101.27944 8.1716242 23.006178
-101.19991 8.3036346 18.716938
-101.27491 8.0408401 22.992939
-101.20161 8.1764164 18.711311
-101.26067 7.91155 22.973686
-101.21607 8.0587521 18.71797
-101.27242 7.796566 22.981955
-101.20672 7.9345245 18.707884
-101.26342 7.6724601 22.969053
-101.197 7.8097258 18.696735
-101.24935 7.5423651 22.948483
-101.33385 7.589129 22.676371
-101.21137 7.6913109 18.702093
-101.26418 7.4232678 22.953892
-101.34186 7.4671297 22.675076
-101.2116 7.5672221 18.695011
-101.33218 7.3443155 22.660786
-101.20094 7.4438977 18.68235
-101.32524 7.2270064 22.656122
-101.22471 7.3376117 18.701721
-101.31471 7.1096611 22.655655
-101.31597 6.9963589 22.6696
-101.38431 7.0351887 22.38447
-101.29118 6.8722568 22.654991
-101.38074 6.9186625 22.389793
-101.38934 6.9348502 22.052807
-101.29239 6.7561345 22.655821
-101.38918 6.8048463 22.397198
-101.3979 6.8209963 22.060143
-101.30116 6.6434712 22.66086
-101.3769 6.6841278 22.382442
-101.37843 6.6975517 22.039009
-101.34138 6.814177 18.514706
-101.35779 6.5604424 22.360958
-101.38773 6.5841103 22.043747
-101.35136 6.7007995 18.518681
-101.33202 6.7365956 17.349667
-101.35118 6.4418507 22.35491
-101.38116 6.4653711 22.037764
-101.34474 6.5815516 18.513439
-101.37164 6.6022587 18.239346
-101.33325 6.6200857 17.35017
-101.34678 6.3301859 22.357428
-101.36259 6.3484254 22.027267
-101.34158 6.4687161 18.515913
-101.37634 6.4920626 18.247498
-101.38501 6.5058522 17.962778
-101.36722 6.5099092 17.662439
-101.32258 6.5040603 17.34717
-101.35157 6.2238355 22.36326
-101.36037 6.2393608 22.026522
-101.38697 6.2610102 21.71039
-101.32729 6.2638311 20.99268
-101.34273 6.2810326 20.680418
-101.32507 6.2863145 20.344542
-101.3633 6.3113413 20.059126
-101.33247 6.3552351 18.509357
-101.38278 6.3838925 18.252363
-101.36041 6.3863206 17.945141
-101.35821 6.3958726 17.656082
-101.34507 6.4013591 17.362726
-101.37634 6.4227681 17.103043
-101.35713 6.1239772 22.014841
-101.3837 6.1454372 21.698767
-101.40675 6.1655216 21.383625
-101.36041 6.161067 21.01272
-101.35394 6.1704345 20.681473
-101.35114 6.1809335 20.357864
-101.35966 6.1952753 20.047832
-101.3723 6.2109332 19.744976
-101.32076 6.2359877 18.492661
-101.35551 6.2588582 18.22444
-101.36413 6.2723179 17.939926
-101.35406 6.278995 17.645334
-101.32507 6.2787781 17.341133
-101.3721 6.3056445 17.09243
-101.38481 6.3201399 16.822685
-101.36271 6.3220415 16.53281
-101.36977 6.3343048 16.265041
-101.37411 6.3454967 15.99816
-101.36278 6.3697276 15.198281
-101.36384 6.0167003 21.662909
-101.36475 6.0290365 21.32892
-101.36187 6.0398836 20.996315
-101.36998 6.0543971 20.677603
-101.3671 6.0649266 20.353928
-101.39054 6.0844965 20.056015
-101.36556 6.0869932 19.722813
-101.32085 6.1147604 18.476831
-101.34772 6.134768 18.202993
-101.35616 6.1481624 17.918619
-101.35374 6.1576095 17.629704
-101.31665 6.1546636 17.320135
-101.34767 6.1757174 17.060793
-101.36811 6.192935 16.796644
-101.38589 6.2091174 16.533175
-101.36066 6.2099066 16.244614
-101.35671 6.2181592 15.972795
-101.35813 6.2282267 15.707057
-101.35687 6.2372417 15.442268
-101.3694 6.2510972 15.188176
-101.37035 6.2699375 14.672724
-101.35032 6.2718668 14.4071
-101.36113 6.2847843 14.160927
-101.3359 6.2846661 13.897525
-101.35028 6.2987223 13.657402
-101.34542 6.3057752 13.409204
-101.34669 6.3149624 13.166135
-101.34563 6.3232436 12.923828
-101.32716 6.3505411 11.96655
-101.27722 6.5048981 7.1271672
-101.36094 5.8912559 21.637438
-101.36159 5.9035797 21.30357
-101.37312 5.919486 20.983679
-101.36629 5.928906 20.652493
-101.36315 5.9394355 20.328941
-101.38636 5.9589238 20.031139
-101.33079 5.9947495 18.464109
-101.35756 6.0147057 18.190241
-101.34238 6.0199013 17.889061
-101.35542 6.0348363 17.611399
-101.30228 6.0264697 17.29101
-101.34103 6.0501933 17.037231
-101.36927 6.0701513 16.778507
-101.3708 6.0806317 16.504629
-101.36953 6.0900164 16.231758
-101.36544 6.09831 15.959928
-101.35041 6.1026349 15.684165
-101.35713 6.1145487 15.424444
-101.35303 6.12254 15.160701
-101.36282 6.1353688 14.907522
-101.3535 6.1413317 14.645679
-101.34155 6.1462703 14.384907
-101.36057 6.1621356 14.143414
-101.35199 6.1681113 13.889025
-101.34092 6.173111 13.635634
-101.34436 6.1832094 13.391892
-101.3284 6.1863046 13.140425
-101.35281 6.2037668 12.9108
-101.34073 6.2081027 12.665195
-101.35217 6.2208047 12.432541
-101.32682 6.2202373 12.184752
-101.32516 6.2281036 11.949643
-101.33874 6.2413983 11.722763
-101.34151 6.2507505 11.492636
-101.32461 6.252954 11.255935
-101.3231 6.2606525 11.027206
-101.31068 6.2643495 10.795702
-101.31385 6.2736282 10.571724
-101.30238 6.2935801 9.8999548
-101.30737 6.3424664 8.5977764
-101.30005 6.3475103 8.3820105
-101.29997 6.3551617 8.1692305
-101.28877 6.373908 7.5334115
-101.2814 6.3787608 7.322372
-101.28143 6.3863001 7.1138134
-101.36777 5.7801838 21.61743
-101.37563 5.7950382 21.289818
-101.37244 5.805963 20.957165
-101.36546 5.8154292 20.625944
-101.36217 5.825994 20.302359
-101.37778 5.8428688 19.998425
-101.34787 5.8987842 18.157761
-101.34034 5.9067469 17.862219
-101.36903 5.9271326 17.59556
-101.35454 5.9426699 17.021044
-101.35876 5.9542508 16.746231
-101.36015 5.9647393 16.472395
-101.38298 5.9826112 16.215025
-101.35445 5.9824615 15.927787
-101.34742 5.9897056 15.657078
-101.34583 5.9987555 15.3924
-101.36633 6.0154567 15.143256
-101.34293 6.0166798 14.8708
-101.33341 6.0226707 14.609087
-101.338 6.0335355 14.357685
-101.35693 6.0493779 14.116158
-101.34824 6.0554147 13.861747
-101.354 6.0664692 13.617106
-101.33189 6.0675979 13.360258
-101.32431 6.0737858 13.113079
-101.34866 6.0912108 12.88342
-101.31924 6.0895104 12.629656
-101.33054 6.1021852 12.397133
-101.32233 6.1078711 12.15731
-101.32927 6.1188784 11.926007
-101.32534 6.1259589 11.691521
-101.32799 6.1353269 11.461451
-101.31973 6.1407471 11.228401
-101.33578 6.1547956 11.00666
-101.3233 6.158596 10.774976
-101.32644 6.1679306 10.55081
-101.32756 6.176496 10.327175
-101.31484 6.1881123 9.8784857
-101.3279 6.2008314 9.6626682
-101.31207 6.2031183 9.4383497
-101.31227 6.2111306 9.2205153
-101.30152 6.2151499 9.0004063
-101.31601 6.2282429 8.7889957
-101.30143 6.2307997 8.5699968
-101.28493 6.2326131 8.3517065
-101.30299 6.2469087 8.143837
-101.30102 6.2539167 7.9313622
-101.2916 6.2658486 7.5077114
-101.28416 6.2707772 7.2965708
-101.35043 5.7603369 20.211714
-101.35101 5.7718859 19.895786
-101.34808 5.7820926 19.58115
-101.34385 5.8345847 18.074078
-101.32851 5.8397255 17.77306
-101.33355 5.8517332 17.490026
-101.33472 5.8723474 16.927074
-101.35493 5.889255 16.663124
-101.34023 5.8940258 16.378952
-101.33064 5.9004464 16.10124
-101.34258 5.9142118 15.83995
-101.33554 5.9213104 15.569432
-101.34216 5.933053 15.309871
-101.32967 5.9380679 15.041444
-101.33933 5.9506931 14.788502
-101.3215 5.9536629 14.52221
-101.33446 5.9672728 14.275619
-101.33662 5.9770436 14.025124
-101.32788 5.9829297 13.770984
-101.32513 5.9908247 13.52223
-101.31995 5.9977965 13.274348
-101.32092 6.0068493 13.031591
-101.33674 6.0210466 12.797897
-101.32452 6.0253363 12.552468
-101.32725 6.0348082 12.315992
-101.31039 6.0373197 12.072376
-101.32604 6.0512261 11.845098
-101.31339 6.0550928 11.606979
-101.32482 6.0674014 11.380772
-101.30779 6.0695939 11.144254
-101.30619 6.0771894 10.915701
-101.32022 6.0902715 10.694645
-101.31451 6.0963073 10.467255
-101.31564 6.1047201 10.243818
-101.30582 6.1091952 10.017757
-101.30291 6.1160784 9.7955265
-101.31598 6.1286116 9.5799074
-101.30915 6.1340127 9.3587151
-101.30939 6.1418896 9.1409969
-101.3077 6.1490431 8.9237633
-101.27689 6.1457343 8.6990089
-101.28953 6.1579313 8.4882355
-101.30946 6.1727228 8.2801733
-101.27284 6.1671925 8.0576334
-101.28914 6.1806197 7.8502026
-101.29452 6.1900992 7.6406083
-101.27973 6.192296 7.4269543
-101.2723 6.1971054 7.2160158
-101.21911 6.4022708 0.93192458
-101.32993 5.7360039 17.491783
-101.32328 5.7537241 16.923452
-101.33552 5.7677321 16.654272
-101.33693 5.7779441 16.380697
-101.32741 5.7843113 16.102982
-101.31499 5.7895799 15.82646
-101.32426 5.8021898 15.566168
-101.31448 5.8081598 15.296828
-101.32673 5.8216195 15.043175
-101.31155 5.8255515 14.775911
-101.3187 5.8370843 14.523934
-101.30659 5.8418941 14.263484
-101.31713 5.8544464 14.017761
-101.3253 5.8661075 13.772701
-101.30563 5.8680496 13.515174
-101.32602 5.8838091 13.280367
-101.30997 5.8868532 13.029073
-101.30006 5.8919497 12.78301
-101.31364 5.9051561 12.550104
-101.30775 5.9115157 12.309715
-101.31695 5.9230766 12.077984
-101.30655 5.9277396 11.839137
-101.30264 5.9346075 11.604925
-101.29655 5.9406505 11.371462
-101.28829 5.9458723 11.138771
-101.29555 5.9564795 10.913883
-101.30076 5.9663253 10.689485
-101.30394 5.9754119 10.465596
-101.29619 5.9806027 10.238981
-101.30426 5.9913187 10.019435
-101.30141 5.9981446 9.7972012
-101.29657 6.0042224 9.5755606
-101.28975 6.0095553 9.3545322
-101.29903 6.0205421 9.139822
-101.30645 6.0308337 8.9254293
-101.29383 6.0339928 8.7060213
-101.28838 6.0396481 8.4898958
-101.29015 6.0478344 8.2768192
-101.28094 6.0520825 8.0617104
-101.25128 6.0638871 7.4220996
-101.25307 6.071918 7.2134967
-101.22576 6.2627263 1.5364214
-101.21062 6.278501 0.93410808
-101.32842 5.6555309 16.375568
-101.327 5.6646342 16.103079
-101.31572 5.6796832 15.561261
-101.32238 5.691247 15.301847
-101.32645 5.7018399 15.043267
-101.31129 5.7057924 14.776004
-101.30176 5.7115707 14.514633
-101.30638 5.7221003 14.263576
-101.30853 5.7317095 14.013309
-101.32517 5.7462068 13.77279
-101.314 5.7511024 13.519648
-101.31741 5.7609253 13.276148
-101.31849 5.769875 13.033388
-101.30003 5.7720299 12.783095
-101.31365 5.785171 12.550189
-101.31644 5.7945175 12.313789
-101.29092 5.7940159 12.066339
-101.28917 5.8016663 11.831562
-101.29399 5.8115296 11.601259
-101.2879 5.817555 11.367877
-101.29726 5.8288879 11.142438
-101.30457 5.8394637 10.917468
-101.30097 5.8461967 10.689564
-101.29529 5.8521519 10.462335
-101.30538 5.8635564 10.242318
-101.30456 5.8711138 10.019512
-101.29276 5.8747902 9.7941856
-101.30592 5.887145 9.5786467
-101.27206 5.8830113 9.3487549
-101.28134 5.8939257 9.1342106
-101.28874 5.9041514 8.9199848
-101.26701 5.9041142 8.6980696
-101.29796 5.9225435 8.4925604
-101.28151 5.9242883 8.2743845
-101.26315 5.9253111 8.0569382
-101.27954 5.9385448 7.8495903
-101.25743 5.9381728 7.6333199
-101.26104 5.9468412 7.4243379
-101.26287 5.9548545 7.2156491
-101.21736 6.145503 1.336026
-101.22485 6.1553059 1.1346159
-101.3307 5.5339165 16.370245
-101.32606 5.560883 15.560941
-101.31193 5.5746651 15.028252
-101.32161 5.58707 14.775456
-101.31207 5.5928988 14.514012
-101.31041 5.6101966 14.007993
-101.31007 5.6188955 13.758547
-101.3158 5.629581 13.51433
-101.31064 5.6364908 13.266524
-101.31164 5.6454263 13.023844
-101.30169 5.6505642 12.777782
-101.30666 5.6607161 12.540805
-101.30938 5.6700435 12.304484
-101.30117 5.6755695 12.064937
-101.29942 5.6832428 11.830079
-101.29547 5.6901021 11.595948
-101.30693 5.7021909 11.369897
-101.29867 5.707458 11.137126
-101.28824 5.7119217 10.90515
-101.28454 5.7186441 10.677411
-101.31441 5.7368827 10.4637
-101.28877 5.7359476 10.230493
-101.28786 5.7434869 10.007853
-101.29395 5.7533965 9.7888756
-101.29807 5.7625942 9.5703259
-101.2822 5.7648201 9.3463745
-101.28241 5.7725782 9.1289043
-101.27163 5.7764788 8.9091635
-101.27709 5.7859821 8.6954403
-101.28982 5.7979808 8.4846611
-101.2733 5.7997704 8.2665739
-101.28235 5.8104262 8.0564766
-101.26205 5.8108168 7.8396144
-101.26743 5.8201375 7.630271
-101.26182 5.8255849 7.4190378
-101.21712 6.0244832 1.3307413
-101.1964 6.0241179 1.1308924
-101.19283 6.0299253 0.93009275
-101.31744 5.5072722 13.509421
-101.31222 5.5142207 13.261618
-101.30459 5.5202808 13.014714
-101.29456 5.5254574 12.768735
-101.30811 5.5385246 12.535902
-101.29343 5.5419888 12.291611
-101.29382 5.5504861 12.05613
-101.30076 5.5611382 11.825179
-101.2792 5.5620723 11.583563
-101.29105 5.5824127 11.128648
-101.28941 5.5899353 10.900256
-101.27678 5.5936589 10.669101
-101.28877 5.6057239 10.448793
-101.28984 5.6140208 10.225601
-101.2889 5.6215835 10.002962
-101.28595 5.6284142 9.7808962
-101.27198 5.6314244 9.5564184
-101.28311 5.6429944 9.3414869
-101.28329 5.6507716 9.1240177
-101.27246 5.6547251 8.9042797
-101.26879 5.6610961 8.6878853
-101.26321 5.6667733 8.4720154
-101.25573 5.6717587 8.2566881
-101.25554 5.6792207 8.0443401
-101.27189 5.6923652 7.8370695
-101.25318 5.7008038 7.4119983
-101.24564 5.7129817 6.9931097
-101.20531 5.9066567 1.1255279
-101.18289 5.9057856 0.92586327
-101.29936 5.4128151 12.531275
-101.28213 5.456821 11.124509
-101.28934 5.46735 10.899699
-101.28871 5.4831877 10.448238
-101.28979 5.4915042 10.225047
-101.28884 5.4990931 10.002408
-101.26788 5.4998531 9.7741671
-101.27191 5.5090332 9.5558672
-101.26495 5.5144424 9.3350935
-101.26509 5.5222197 9.1177912
-101.27242 5.5324001 8.9037304
-101.26874 5.538805 8.6873369
-101.26315 5.5445218 8.471467
-101.26484 5.55268 8.2586432
-101.26467 5.560174 8.0462112
-101.25346 5.5638604 7.8318586
-101.25881 5.5731792 7.6225996
-101.25314 5.5786939 7.4114547
-101.18845 5.7722545 1.3266808
-101.20533 5.7853494 1.1250057
-101.18289 5.7845688 0.9253428
-101.43116 4.9931746 22.276197
-101.42573 5.0037289 21.925917
-101.43813 5.0197339 21.59647
-101.45908 5.0500531 20.947523
-101.43047 5.0525661 20.596869
-101.4203 5.0607605 20.266558
-101.42149 5.0724125 19.949938
-101.40392 5.0779266 19.622574
-101.40268 5.1716652 16.968693
-101.41543 5.1856685 16.698769
-101.40106 5.1907787 16.414007
-101.39183 5.197443 16.1357
-101.38789 5.2057185 15.863658
-101.38112 5.2129784 15.592689
-101.38811 5.2246275 15.332667
-101.36755 5.2271876 15.058941
-101.36919 5.2369127 14.800841
-101.36826 5.245707 14.543631
-101.36476 5.2535753 14.287338
-101.37563 5.2660813 14.041067
-101.35009 5.2665491 13.77762
-101.33043 5.2688541 13.519868
-101.33391 5.2786975 13.27621
-101.32642 5.2848568 13.029069
-101.32517 5.2930012 12.786997
-101.32159 5.3003087 12.545716
-101.32442 5.3096666 12.309236
-101.32227 5.3420572 11.374007
-101.28537 5.3619494 10.450477
-101.29459 5.3808327 10.007816
-101.27111 5.4040117 9.1228619
-101.1851 5.6570787 1.1282535
-101.18153 5.6629424 0.92754227
-101.41429 5.0080209 18.425226
-101.38828 5.0404372 17.248703
-101.46129 5.1403208 15.120929
-101.45513 5.1474729 14.85714
-101.4547 5.1563921 14.599082
-101.4517 5.1643906 14.341939
-101.43765 5.1687183 14.081199
-101.41247 5.1693339 13.817122
-101.41879 5.1801224 13.571888
-101.41416 5.1872683 13.32306
-101.41571 5.1963606 13.079352
-101.40627 5.2017889 12.832261
-101.37231 5.2158017 12.100673
-101.36216 5.2207146 11.861265
-101.36734 5.2306066 11.630233
-101.35354 5.24227 11.162782
-101.37254 5.2442608 7.8755651
-101.37836 5.253561 7.6651163
-101.36601 5.2641115 7.2408943
-101.34779 5.2653294 7.0274968
-101.34634 5.2721014 6.8185887
-101.36176 5.2844772 6.6136732
-101.35677 5.2900262 6.4052963
-101.35085 5.3024082 5.9912572
-101.35934 5.3123994 5.7869368
-101.35671 5.3186564 5.5813036
-101.33356 5.318006 5.3733249
-101.34628 5.3293762 5.1708655
-101.33848 5.3338404 4.9660931
-101.31954 5.3345366 4.7605915
-101.32717 5.344162 4.5584831
-101.32368 5.3500323 4.3555045
-101.31851 5.3553205 4.152719
-101.31165 5.3600273 3.9501424
-101.30311 5.3641529 3.7477906
-101.29288 5.3676987 3.5456789
-101.29045 5.3738713 3.3442628
-101.28635 5.3794727 3.1429439
-101.26164 5.3780756 2.9412067
-101.27314 5.3889632 2.7406583
-101.26405 5.3928523 2.5397227
-101.27223 5.4026175 2.338953
-101.25035 5.4021449 2.1382589
-101.25521 5.4107819 1.9374158
-101.25841 5.4188576 1.7364283
-101.25994 5.4263706 1.5353117
-101.23145 5.4236183 1.3353783
-101.24855 5.4364696 1.1332719
-101.2262 5.4358149 0.93316031
-101.32616 5.2996664 2.3423271
-101.32326 5.3056641 2.1409421
-101.3139 5.3304386 1.3348372
-101.30866 5.3426609 0.93105048
-99.627243 28.714369 18.442614
-99.612518 28.270435 18.317953
-99.658035 27.904106 18.239616
-99.492111 27.074787 1.99244
-99.493469 27.098223 1.6375725
-99.812119 25.645908 18.075111
-99.839043 25.292603 17.97525
-99.619949 26.057493 1.2593167
-99.617607 26.076002 0.90913308
-99.850723 24.923817 17.871428
-99.910934 25.034271 17.123823
-99.898911 25.044704 16.729271
-99.602722 25.666161 0.90607393
-99.851532 24.547363 17.769274
-99.889069 24.609711 17.401167
-99.904922 24.649273 17.022299
-99.918327 24.686167 16.643915
-99.768669 24.941542 9.6040535
-99.874016 24.219734 17.292919
-99.863617 24.254011 16.51927
-99.88723 24.30081 16.150995
-99.862679 24.297554 15.759667
-99.874901 24.332329 15.389221
-99.865021 24.344038 15.009753
-99.859276 24.359922 14.634356
-99.870949 24.393814 14.268807
-99.860428 24.404512 13.894916
-99.854156 24.419521 13.52478
-99.825562 24.41115 13.147202
-99.82122 24.427954 12.781598
-99.834618 24.463198 12.424415
-99.825714 24.475067 12.059969
-99.801109 24.470419 11.691458
-99.801064 24.491362 11.333364
-99.778603 24.488756 10.969027
-99.774086 24.50486 10.612165
-99.801109 24.553993 10.26618
-99.778725 24.551218 9.906024
-99.801491 24.595798 9.5600843
-99.801826 24.616776 9.2084742
-99.786446 24.621164 8.8537178
-99.789284 24.644661 8.5045605
-99.783195 24.658718 8.1540403
-99.730827 24.684856 6.7549353
-99.802032 24.841219 5.3843603
-99.804436 24.863997 5.0396233
-99.784248 24.862789 4.6927633
-99.789368 24.888412 4.3487949
-99.963051 22.775475 11.054921
-99.966599 22.799212 10.707848
-99.933197 22.786385 10.350422
-100.32132 18.406164 17.19874
-100.32352 18.447226 16.475691
-100.31705 18.461231 16.113697
-100.36533 18.027861 18.238567
-100.34251 18.511747 8.9524117
-100.32668 18.515991 8.6246958
-100.25583 18.473906 8.2855844
-100.27319 18.50593 7.9680896
-100.27332 18.523413 7.6473727
-100.24101 18.513533 7.3210368
-100.22921 18.520864 6.9998212
-100.21175 18.458858 1.3157834
-101.27888 7.7845383 18.454403
-101.25048 7.469429 18.389166
-101.26089 7.1668696 18.330385
-101.28173 6.8643141 18.269278
-101.31588 6.5700788 18.217508
-101.35921 6.2857466 18.182013
-101.45399 5.8181376 22.5833
-101.4191 5.9798889 18.864763
-101.38667 5.9991784 18.148602
-101.40167 5.5014691 22.492868
-101.37782 5.6665568 18.795713
-101.42651 5.7203789 18.127085
-101.41607 5.2160506 22.452591
-101.4393 5.4322615 18.093113
-101.4887 5.158741 18.086134
-97.348885 55.600372 11.790337
-97.350044 55.631157 11.386165
-97.475868 55.090057 18.883619
-97.408676 55.678104 8.5504313
-97.406059 55.700779 8.1511097
-97.384422 55.684586 7.7474961
-97.378731 55.700897 7.3487663
-97.340897 55.65144 6.9437222
-97.319031 55.634525 6.5434513
-97.392822 55.544506 6.1401305
-97.376434 55.566551 5.3479304
-99.698151 27.373354 18.991781
-99.704575 27.263721 18.969213
-99.716537 27.161066 18.951149
-99.707115 27.035046 18.907738
-99.689766 26.884449 19.181131
-99.731575 26.937794 18.887011
-99.736443 26.822557 18.852098
-99.732544 26.702307 18.813814
-99.766006 26.617292 18.806347
-99.787178 26.520544 18.788204
-99.814987 26.429028 18.775265
-99.802254 26.303125 18.734116
-99.559074 26.83477 2.3932843
-99.826004 26.214365 18.720743
-99.817215 26.140491 18.668133
-99.798851 26.084415 18.600004
-99.817757 25.987345 18.583488
-99.843132 25.896868 18.570713
-99.75544 25.428719 9.8134069
-99.843689 24.964483 9.5271864
-99.732643 25.233305 1.329353
-99.843628 24.852629 9.5118599
-99.742744 25.118992 1.5723728
-99.731468 25.120161 1.3282902
-99.793228 24.67457 9.9949865
-99.763878 24.661406 9.7268209
-99.741936 25.005213 1.5714719
-99.738251 25.012907 1.3274646
-99.971275 24.344824 18.276663
-99.748795 24.897638 1.57039
-99.729919 24.892361 1.327456
-99.982048 24.241085 18.253719
-99.878212 24.485085 10.774605
-99.717621 24.757372 1.5698657
-99.713982 24.765062 1.3269917
-99.708725 24.771381 1.0840203
-99.98558 24.131908 18.226233
-99.900589 24.391052 10.766224
-99.731697 24.656277 1.5681337
-99.712807 24.651062 1.3262492
-99.707565 24.657387 1.0837138
-99.980591 24.016344 18.196569
-99.967781 24.047224 17.255566
-99.722992 24.535269 1.5700237
-99.719414 24.542965 1.327934
-99.706566 24.542864 1.0861979
-99.676834 24.528532 0.84563291
-99.9674 23.895487 18.163271
-99.979118 23.91869 17.858843
-99.954117 23.92576 17.223864
-99.698807 24.401281 1.573786
-99.695305 24.408976 1.3323933
-99.70549 24.428156 1.0900022
-99.967667 23.786371 18.139143
-99.992905 23.820276 17.844913
-99.988495 23.830332 17.531841
-99.954063 23.816198 17.200876
-99.712456 24.299959 1.57537
-99.709 24.30765 1.3342382
-99.703926 24.313993 1.0930083
-99.969635 23.676723 18.1129
-99.981155 23.699562 17.809231
-99.990227 23.720335 17.506357
-99.969353 23.717102 17.185287
-99.994156 23.750204 16.898453
-99.988983 23.759264 16.593641
-99.951317 23.550768 18.071407
-99.983093 23.589588 17.78307
-99.985176 23.604753 17.475744
-99.964096 23.601395 17.155136
-99.9655 23.451944 18.056688
-99.976761 23.474405 17.753853
-99.964966 23.478535 17.437319
-99.943642 23.474993 17.117321
-99.956444 23.337299 18.029947
-99.967613 23.359558 17.727566
-99.96257 23.368952 17.416323
-99.948044 23.370754 17.101461
-99.953094 23.228712 18.008749
-99.964218 23.250792 17.706749
-99.951416 23.267151 17.086163
-99.948799 23.158863 17.064095
-99.80928 23.579672 2.0641477
-100.06931 22.512989 16.992409
-100.07214 22.552881 16.102236
-100.06824 22.562294 15.807416
-100.05477 22.564341 15.509229
-100.06045 22.580816 15.225112
-100.04221 22.579018 14.929105
-100.02881 22.580788 14.638488
-99.995003 22.578688 14.060666
-99.974289 22.620518 12.687408
-99.965279 22.624922 12.415968
-100.00571 22.472912 14.332068
-100.01679 22.493044 14.060039
-99.989105 22.48365 13.769074
-99.978386 22.498516 13.217457
-99.995735 22.523111 12.955729
-99.910538 22.642075 8.5508595
-99.908951 22.651241 8.3038073
-99.89785 22.653036 8.0550833
-99.991631 22.359516 14.310399
-100.00994 22.385027 14.042829
-99.989479 22.381142 13.756159
-99.971252 22.390274 13.201449
-99.988556 22.414736 12.940129
-99.919724 22.514486 9.2918739
-99.981277 22.307339 12.922388
-99.938683 22.650154 3.9695578
-99.910904 22.596292 2.3091397
-99.91301 22.607836 2.0725989
-100.02296 22.320156 8.5521755
-99.964554 22.506033 3.0206952
-99.92157 22.492739 2.5471225
-99.933304 22.511616 2.310921
-99.943398 22.529243 2.0743721
-100.02783 22.223555 8.5503311
-99.96595 22.356068 4.2065706
-99.941635 22.347324 3.9681137
-99.915657 22.337288 3.7302287
-99.91523 22.366249 3.0230005
-99.906525 22.369349 2.7871325
-99.93589 22.401577 2.55181
-100.01729 22.116043 8.5409403
-99.965065 22.284088 3.4973221
-99.976501 22.312239 3.0258319
-100.03994 22.03224 8.5335083
-99.993378 22.097134 6.1001081
-99.945724 22.139378 4.196281
-99.966644 22.20373 3.0193586
-100.03906 21.930185 8.5203838
-99.97567 22.060698 4.1921291
-99.975151 22.070024 3.9563537
-99.972992 22.078106 3.7206285
-99.969177 22.084942 3.484972
-99.96373 22.090532 3.2494016
-99.956642 22.094879 3.0139356
-99.955887 22.104006 2.778758
-99.953499 22.111895 2.5435464
-99.933517 22.106487 2.3083353
-99.903931 22.0938 2.0735705
-100.02896 21.821701 8.5103188
-99.941772 21.856089 6.0777216
-99.989342 21.969397 4.1918845
-99.980865 21.972727 3.9556806
-100.0027 21.998772 3.7217627
-99.982941 21.993622 3.4852493
-99.977516 21.999216 3.2498529
-99.946472 21.985558 3.0137992
-99.945763 21.994669 2.7790575
-99.911438 21.978506 2.5439641
-99.907455 21.985144 2.309521
-99.909828 21.996567 2.0749843
-100.04151 21.731485 8.5079193
-99.962738 21.848635 4.1891127
-99.946289 21.845949 3.9529128
-99.920189 21.836035 3.7165954
-99.927086 21.860292 3.2484887
-99.920067 21.864597 3.0140665
-99.919426 21.873663 2.7799342
-99.957161 21.911472 2.5461695
-99.961235 21.924095 2.3115437
-99.971664 21.941492 2.0766506
-100.07759 21.659353 8.5092402
-99.925011 21.739801 3.7141008
-99.929314 21.752483 3.4803512
-99.964058 21.787815 3.2478807
-99.957069 21.792105 3.0133703
-99.988533 21.825037 2.779819
-99.978264 21.826883 2.5451348
-99.974373 21.833481 2.3106017
-99.968842 21.838854 2.0760701
-100.05204 21.539967 8.4906349
-99.948975 21.63751 4.1790357
-99.964607 21.658529 3.9460282
-99.994659 21.690226 3.7137535
-99.982933 21.691008 3.4787107
-99.969559 21.690556 3.2439289
-99.96257 21.694824 3.0096798
-99.978035 21.71574 2.7760527
-99.967766 21.717571 2.5418048
-99.971916 21.730104 2.3076994
-99.95034 21.723528 2.0737066
-100.0979 21.472311 8.4906797
-99.986656 21.564322 4.1753025
-99.978188 21.567545 3.9404023
-99.976105 21.57546 3.7062414
-99.96434 21.576229 3.4717231
-99.950928 21.575768 3.2374663
-99.95195 21.585955 3.0039933
-99.935257 21.58305 2.770139
-99.941048 21.596752 2.5368333
-99.953232 21.615194 2.3033278
-100.10436 21.375843 8.4786043
-99.976097 21.455322 4.1665182
-99.975639 21.464413 3.932653
-99.95742 21.460474 3.6978161
-99.977829 21.484861 3.4655211
-99.965027 21.346691 4.1582618
-99.947617 21.299814 2.5242095
-100.1405 20.759741 16.977896
-100.09058 20.893339 12.745446
-100.11968 21.086742 8.4512424
-100.11707 20.815226 12.745251
-99.993614 20.954035 2.0577016
-100.38409 18.173073 18.174091
-100.40051 18.195345 17.87977
-100.39958 18.20689 17.576107
-100.36629 18.198502 17.253635
-100.4043 18.233662 16.981901
-100.39518 18.239847 16.681475
-100.37585 18.239641 16.377501
-100.35375 18.237612 16.074909
-100.35162 18.247732 15.787518
-100.34694 18.256193 15.501115
-100.33212 18.258305 15.211292
-100.33006 18.268175 14.931395
-100.38708 18.068602 18.468155
-100.39814 18.25901 13.860742
-100.3844 18.261242 13.584949
-100.38399 18.271603 13.317982
-100.35773 18.26594 13.040381
-100.38437 18.292849 12.790106
-100.36939 18.293993 12.521806
-100.36806 18.303497 12.261632
-100.35662 18.306677 11.998692
-100.32701 18.298532 11.729859
-100.31921 18.30382 11.472217
-100.29322 18.297758 11.208898
-100.28119 18.30028 10.953012
-100.28325 18.311493 10.704088
-100.46716 18.023712 18.508492
-100.37708 18.294699 10.232026
-100.37341 18.302206 9.9839859
-100.36779 18.308445 9.7365341
-100.36021 18.313425 9.4896908
-100.32605 18.301849 9.2357931
-100.30631 18.299166 8.9880095
-100.3176 18.315718 8.7506418
-100.32707 18.331112 8.5134611
-100.27679 18.309275 8.2609243
-100.27425 18.317102 8.0226355
-100.27818 18.328934 7.7868156
-100.25568 18.333555 7.3103495
-100.34084 18.309378 6.8527246
-100.31236 18.319206 6.1481905
-100.31052 18.327204 5.9160523
-100.31536 18.339348 5.6854367
-100.2848 18.329363 5.4501433
-100.26932 18.328764 5.2178612
-100.26054 18.332325 4.9870691
-100.27534 18.350639 4.7593894
-100.23781 18.336163 4.5264554
-100.23232 18.341736 4.2974267
-100.22514 18.346231 4.0685949
-100.23317 18.360262 3.8411453
-100.20569 18.35199 3.611593
-100.20189 18.358574 3.3838675
-100.19641 18.364094 3.156235
-100.19771 18.373873 2.9289477
-100.18886 18.377266 2.7014661
-100.28475 18.369469 2.0189919
-100.42682 17.712027 18.743771
-100.18964 18.232183 1.5654166
-100.17924 18.234524 1.3384248
-100.1841 18.246418 1.1105826
-100.50051 17.655199 19.098412
-100.27495 17.464445 0.87937617
-101.342 6.9784851 18.862961
-101.35242 6.8951535 18.90344
-101.3623 6.8492312 18.946226
-101.35815 6.8266673 18.961433
-101.33025 6.7973838 18.960249
-101.34399 6.7803502 18.984198
-101.3578 6.7629533 19.007427
-101.33997 6.7363892 19.008739
-101.35133 6.6978235 19.045149
