# .PCD v0.7 - Point Cloud Data file format
VERSION 0.7
FIELDS x y z
SIZE 4 4 4
TYPE F F F
COUNT 1 1 1
WIDTH 540
HEIGHT 1
VIEWPOINT 0 0 0 1 0 0 0
POINTS 540
DATA ascii
-100.17075 55.380459 15.608845
-100.39568 35.451149 18.201651
-100.95976 17.925314 18.080658
-101.01586 18.001619 17.774319
-100.93884 17.590933 18.317251
-101.27052 18.038889 16.490919
-101.47253 18.034449 14.871181
-101.45596 18.035742 14.53639
-101.67966 18.013771 13.613113
-101.66778 18.019562 13.287721
-101.66716 18.036499 12.969549
-102.73508 16.516792 6.5446968
-102.74847 16.544157 6.2539105
-102.78333 16.015993 6.2271581
-102.80257 16.04776 5.9398289
-102.81992 16.077862 5.6522007
-102.89444 15.866298 5.6504068
-102.87273 15.861753 5.3579693
-102.88651 15.888324 5.070765
-102.70834 14.815736 7.0084825
-102.7111 14.832025 6.7232881
-102.71951 14.853064 6.4396143
-102.23881 13.975736 10.580687
-102.22144 13.975514 10.284348
-102.80424 14.655616 6.4265437
-102.78793 14.655846 6.1394029
-102.23244 13.706765 10.531372
-102.21472 13.70641 10.236387
-102.40631 12.610991 9.5476379
-102.82323 12.563439 6.8233514
-102.79414 12.554585 6.5420437
-102.71049 11.928187 7.8629017
-102.76045 11.991198 7.3239756
-102.735 11.985332 7.044446
-102.44473 10.933278 9.3661308
-102.59093 11.088104 8.3117895
-102.58797 10.836181 8.5565557
-101.69531 9.4561033 14.90121
-101.99203 9.7351646 13.300075
-101.98923 9.7461805 13.01172
-102.21847 8.8232594 11.501715
-102.85165 8.7331829 7.5860167
-102.87833 8.7616196 7.3284059
-101.29186 6.0711312 18.655291
-101.27771 5.8698559 18.604183
-101.3311 5.5071263 18.540083
-101.2994 5.29704 18.459764
-101.30212 5.1072507 18.40786
-101.3241 4.930439 18.374117
-101.28868 4.7114944 18.621426
-101.33588 4.7485905 18.338917
-101.3576 4.5795403 18.313614
-101.83647 4.9582849 15.302298
-101.82166 4.9628682 15.006207
-101.83641 4.982275 14.728415
-101.36945 4.3950591 18.594677
-101.98308 4.8858228 14.486465
-101.97694 4.8945351 14.200894
-101.96004 4.8977733 13.912269
-99.778679 55.57008 18.015505
-99.872543 55.599926 17.571737
-100.51466 55.429043 13.001159
-100.7337 55.296268 11.736143
-100.73582 55.338409 11.293826
-100.94579 48.235237 11.874148
-101.07413 46.627571 11.149049
-100.65916 45.32048 13.970403
-100.6969 45.076519 13.917286
-100.7021 44.744102 14.235961
-100.87599 44.831059 13.122252
-100.10979 41.81176 18.853167
-100.11726 40.308853 18.775877
-100.19292 40.145809 18.752655
-100.18924 38.939125 18.699995
-100.52054 39.626129 16.73815
-100.50942 39.633694 16.364967
-100.24926 38.757488 18.650419
-100.48231 39.25692 16.987011
-100.49246 39.298393 16.629543
-100.45744 38.938007 16.881729
-100.45023 38.622047 17.155033
-100.55101 38.524754 16.781408
-100.57594 38.588127 16.438753
-100.579 38.617138 16.082211
-100.72292 38.604408 15.382672
-100.33942 37.238884 18.165762
-100.37218 37.312939 17.830164
-100.33692 36.964626 18.088444
-100.5013 37.28503 17.139009
-100.51847 37.038891 17.082947
-100.84668 17.846203 18.716356
-100.94561 17.726587 18.738304
-101.32107 18.135647 16.093466
-101.29673 18.129784 15.797099
-101.3054 18.148531 15.525181
-101.51503 18.155817 14.515637
-101.69807 18.152105 13.250454
-101.69339 18.160358 12.98758
-102.02032 18.099747 11.048521
-102.01244 18.116716 10.548274
-102.02501 17.912483 11.030959
-102.66414 16.583273 6.7649636
-102.63482 16.004194 7.4465728
-102.59208 15.9865 7.2036328
-102.34512 15.556029 9.4751616
-102.35691 15.392725 9.4652948
-102.3429 15.213889 9.4477034
-102.34399 15.046519 9.4350996
-101.82306 14.246794 12.830199
-101.9113 14.310493 12.62324
-101.80307 14.046006 13.561638
-101.78693 14.04719 13.298884
-101.79215 14.06098 13.04918
-101.78883 13.871147 13.794162
-101.78211 13.888602 13.281074
-101.79518 13.906894 13.035756
-102.68468 12.770703 7.7788115
-102.66069 12.76727 7.5454111
-102.67799 12.786112 7.3224134
-102.69355 12.804 7.0993838
-101.08842 10.850938 19.189615
-102.67522 12.184164 7.3385439
-101.10308 10.719367 19.198605
-101.1484 10.754177 18.933519
-102.69823 12.038973 7.5742188
-101.14195 10.61588 18.922174
-101.12759 10.478181 18.90176
-101.12869 10.347866 18.891325
-102.57919 11.519598 8.2188168
-101.1333 10.214473 18.878736
-101.12708 10.073204 18.848639
-101.64878 10.479085 15.288856
-101.69733 10.512959 15.054621
-101.13114 9.9369469 18.819431
-101.58717 10.309883 15.224122
-101.14838 9.79667 19.100834
-101.14211 9.8059168 18.795866
-101.57301 10.133 15.987064
-101.1549 9.6671658 19.080374
-101.5786 10.001048 15.968163
-101.16662 9.5526237 18.770599
-101.17743 9.2966824 18.745661
-101.18311 9.1725492 18.737959
-101.19447 9.0506954 18.739241
-101.1048 7.8698888 19.227768
-101.44393 8.0875225 17.432125
-101.4824 8.1142235 17.176651
-102.07006 8.5305939 13.055366
-101.10252 7.7485204 19.222296
-101.43429 7.9616823 17.421694
-101.41815 7.8302712 17.404863
-101.49567 7.8723269 17.176668
-101.4184 7.7056079 17.398132
-102.23214 8.2841311 11.420009
-101.39989 7.5782495 17.380718
-101.50098 7.6290278 17.168951
-101.4382 7.4655824 17.693071
-101.39373 7.4592023 17.377192
-101.48711 7.506536 17.16012
-102.12157 7.9480891 12.571393
-101.20009 7.2137074 18.690382
-101.41377 7.3405814 17.682642
-101.37707 7.3372388 17.372425
-101.49416 7.3933415 17.171677
-102.1322 7.832437 12.581622
-101.18855 7.0947328 18.691814
-101.42615 7.2296886 17.701025
-101.38964 7.22646 17.39065
-101.4756 7.2701349 17.168243
-101.40884 7.1067524 17.695276
-101.46626 7.1499248 17.168184
-101.39767 6.9739408 17.974428
-101.41105 6.9897552 17.696089
-101.46862 7.0326991 17.168997
-101.39214 6.8548684 17.967188
-101.3899 6.864759 17.677851
-101.4631 6.9132419 17.161964
-101.95706 7.2379894 13.744172
-101.41005 6.744205 17.976618
-101.39229 6.7483401 17.676067
-101.4735 6.7994924 17.16556
-101.96032 7.1195574 13.74232
-101.98233 7.1464314 13.253607
-101.38017 6.6161418 17.9547
-101.40136 6.634551 17.682106
-101.48284 6.6854434 17.171452
-101.97129 7.003931 13.747134
-102.01669 6.9140816 13.521858
-101.31349 5.8762274 18.425861
-101.31715 5.8149319 18.347803
-101.29775 5.6942539 18.338095
-101.32447 5.7137041 18.06451
-101.16125 5.4869475 19.438593
-101.29958 5.4533401 18.332882
-101.3279 5.0965915 18.352575
-101.49687 5.0651298 17.608545
-101.49233 5.0836616 17.036995
-101.95572 5.0857053 14.632186
-101.93558 5.0882921 14.362168
-101.35821 4.6192708 18.702908
-100.84813 39.378937 14.613721
-100.83936 39.398041 14.149355
-100.33252 36.798725 18.122885
-100.62717 36.30069 16.665085
-100.67533 36.397812 16.240177
-100.61772 35.75972 16.984249
-100.60072 35.765991 16.527699
-100.94339 18.164448 18.117586
-100.96358 17.803648 18.410936
-101.72462 18.363684 12.917565
-102.07387 18.385975 10.886781
-102.04044 18.378292 10.534964
-102.29924 18.306705 8.8434544
-102.64691 16.876488 6.7083187
-102.76582 16.268856 6.3468928
-102.67444 15.095339 7.2065005
-102.39527 13.065458 9.205184
-101.70304 10.072979 14.531353
-101.27104 8.3845015 18.536444
-102.1941 9.1945601 11.977186
-102.16187 9.1930866 11.650614
-101.19316 7.1185842 18.641256
-101.30103 5.3418536 18.709066
-101.34248 4.7883401 18.323404
-101.98563 5.2645631 14.004765
-101.97212 5.273912 13.682298
-101.36963 46.241982 8.9920273
-101.35515 46.007256 9.323595
-101.37731 46.061447 8.964797
-101.36585 45.811115 9.6616936
-101.37309 45.843266 9.2991447
-101.36739 45.856422 8.9335356
-101.36842 45.646099 9.271678
-101.37379 45.675381 8.9103374
-101.36715 45.432934 9.611062
-101.35752 45.440285 9.2458944
-101.36035 45.234783 9.590971
-101.36189 45.258236 9.2302446
-101.35599 45.058994 9.2128592
-101.21168 42.551807 11.107658
-101.19923 42.554287 10.753428
-101.29154 42.509724 10.774413
-101.25423 42.478069 10.412545
-101.32508 42.402531 10.418084
-101.05133 38.533424 13.173322
-101.0543 38.373444 13.145296
-101.01836 38.149574 13.43464
-101.03026 38.006084 13.41336
-101.04353 38.041195 13.085118
-101.02596 37.825253 13.721378
-101.01691 37.832901 13.381987
-101.03011 37.867771 13.054752
-101.01822 37.660931 13.689833
-101.02723 37.690571 13.360093
-101.05255 37.740097 13.039186
-100.30685 36.335705 19.076328
-101.00426 37.509949 13.649077
-100.35384 36.472248 18.701948
-100.26074 35.6124 18.764246
-100.71258 36.295948 16.285379
-100.2811 35.490128 18.73621
-100.29836 35.357182 18.705832
-100.32095 35.229416 18.682163
-100.35236 35.117058 18.668009
-100.36949 34.991825 18.647078
-100.39143 34.873009 18.632042
-100.41792 34.760784 18.623125
-100.64487 35.115002 17.047281
-100.43162 34.635616 18.60573
-100.43736 34.505165 18.584143
-100.6349 34.82246 16.993742
-100.60037 34.630291 17.288303
-100.62755 34.67923 16.965046
-100.62225 34.691296 16.622444
-100.609 34.372177 17.245729
-100.61129 34.235054 17.216032
-100.35593 33.430008 18.611334
-100.38876 33.321022 18.586809
-100.41237 33.205078 18.562086
-100.42146 33.075237 18.532179
-100.44044 32.959377 18.512856
-100.53167 33.076267 18.235285
-100.5417 33.105114 17.900465
-100.45203 32.83794 18.488846
-100.51894 32.928093 18.194242
-100.54266 32.989292 17.531115
-100.45261 32.703289 18.454269
-100.52563 32.799652 18.164677
-100.52315 32.814743 17.822594
-100.46016 32.574265 18.423981
-100.52093 32.657158 18.126181
-100.46139 32.438656 18.389084
-100.49752 32.494984 18.074396
-100.52543 32.542458 17.755472
-100.45523 32.298119 18.34898
-100.49741 32.360653 18.039379
-100.49121 32.204773 18.338833
-100.50261 32.234474 18.007484
-100.91419 18.130686 18.172581
-100.91553 18.027756 18.470566
-101.29204 18.175123 15.960606
-101.28835 18.184076 15.6671
-100.90076 17.621418 19.011791
-100.94688 17.660568 18.728125
-101.53181 18.176811 14.616066
-101.51611 18.178345 14.325562
-101.61449 18.16877 13.519809
-101.76779 18.182821 13.029708
-101.76222 18.190081 12.75401
-101.75436 18.19591 12.479148
-102.06626 18.172718 10.461071
-102.28724 18.173872 8.7019234
-102.45562 18.096933 8.2204876
-102.46117 18.109762 7.9662971
-102.45624 18.116507 7.7104816
-102.46718 18.007959 8.2196789
-102.46428 18.015839 7.9636083
-102.46789 18.027435 7.7098417
-102.47806 18.042786 7.4581428
-102.45028 17.912376 7.9546986
-102.46241 17.928755 7.7031517
-102.44864 17.825686 7.6925392
-102.58562 16.741896 7.673605
-102.64005 16.69039 7.1840539
-102.63811 16.69817 6.932364
-102.61678 16.695526 6.6779337
-102.82586 16.650406 5.4551826
-102.8718 16.683697 5.2114115
-102.87195 16.692591 4.962234
-102.80283 16.510885 6.1902733
-102.89928 16.58876 5.4538131
-102.92766 16.61273 5.2074752
-102.93655 16.626371 4.9588828
-102.9347 16.634317 4.7094183
-102.91998 16.499134 5.442337
-102.95708 16.527706 5.197001
-102.97469 16.546005 4.949245
-102.99919 16.567945 4.7021275
-102.98652 16.570257 4.4516425
-102.79141 16.305294 6.1594024
-102.78134 16.30909 5.9085031
-102.77811 16.316435 5.6592045
-102.95083 16.425039 5.1826181
-102.9948 16.45717 4.9378834
-102.93515 16.318253 5.1688418
-103.06127 16.411367 4.4334865
-102.8896 16.188847 5.4046149
-102.90009 16.203356 5.1570959
-102.89098 16.207682 4.9076977
-102.90368 16.090611 5.6491618
-102.89845 16.096941 5.399436
-102.89127 16.102243 5.1499939
-102.90849 16.015215 5.1469913
-102.93481 16.037642 4.9015131
-102.91604 15.923477 5.1448345
-102.99562 15.972972 4.9049296
-103.06049 16.023813 4.4134831
-102.9945 15.876076 4.9028196
-103.06837 15.93121 4.4124594
-102.9051 15.724755 5.1387229
-102.99377 15.778328 4.9001641
-103.07664 15.837763 4.4108901
-102.88617 15.618042 5.1315718
-103.0105 15.689282 4.8970051
-102.88505 15.520305 5.1256952
-103.00059 15.586782 4.8903718
-103.03905 15.623375 4.3979006
-102.99983 15.487499 4.8877339
-103.05618 15.532911 4.3970885
-103.02529 15.400861 4.8883033
-103.04107 15.417372 4.6418762
-103.02811 15.419637 4.393054
-103.02438 15.300452 4.8853049
-103.03123 15.31252 4.638226
-103.00037 15.305984 4.3881888
-102.96944 15.173851 4.8793268
-103.04787 15.22095 4.6395512
-103.0349 15.22328 4.3909907
-102.83283 14.963546 6.1007047
-102.84042 14.9759 5.8542314
-102.82818 14.978616 5.6054845
-102.87558 14.884156 6.1074467
-102.86537 14.887905 5.8581915
-102.86211 14.894989 5.6105323
-102.94183 14.83274 5.6150398
-102.93664 14.838939 5.3670435
-103.01781 14.794722 4.8742094
-103.06063 14.823974 4.6313028
-102.67089 12.7917 7.9899459
-102.66712 12.799205 7.7400379
-102.66129 12.805793 7.4905715
-102.73416 12.741603 7.5063858
-102.72639 12.747359 7.2567797
-102.70749 12.748353 7.0059724
-102.82368 12.711496 6.7796946
-102.82811 12.722361 6.5335798
-103.01801 12.743426 5.5764542
-102.95773 12.613352 5.8153791
-103.01844 12.647746 5.5772901
-102.68613 12.333463 7.7428713
-102.68948 12.34388 7.4955173
-102.71955 12.161571 7.7506728
-102.70483 12.16455 7.4994321
-102.688 12.16663 7.2488241
-102.85419 12.177904 6.2978654
-102.98843 12.158409 5.8315148
-102.93925 12.1473 5.5794783
-102.96794 12.051073 6.0802197
-102.97601 12.063223 5.8353205
-102.97288 12.070828 5.5893221
-102.97224 11.972662 5.8414788
-102.95998 11.976533 5.5943875
-102.96696 11.883178 5.8495188
-102.96401 11.890727 5.6036901
-102.97209 11.789581 6.102469
-102.9436 11.786959 5.8525796
-102.99607 11.816499 5.6141124
-102.97675 11.705471 6.1046219
-102.94827 11.702937 5.8547316
-102.92549 11.600252 6.0965633
-102.94308 11.61591 5.8535485
-102.94945 11.627147 5.609252
-102.95571 11.537312 5.8575506
-102.60906 11.235182 8.2670975
-102.94582 11.461655 5.6160917
-102.59394 11.057844 8.7788334
-102.58817 11.064368 8.5271263
-102.5985 11.077003 8.2802439
-102.605 10.995909 8.54004
-102.60635 11.005048 8.2908468
-102.61263 10.934739 8.3018742
-102.73761 10.999076 7.8321586
-102.76053 11.016263 7.5885935
-102.60059 10.858777 8.3081779
-102.64165 10.795344 8.576479
-101.68108 9.702261 15.101218
-101.68213 9.6453819 15.109211
-101.69855 9.6601877 14.836372
-101.68375 9.5869255 15.115781
-101.68322 9.5957432 14.834262
-101.69554 9.5300798 15.125327
-101.68656 9.5359926 14.839351
-101.99303 9.6970224 13.331024
-101.71596 9.4767447 15.139134
-101.70061 9.4214954 14.854377
-102.16097 9.0604639 11.779895
-102.20108 9.0309162 11.534254
-102.20178 9.0400782 11.273325
-102.51048 9.0011644 9.8531752
-102.49612 9.004796 9.5935841
-102.49779 9.0138264 9.3397741
-102.49905 8.963995 9.3414097
-102.66628 8.9041014 8.631115
-102.6551 8.8570881 8.6323662
-102.82305 8.9567642 7.4130673
-102.50388 8.7389984 9.3577013
-102.64832 8.8049202 8.8875771
-102.68996 8.82761 8.6445217
-102.68372 8.8427906 8.1388531
-102.93387 8.9702473 6.9370461
-102.97796 8.9937458 6.6950345
-103.00132 9.0102167 6.4495764
-102.63643 8.7621078 8.8884411
-102.66885 8.7816677 8.6431456
-102.93817 8.9412136 6.6912403
-102.92405 8.9449415 6.4401608
-102.64097 8.7274532 8.8969412
-102.65501 8.7407684 8.6469946
-102.94609 8.8985634 6.94837
-102.92481 8.8998423 6.6951165
-102.92948 8.9098721 6.4469762
-102.64931 8.7050543 8.6562395
-102.67121 8.729331 8.1567841
-102.92247 8.8560209 6.9537849
-102.91999 8.863554 6.7037301
-102.90603 8.8671789 6.4525547
-102.93684 8.8859386 6.2088633
-102.90788 8.8179379 6.9614687
-102.9242 8.8317156 6.7145362
-102.90099 8.8321114 6.4617052
-102.90452 8.8014898 6.471199
-102.85582 8.4152164 7.5126648
-102.85896 8.4317608 7.0084538
-102.86552 8.3971825 7.010325
-102.87328 8.4074783 6.7601037
-102.87973 8.3493013 7.5136991
-102.88239 8.357933 7.2610092
-102.86421 8.3595791 7.0053058
-102.8813 8.3729877 6.7565699
-102.95618 8.4134083 6.2661347
-102.90091 8.3260889 7.2554932
-102.87331 8.3246517 6.9978819
-102.8694 8.2693167 7.4968309
-102.89059 8.2842169 7.2475348
-102.87228 8.2859354 6.9915862
-102.89861 8.3025188 6.7441506
-102.87731 8.2338753 7.4964433
-102.91719 8.2550163 7.2504511
-102.87082 8.2474384 6.989203
-102.88776 8.2609129 6.7401118
-102.87589 8.1959753 7.4937196
-102.86903 8.2015762 7.2389479
-102.85999 8.2064276 6.9846568
-102.88628 8.2230091 6.7371283
-102.86444 8.1557541 7.4889913
-102.91363 8.1799517 7.2446365
-102.88592 8.178606 6.9865298
-102.96804 8.2293978 6.2438025
-102.85721 8.1100149 7.7422299
-102.88049 8.1255951 7.4924626
-102.92038 8.1466722 7.2461109
-102.88333 8.1422081 6.9861836
-102.89091 8.1525288 6.7350903
-102.88668 8.0922441 7.4972019
-102.88923 8.1009092 7.2437358
-102.8709 8.1026287 6.987278
-102.85537 8.0463734 7.4933472
-102.86724 8.0581226 7.2417893
-102.86762 8.0660496 6.9887176
-102.8651 8.0210943 7.2404051
-102.85609 8.02596 6.985599
-102.86076 7.9759917 7.4904337
-102.87257 7.9878397 7.2386179
-102.8729 7.9958701 6.9852905
-102.8793 7.9552283 7.2367234
-102.86403 7.9092088 7.4886584
-102.87581 7.9211407 7.2365837
-102.88984 7.8942599 7.2444744
-102.87147 7.8962078 6.9873409
-102.92542 7.8460379 7.2637954
-102.86974 7.8356671 6.9994597
-102.87382 7.7997022 7.2563205
-102.87695 7.773119 7.2613215
-102.85872 7.775104 7.0037522
-102.86987 7.7444715 7.268806
-102.86108 7.7495518 7.0127978
-102.88117 7.7231746 7.2798972
-102.88242 7.6996765 7.2882037
-102.8551 7.6985359 7.0284495
-102.40742 7.3108211 10.320685
