# .PCD v0.7 - Point Cloud Data file format
VERSION 0.7
FIELDS x y z
SIZE 4 4 4
TYPE F F F
COUNT 1 1 1
WIDTH 1560
HEIGHT 1
VIEWPOINT 0 0 0 1 0 0 0
POINTS 1560
DATA ascii
-99.970871 25.231277 4.0813665
-99.975235 24.772306 5.3525324
-99.96376 24.778019 5.0303807
-99.956543 24.789459 4.7092533
-100.08213 22.417479 16.304831
-99.992035 22.21661 12.472804
-99.966431 22.46331 8.0168924
-99.945633 22.456717 7.7006764
-99.935417 22.463316 7.3882732
-99.923485 22.46771 7.0763226
-99.916023 22.477657 6.7661972
-99.894508 22.469908 6.4538789
-99.889832 22.483269 6.1457844
-99.871109 22.47892 5.8357191
-99.995499 21.886375 12.408422
-99.800049 22.163412 3.9861813
-99.86705 22.360016 2.1728697
-99.815918 22.333456 1.5660865
-99.889847 21.674677 8.2249098
-99.794296 21.817926 3.9721506
-99.857956 21.915125 3.6770539
-99.832039 21.901575 3.3745754
-99.829597 21.917053 3.0739172
-99.819221 21.922709 2.772959
-99.844864 21.973015 2.4729111
-99.78727 21.920078 2.1713703
-99.834679 21.997469 1.8704971
-99.75502 21.917036 1.5706512
-99.919754 21.379519 8.1862316
-99.7855 21.47393 3.9530938
-99.84259 21.580267 3.3610396
-99.833893 21.587896 3.0619926
-99.836182 21.608986 2.7634761
-99.721504 21.541328 1.5695465
-99.75798 21.01985 5.4091601
-99.768333 21.122576 3.9314601
-99.845673 21.234123 3.6417229
-99.825905 21.264473 2.7510986
-99.810387 21.299953 1.8608801
-99.704483 21.189404 1.5660517
-99.793388 20.825502 3.9141972
-99.826401 20.882875 3.6227615
-99.819313 20.892332 3.328001
-99.78495 20.869122 3.0321093
-99.787384 20.88995 2.738297
-99.781769 20.901134 2.4441285
-99.768105 20.902664 2.1498873
-99.7528 20.902218 1.8558103
-99.678276 20.830629 1.5631305
-99.953552 18.008137 18.042118
-99.961761 18.055683 17.371614
-99.956284 18.069006 17.033394
-99.948517 18.079727 16.696239
-99.926216 18.130581 15.378265
-99.907288 18.12862 15.046546
-99.898811 18.137739 14.723495
-99.894554 18.151281 14.405042
-99.881866 18.155628 14.083894
-99.873466 18.164473 13.767241
-99.837425 18.143385 13.437994
-99.824875 18.147505 13.123509
-99.829605 18.170176 12.81962
-99.81308 18.169783 12.506847
-99.81395 18.188097 12.204231
-99.786995 18.176214 11.890323
-99.771034 18.176113 11.583416
-99.759651 18.18087 11.280246
-99.746368 18.183479 10.977877
-99.724663 18.176855 10.67371
-99.978371 17.730211 18.316404
-99.710869 18.179483 5.2169647
-99.689133 18.187422 4.656425
-99.675781 18.188643 4.3766251
-99.674271 18.202747 4.0984735
-99.67112 18.215052 3.8203375
-99.646095 18.203457 3.5408003
-99.646408 18.219521 3.2634122
-99.631599 18.219044 2.9853189
-99.601669 18.202002 2.7070651
-99.597084 18.212679 2.4299781
-99.584129 18.214184 2.1528163
-99.576286 18.221285 1.8757746
-99.553345 18.211817 1.5990055
-100.198 26.232824 7.1748209
-99.970383 18.104437 18.544029
-99.858513 18.269253 12.806068
-99.88018 18.29752 12.572654
-99.856781 18.289732 12.316547
-99.853127 18.297623 12.072819
-99.833076 18.292324 11.822505
-99.854836 18.320421 11.594683
-99.809135 18.294407 11.335574
-99.805397 18.301937 11.098515
-99.807251 18.313889 10.865429
-99.785263 18.306635 10.623122
-99.783638 18.315662 10.391318
-99.76548 18.311342 10.15391
-99.74556 18.305529 9.9174042
-99.753693 18.322233 9.6934652
-99.722885 18.307516 9.4556694
-99.720245 18.315439 9.2299824
-99.723495 18.328062 9.0074396
-99.710129 18.327227 8.7800846
-99.710182 18.337187 8.558404
-99.686035 18.327532 8.3298798
-99.663094 18.328569 7.8845048
-99.918617 17.868183 18.745548
-99.679207 18.342199 3.6197317
-99.666718 18.341303 3.4096258
-99.676064 18.358154 3.2007987
-99.64399 18.350538 2.7814844
-99.649086 18.36393 2.5725212
-99.660515 18.382496 2.3633571
-99.631783 18.368307 2.1543469
-99.578415 18.333984 1.9464402
-99.916428 17.668335 18.99382
-99.984726 17.734154 18.75185
-99.622765 18.217484 1.1119064
-101.87635 54.983276 11.563069
-101.86239 55.003719 10.995932
-101.60738 50.414532 13.026446
-101.61046 50.463974 12.49535
-101.30403 46.677704 8.4782801
-101.22826 42.809814 15.399513
-101.24261 42.867699 14.918899
-100.82558 37.384052 12.409055
-100.68155 37.727543 4.1502876
-100.68556 34.674397 12.371037
-100.36793 26.765287 16.5142
-100.38913 26.812895 16.129606
-100.35059 26.794628 15.716702
-100.303 26.766218 15.302473
-100.31043 26.798277 14.917273
-100.2898 26.799276 14.520891
-100.11935 26.860449 3.7613571
-100.04091 26.816389 3.0432403
-100.12196 26.928619 2.6886916
-100.05421 26.874657 2.3299263
-100.03106 26.870501 1.9726963
-100.02583 26.886383 1.6155509
-100.08376 22.833134 12.15185
-100.01833 22.78923 11.774825
-100.00569 22.797195 11.419094
-99.825775 22.740097 2.883956
-99.81366 22.74729 2.551141
-99.842049 22.794704 2.2188449
-99.790329 22.762562 1.8859046
-99.793304 22.784752 1.5531403
-99.776489 21.916191 3.5405338
-99.783142 21.941246 3.2128973
-99.747169 21.94367 2.5559101
-99.762009 21.976667 2.2282014
-99.80349 22.035536 1.899874
-99.742409 21.994942 1.5718178
-99.75988 21.553078 3.2184002
-99.724998 21.574621 2.2400944
-99.745369 21.61244 1.9141905
-99.720352 21.606791 1.5882087
-99.770889 21.180927 3.5508842
-99.727249 21.157742 3.2247312
-99.725166 21.173737 2.9010296
-99.735565 21.201523 2.5775833
-99.707565 21.193033 2.2533629
-99.728378 21.230688 1.9295647
-99.911926 18.378202 17.79262
-99.957428 18.436373 17.453676
-99.909142 18.41511 17.06398
-99.900154 18.426933 16.699261
-99.937981 18.478296 16.361845
-99.909546 18.473381 15.991548
-99.899696 18.484085 15.633508
-99.87294 18.480299 15.269555
-99.843498 18.474075 14.907041
-99.861641 18.508209 14.569316
-99.819801 18.491173 14.205958
-99.811386 18.502468 13.860137
-99.732819 18.537531 5.3724566
-99.708107 18.533211 5.0574512
-99.711555 18.553038 4.7461863
-99.705368 18.564579 4.4341941
-99.666855 18.548281 4.1199512
-99.679245 18.57576 3.8101993
-99.644165 18.562349 3.4975615
-99.644882 18.579752 3.1873858
-99.628403 18.582323 2.8766091
-99.594742 18.570038 2.565778
-99.581741 18.575569 2.2558386
-99.574257 18.585867 1.946045
-99.542046 18.574764 1.6365366
-101.75139 52.395893 14.282052
-101.74994 52.474186 13.026981
-101.77068 52.014236 17.228765
-101.7584 52.103237 15.512736
-101.75401 52.123039 15.087666
-101.75266 52.147701 14.665882
-101.73421 52.144203 14.237272
-101.75415 52.203602 13.828919
-101.73679 52.201683 13.404254
-101.72758 52.213043 12.98507
-101.69106 52.179359 12.555951
-101.65253 52.220543 10.900914
-101.65218 52.245975 10.493504
-101.68065 52.318939 10.096073
-101.68175 52.346668 9.6902256
-101.69635 52.396713 9.2888708
-101.76904 51.737816 18.046373
-101.76301 51.836784 16.324049
-101.76262 51.863045 15.898966
-101.74513 51.861305 15.466358
-101.74069 51.880711 15.042883
-101.75445 51.929718 14.630378
-101.74099 51.934196 14.205591
-101.73566 51.951851 13.786558
-101.70808 51.932983 13.358973
-101.72423 51.985565 12.952761
-101.70796 51.985008 12.533624
-101.69994 51.997852 12.119534
-101.66959 51.97398 11.698222
-101.68838 52.03064 11.297063
-101.67975 52.042255 10.886613
-101.66412 52.042278 10.475024
-101.67223 52.081268 10.072317
-101.66312 52.091873 9.6649494
-101.66242 52.116268 9.2609739
-101.73704 51.55093 16.69133
-101.75366 51.604549 16.276064
-101.74315 51.614059 15.846861
-101.73058 51.620094 15.418654
-101.74124 51.663738 15.004708
-101.69932 51.621799 14.565388
-101.70094 51.65052 14.150305
-101.7006 51.67598 13.735693
-101.69324 51.689899 13.319279
-101.67883 51.692226 12.901353
-101.66245 51.691254 12.484341
-101.68504 51.753761 12.084689
-101.65971 51.737988 11.666962
-101.66319 51.769188 11.261704
-101.65455 51.780495 10.853053
-101.64403 51.788647 10.444973
-101.65219 51.827339 10.043988
-101.63793 51.829258 9.6368036
-101.64757 51.870281 9.2375393
-101.73369 51.327888 16.642027
-101.70493 51.307823 16.20211
-101.70935 51.341232 15.783517
-101.73708 51.412231 15.37907
-101.71223 51.398094 14.947868
-101.72086 51.438015 14.536005
-101.7072 51.441742 14.114505
-101.69663 51.450367 13.696378
-101.67899 51.447399 13.27679
-101.69004 51.490906 12.871586
-101.67873 51.49802 12.457901
-101.65524 51.485222 12.040894
-101.66572 51.527596 11.638807
-101.63837 51.508327 11.22355
-101.63995 51.536091 10.820288
-101.64999 51.577572 10.420673
-101.62209 51.55714 10.009617
-101.63876 51.609337 9.6135473
-101.62778 51.616375 9.2098598
-101.73249 51.105015 16.588329
-101.70853 51.09272 16.152729
-101.69765 51.10128 15.727034
-101.71008 51.147266 15.315989
-101.72565 51.198238 14.907792
-101.70873 51.196754 14.484304
-101.67958 51.175392 14.056981
-101.70461 51.241375 13.657454
-101.66122 51.196762 13.227605
-101.6773 51.248154 12.82632
-101.68639 51.288174 12.422798
-101.67303 51.291798 12.011173
-101.65774 51.292198 11.600367
-101.656 51.314472 11.196052
-101.6369 51.308517 10.786725
-101.63657 51.332932 10.385152
-101.63438 51.354286 9.9838428
-101.61482 51.347332 9.5782213
-101.61411 51.370964 9.1792459
-101.69404 50.795174 16.927954
-101.72238 50.866753 16.523113
-101.70824 50.870255 16.094889
-101.66663 50.829563 15.653754
-101.68391 50.883144 15.247356
-101.69928 50.933575 14.841001
-101.68718 50.939831 14.421927
-101.64747 50.901608 13.991436
-101.63132 50.901089 13.574728
-101.65427 50.963371 13.177482
-101.6548 50.989513 12.771058
-101.64827 51.004208 12.362914
-101.66562 51.057316 11.965634
-101.66563 51.082413 11.562261
-101.63789 51.062668 11.149837
-101.61292 51.072117 10.340665
-101.59502 51.067963 9.9362984
-101.59083 51.085911 9.5373526
-101.61598 51.151337 9.1474266
-101.72043 50.614403 16.880154
-101.71819 50.637089 16.458445
-101.7088 50.648273 16.034618
-101.67697 50.623505 15.600538
-101.67875 50.652229 15.187215
-101.68367 50.68586 14.777081
-101.661 50.675297 14.354584
-101.66196 50.702404 13.94574
-101.63525 50.685139 13.525447
-101.64261 50.722279 13.122638
-101.62742 50.723221 12.711174
-101.61544 50.729214 12.302773
-101.59119 50.715401 11.891068
-101.5899 50.788219 10.691751
-101.57362 50.78685 10.288668
-101.58669 50.832668 9.8960819
-101.58231 50.850353 9.4986858
-101.7259 50.375427 17.242998
-101.65544 50.59771 11.873546
-101.74408 50.18557 17.197428
-101.63035 49.345467 17.409878
-101.64732 49.575611 14.145098
-101.62314 49.30545 14.508355
-101.59524 48.885883 17.31419
-101.60425 49.07386 14.4702
-101.58171 48.666046 17.265625
-101.59565 48.859379 14.434203
-101.56975 48.41473 14.351403
-101.56672 48.457451 13.559308
-101.44267 47.236637 13.698653
-101.43909 47.277714 12.926437
-101.42366 47.277584 12.536547
-101.41707 47.290668 12.15204
-101.44411 46.995029 14.438742
-101.44267 47.039524 13.664148
-101.41482 47.021019 13.266568
-101.40112 47.023586 12.87755
-101.41248 47.063602 12.500982
-101.41116 47.084557 12.12006
-101.46259 46.711189 16.372139
-101.45418 46.746117 15.578661
-101.43623 46.742973 15.17737
-101.44833 46.784401 14.794176
-101.44242 46.798923 14.403031
-101.44527 46.826401 14.017957
-101.41387 46.802742 13.617982
-101.41819 46.832214 13.236873
-101.42061 46.858772 12.856134
-101.42654 46.890514 12.478107
-101.39265 46.862667 12.084778
-101.37308 46.856083 11.69935
-101.45692 46.605652 14.761228
-101.43754 46.62315 13.97908
-101.42216 46.623291 13.588055
-101.40481 46.620365 13.198045
-101.3963 46.630497 12.813872
-101.39673 46.653812 12.435062
-101.4007 46.682339 12.058913
-101.37558 46.667465 11.672367
-101.35943 46.665848 11.29111
-101.39969 45.603985 17.277748
-101.35037 44.546429 17.793312
-101.32178 44.730446 13.953146
-101.33713 44.336052 17.741632
-101.37233 44.431812 16.985899
-101.30865 44.498383 14.288672
-101.36166 44.595879 13.942023
-101.32042 44.166756 16.91313
-101.31018 44.17506 16.522696
-101.30875 44.195686 16.139793
-101.31076 44.221043 15.760818
-101.28263 44.248123 14.616356
-101.32083 44.324348 14.263017
-101.34615 44.382278 13.903666
-101.30296 44.342949 13.512394
-101.30777 44.371609 13.146019
-101.27723 44.34996 12.765166
-101.21573 44.305676 12.010062
-101.20724 44.315025 11.644593
-101.23903 44.445553 10.217913
-101.29913 43.949062 16.861078
-101.32147 44.003155 16.491911
-101.30896 44.008148 16.103462
-101.27235 43.97908 15.703543
-101.28315 44.01659 15.333009
-101.28093 44.03569 14.95687
-101.28226 44.059677 14.584351
-101.27052 44.065132 14.206792
-101.27345 44.091194 13.838377
-101.2689 44.106579 13.4678
-101.24565 44.095448 13.090224
-101.23718 44.105099 12.721301
-101.23239 44.119869 12.355518
-101.2257 44.131863 11.990345
-101.25083 44.188904 11.639148
-101.22917 44.17952 11.2705
-101.2225 44.191322 10.90905
-101.21963 44.208443 10.550128
-101.22621 44.23896 10.195386
-101.22535 44.258827 9.838953
-101.23966 44.300259 9.4879532
-101.24087 44.322998 9.1335239
-101.21191 44.302696 8.771595
-101.16975 44.263481 8.4078436
-101.14849 44.253971 8.0510044
-101.14818 44.274315 7.7000723
-101.1518 44.300251 7.3504605
-101.14228 44.307369 6.99862
-101.1367 44.32008 6.6481547
-101.13506 44.338417 6.298831
-101.17159 44.411427 5.9554849
-101.30303 43.770275 16.827383
-101.29243 43.778008 16.439335
-101.26871 43.767227 16.045906
-101.25938 43.77644 15.663373
-101.27007 43.813629 15.294089
-101.27326 43.840218 14.922183
-101.26339 43.848347 14.545037
-101.28487 43.900444 14.185705
-101.24319 43.863625 13.796283
-101.24407 43.886559 13.429868
-101.24303 43.906708 13.063972
-101.24009 43.924084 12.698625
-101.25208 43.962448 12.341041
-101.22849 43.950531 11.969705
-101.23111 43.975536 11.610641
-101.2319 43.997871 11.251908
-101.20823 43.985573 10.885322
-101.22227 44.026531 10.533588
-101.20053 44.016796 10.170464
-101.20528 44.044506 9.8172884
-101.19122 44.045479 9.4591141
-101.19237 44.067982 9.1064939
-101.18604 44.079834 8.7525253
-101.17223 44.080997 8.3974943
-101.16802 44.095749 8.0457888
-101.17915 44.132278 7.6981983
-101.1714 44.141937 7.3468094
-101.17902 44.173443 6.9990702
-101.16776 44.17802 6.6481061
-101.16045 44.188202 6.2984595
-101.15711 44.20401 5.9498963
-101.15202 44.217312 5.6014237
-101.15663 44.24445 5.2544136
-101.14234 44.244564 4.9054422
-101.13203 44.250347 4.5573139
-101.10777 44.297665 3.1679375
-101.07736 44.274555 2.8204124
-101.2953 43.576359 16.786818
-101.27905 43.576138 16.396605
-101.26067 43.572773 16.007641
-101.26778 43.604858 15.635714
-101.28397 43.649551 15.270413
-101.28159 43.668186 14.896358
-101.25494 43.652775 14.511429
-101.2541 43.673336 14.142011
-101.2513 43.691063 13.773216
-101.25774 43.721664 13.410378
-101.22863 43.702309 13.032502
-101.23122 43.727329 12.670904
-101.23193 43.74963 12.309719
-101.21949 43.753368 11.944356
-101.23338 43.794056 11.590937
-101.21152 43.784374 11.224666
-101.2104 43.803818 10.867661
-101.20745 43.820618 10.511049
-101.19131 43.818748 10.15109
-101.18469 43.830235 9.7955208
-101.19334 43.863213 9.4455709
-101.1888 43.877544 9.0923586
-101.17106 43.87315 8.7364283
-101.17435 43.898438 8.3870544
-101.15872 43.896919 8.0336494
-101.17562 43.941414 7.6885567
-101.15644 43.934772 7.3359022
-101.15266 43.949913 6.9872503
-101.1414 43.954399 6.6377602
-101.14557 43.980774 6.2914596
-101.13654 43.988365 5.9433532
-101.14296 44.017914 5.5977955
-101.13618 44.028667 5.250658
-101.13339 44.04509 4.9042525
-101.11739 44.042686 4.5568428
-101.09392 44.029598 4.2093911
-101.10314 44.063107 3.8644681
-101.09915 44.077782 3.51862
-101.09344 44.089985 3.1726999
-101.26499 43.353039 16.731279
-101.25404 43.360081 16.345858
-101.25755 43.387085 15.971228
-101.27567 43.434288 15.60668
-101.27518 43.455536 15.233094
-101.25041 43.442879 14.848266
-101.24029 43.450474 14.473536
-101.23375 43.462944 14.102555
-101.24203 43.496006 13.740571
-101.22597 43.49498 13.368311
-101.21916 43.50679 13.002211
-101.2386 43.555202 12.649241
-101.21671 43.545738 12.279401
-101.22112 43.573006 11.922245
-101.21803 43.589684 11.563169
-101.19604 43.579819 11.198171
-101.19489 43.599052 10.842447
-101.16913 43.58371 10.479233
-101.18706 43.629616 10.132213
-101.169 43.624928 9.7741585
-101.17194 43.649681 9.4237862
-101.16737 43.663837 9.07195
-101.14384 43.651249 8.7158537
-101.15285 43.684418 8.3694038
-101.16011 43.715096 8.0228577
-101.15987 43.735188 7.6749587
-101.15214 43.744659 7.3259931
-101.15986 43.775936 6.9806886
-101.12563 43.747894 6.6280584
-101.12984 43.774162 6.2830629
-101.13233 43.797958 5.9379587
-101.12732 43.811138 5.5920091
-101.12633 43.82999 5.2468529
-101.11784 43.838207 4.9010782
-101.10187 43.835785 4.5549731
-101.09566 43.847206 4.2100682
-101.08773 43.856159 3.8652132
-101.07807 43.862644 3.5204339
-101.08393 43.891201 3.1762154
-101.25135 43.152943 16.684107
-101.25679 43.18259 16.309868
-101.27128 43.224663 15.942698
-101.26157 43.233147 15.563222
-101.23866 43.223202 15.178606
-101.24155 43.24889 14.810283
-101.24807 43.27951 14.445428
-101.24703 43.299572 14.078186
-101.22157 43.285591 13.700633
-101.22784 43.315613 13.340321
-101.19839 43.29583 12.964964
-101.20081 43.32032 12.605902
-101.20136 43.342113 12.247258
-101.21137 43.377037 11.89369
-101.19683 43.377655 11.531347
-101.1804 43.37553 11.169852
-101.18485 43.402504 10.817468
-101.18749 43.426888 10.465308
-101.18832 43.448685 10.113403
-101.1759 43.451889 9.7581778
-101.16165 43.452457 9.4036064
-101.16277 43.474495 9.0546045
-101.15063 43.477905 8.7027121
-101.14817 43.494839 8.3542995
-101.15543 43.525383 8.0088787
-101.14369 43.529202 7.6595373
-101.14168 43.546654 7.3130684
-101.14367 43.569706 6.9678688
-101.12663 43.565948 6.6196084
-101.13088 43.592136 6.2756567
-101.1161 43.591484 5.9290452
-101.1111 43.604595 5.5844007
-101.10436 43.615234 5.2398744
-101.10166 43.63155 4.8960824
-101.09723 43.645405 4.5522881
-101.0853 43.648647 4.2081013
-101.23443 42.929157 17.013542
-101.23072 42.946159 16.633089
-101.25263 42.998314 16.270119
-101.2448 43.009422 15.891083
-101.25162 43.040585 15.52247
-101.25085 43.061203 15.151291
-101.26488 43.102135 14.789774
-101.20845 43.066978 14.028
-101.21656 43.099442 13.668452
-101.19454 43.090115 13.295974
-101.21011 43.132748 12.942671
-101.20116 43.141346 12.579488
-101.20165 43.162933 12.221861
-101.1889 43.166058 11.860057
-101.19701 43.198093 11.507988
-101.18048 43.195816 11.147513
-101.18491 43.222607 10.796154
-101.1818 43.238853 10.443048
-101.15968 43.228558 10.084706
-101.1701 43.263527 9.7381449
-101.14431 43.247948 9.3812571
-101.13965 43.261784 9.0319166
-101.13895 43.281097 8.6844883
-101.13071 43.289841 8.3358269
-101.13222 43.312157 7.9903321
-101.14349 43.348114 7.6475129
-101.11841 43.333149 7.2972898
-101.1204 43.356064 6.9534779
-101.1091 43.36031 6.6076288
-101.10182 43.370167 6.2631044
-100.96519 43.437305 1.8118658
-101.22931 42.792072 16.222143
-101.2492 42.841045 15.860604
-101.22806 42.833572 15.477135
-101.23279 42.861519 15.110353
-101.20939 42.914089 13.637988
-101.19293 42.91235 13.269251
-101.19151 42.93124 12.909255
-101.18817 42.947414 12.549821
-101.17724 42.953014 12.188579
-101.1758 42.971645 11.832758
-101.16679 42.979717 11.47519
-101.16732 43.000946 11.122595
-101.1603 43.011631 10.768311
-101.17436 43.051487 10.422495
-101.14645 43.033077 10.063372
-101.12817 43.02792 9.7089977
-101.14256 43.0681 9.365756
-101.13792 43.081787 9.0174475
-101.13725 43.100952 8.6710529
-101.12326 43.10154 8.3219652
-101.11903 43.115662 7.9762211
-101.1246 43.143391 7.6333289
-101.11106 43.144463 7.286798
-101.10621 43.197365 6.2578707
-100.9743 43.170742 3.5196931
-100.96481 43.256092 1.8192565
-101.2452 42.601936 16.955017
-101.21888 42.609085 16.188484
-101.21089 42.619518 15.811832
-101.21761 42.649971 15.445621
-101.21113 42.662239 15.073773
-101.19328 42.72134 13.609148
-101.18247 42.72715 13.244236
-101.16402 42.722347 12.877621
-101.17776 42.76173 12.526997
-101.16113 42.759262 12.164447
-101.15401 42.769775 11.807496
-101.145 42.777607 11.451199
-101.15131 42.806496 11.102028
-101.13284 42.801125 10.74481
-101.14123 42.832771 10.398391
-101.13055 42.838028 10.046385
-101.13534 42.864594 9.7004261
-101.12103 42.864693 9.3494511
-101.11503 42.955242 7.6260629
-101.24483 42.458546 16.555389
-101.28371 42.532623 16.204967
-101.27594 42.543118 15.82823
-101.28292 42.573597 15.461942
-101.27104 42.578243 15.086931
-101.1973 42.559811 13.594873
-101.19794 42.581017 13.236113
-101.21946 42.630733 12.888183
-101.18208 42.59967 12.515241
-101.17696 42.612743 12.15834
-101.15851 42.607418 11.797421
-101.16108 42.630867 11.446441
-101.16755 42.659618 11.097956
-101.14342 42.646255 10.739345
-101.14622 42.669827 10.391719
-101.12904 42.685471 9.6918478
-100.98568 42.871979 2.8611126
-100.9539 42.846775 2.5229318
-100.95536 42.867939 2.1848526
-100.93763 42.862316 1.8470159
-101.21893 42.217747 17.271099
-101.1522 42.312164 13.919357
-101.24011 42.452026 13.602805
-101.23526 42.465439 13.241636
-101.15717 42.535469 10.043427
-101.13815 42.567165 9.0022011
-101.13789 42.585979 8.6586514
-101.13004 42.594307 8.313859
-100.99106 42.723511 2.5390513
-100.95187 42.70668 1.8647329
-101.21262 42.043137 17.238787
-101.15712 42.150776 13.901614
-101.24289 41.914375 17.220844
-101.16425 41.990196 13.876797
-101.23786 41.732155 17.174259
-101.19146 41.851913 13.856901
-101.27245 41.602585 17.150826
-100.88055 41.916073 1.8872318
-100.86012 41.552036 1.8848196
-100.85249 41.37402 1.8855159
-100.85292 41.043415 1.8745828
-101.08669 40.355583 16.754915
-101.08825 40.398346 16.030375
-100.80172 40.810181 1.8702441
-101.0812 40.167137 17.078592
-101.09069 40.199841 16.719702
-101.07524 40.200089 16.34741
-101.09779 40.249516 16.000204
-101.076 40.005527 17.041893
-101.09691 40.052654 16.691038
-101.07569 40.045242 16.315987
-100.82526 40.51107 1.8772305
-101.06213 39.838238 17.002459
-101.07735 39.877563 16.649008
-101.07331 39.891991 16.28548
-101.05659 39.676334 16.966333
-101.07181 39.715302 16.613781
-101.09652 39.766369 16.268606
-100.7815 40.124336 1.8905523
-101.03841 39.490856 16.915369
-101.05346 39.529419 16.563953
-101.07227 39.572693 16.216431
-100.77806 39.954475 1.8927703
-101.0351 39.320419 16.865578
-101.06147 39.373318 16.522278
-101.03959 39.364708 16.151134
-100.75589 39.761013 1.8894701
-101.02139 39.116299 17.168858
-101.04956 39.171459 16.826231
-101.04684 39.187416 16.465805
-101.0304 39.185848 16.0993
-100.79408 39.646954 1.8838311
-101.02879 38.977421 16.768295
-101.02575 38.993011 16.40909
-101.0206 39.00581 16.050789
-101.0075 39.008457 15.690015
-100.79003 39.477062 1.8828272
-100.74053 39.430149 1.5664794
-101.01276 38.751549 17.434286
-101.01372 38.772411 17.074516
-101.02993 38.812317 16.726532
-101.03248 38.834969 16.371794
-101.02127 38.840218 16.010824
-101.00793 38.842648 15.650954
-101.00061 38.610867 16.667898
-101.01453 38.647732 16.321602
-101.00887 38.660019 15.965262
-101.01871 38.691589 15.620081
-101.0089 38.698441 15.265412
-101.0831 38.528324 17.039383
-101.02337 38.473667 16.64476
-101.08395 38.56868 16.327593
-101.07241 38.573772 15.96769
-101.05285 38.568718 15.605484
-101.04881 38.582909 15.254553
-101.03088 38.579643 14.897983
-100.98879 38.184574 18.017956
-100.98752 38.203087 17.655621
-101.00147 38.240318 17.305664
-100.7785 38.759747 2.8373177
-100.76443 38.759262 2.5233593
-100.76103 38.772358 2.2093794
-100.70042 38.712471 1.896934
-100.67517 38.697639 1.5842907
-101.00665 38.08263 17.267731
-100.69962 38.55138 1.8991479
-101.00416 37.919334 17.225769
-101.02086 38.095837 14.450744
-100.73555 38.437691 1.8999581
-101.01133 37.770473 17.193428
-100.99712 37.908604 14.408503
-100.70253 38.237946 1.9047953
-100.94755 37.496887 17.828888
-101.0348 37.642994 17.17408
-100.66267 38.030674 1.9113456
-100.909 37.375225 13.935363
-100.99261 37.357594 17.010019
-100.86743 37.396168 13.511057
-100.8519 37.395725 13.171419
-100.90756 37.481575 12.866724
-100.72683 37.716339 4.5783877
-100.86222 37.233913 13.468562
-100.85255 37.240593 13.132753
-100.93872 37.363045 12.842992
-100.76669 37.315815 9.8658066
-100.71334 37.527016 4.8698311
-100.71109 37.541325 4.561656
-100.83696 37.049835 13.418878
-100.82091 37.04884 13.08133
-100.73734 37.351208 5.781672
-100.72171 37.383327 4.8565559
-100.70046 37.374371 4.547296
-100.83501 36.915771 13.059299
-100.92132 37.037369 12.771339
-100.75258 36.994198 9.812995
-100.74657 37.004337 9.4962931
-100.72562 37.184586 5.7696056
-100.71001 37.216423 4.8473554
-100.70774 37.230572 4.540832
-100.82645 36.740448 13.358649
-100.82249 36.753685 13.028579
-100.75211 36.84491 9.795661
-100.73984 36.847347 9.4777489
-100.7193 37.025818 5.7613864
-100.70388 37.057362 4.8417373
-100.68265 37.048298 4.5343018
-100.73222 36.673458 9.7713108
-100.73246 36.690746 9.458375
-100.72463 36.698311 9.1438694
-100.70591 36.859707 5.7513928
-100.69617 36.864513 5.4448147
-100.67837 36.859547 5.1377625
-100.67793 36.875546 4.8332438
-100.66308 36.874096 4.5275311
-100.6644 36.592365 6.9538136
-100.71404 36.701546 6.0471034
-100.69324 36.693069 5.7391543
-100.67073 36.682476 5.4318237
-100.66562 36.69278 5.1274371
-100.65881 36.701019 4.8231945
-100.68218 36.745609 4.5220866
-100.62984 36.661911 2.0948939
-100.81575 34.481495 17.010225
-100.84778 34.534931 16.690506
-100.75783 34.46883 15.961276
-100.79583 34.528671 15.65104
-100.79471 34.54451 15.319098
-100.77904 34.543888 14.98096
-100.74248 34.519642 14.633725
-100.6907 34.544128 13.001898
-100.71735 34.590546 12.698288
-100.69138 34.577438 12.371827
-100.68885 34.590729 12.057652
-100.68442 34.601795 11.744086
-100.67169 34.603397 11.428568
-100.66345 34.610004 11.116388
-100.6405 34.599857 10.800056
-100.64135 34.616615 10.494129
-100.61824 34.621807 9.8770161
-100.57722 34.652748 8.3601847
-100.76645 34.31789 16.264027
-100.81259 34.386681 15.95783
-100.76594 34.402405 14.613173
-100.69559 34.34024 14.251354
-100.69832 34.359882 13.931169
-100.68015 34.355968 13.602071
-100.68519 34.378029 13.286475
-100.70097 34.41209 12.977397
-100.63039 34.476082 10.162652
-100.6275 34.488438 9.8584118
-100.62928 34.506027 9.5567093
-100.60983 34.499516 9.2493334
-100.60152 34.505581 8.9466267
-100.82349 34.236206 16.255678
-100.7143 34.21648 14.223007
-100.69165 34.207779 13.890297
-100.67319 34.203659 13.562032
-100.68436 34.232563 13.25035
-100.71268 34.280613 12.948025
-100.62112 34.321564 10.131853
-100.61805 34.333752 9.8284636
-100.61318 34.343849 9.5255337
-100.61301 34.359196 9.2250824
-100.59154 34.350449 8.9192476
-100.60007 34.603878 4.2092643
-100.59522 34.613457 3.9169064
-100.57552 34.606071 3.6239126
-100.5739 34.619308 3.3321395
-100.55743 34.615582 3.0399494
-100.54588 34.617455 2.7481513
-100.53922 34.624931 2.4565058
-100.52432 34.622959 2.164947
-100.69693 34.049965 14.172442
-100.66759 34.033989 13.837479
-100.67412 34.057827 13.52297
-100.67236 34.072346 13.205856
-100.70047 34.120094 12.904432
-100.62266 34.193165 9.8006582
-100.61108 34.195835 9.4963369
-100.59769 34.1964 9.1926737
-100.60207 34.216873 8.8954077
-100.69042 33.89698 14.132333
-100.67345 33.894886 13.804701
-100.66708 33.904453 13.484519
-100.66508 33.918766 13.168235
-100.71219 33.987514 12.876637
-100.60002 34.023178 9.7679939
-100.61431 34.054863 9.4729948
-100.60075 34.055347 9.1700191
-100.59191 34.061062 8.8696318
-100.67033 33.748726 13.773005
-100.66379 33.758129 13.453568
-100.63608 33.744057 13.125697
-100.73425 33.869057 12.85918
-100.59841 33.863449 10.047059
-100.60786 33.88974 9.7504578
-100.59595 33.892197 9.4477625
-100.58222 33.892563 9.1457291
-100.57323 33.898159 8.8462849
-100.5387 34.013611 5.909481
-100.73094 33.502083 17.043629
-100.66545 33.602028 13.745085
-100.63961 33.590218 13.416891
-100.63087 33.597088 13.099266
-100.72913 33.721725 12.833506
-100.57906 33.700661 10.023716
-100.57536 33.712284 9.7237349
-100.58295 33.736385 9.4283695
-100.57568 33.743942 9.129179
-100.56004 33.742157 8.8286028
-100.55815 33.893879 5.9056363
-100.53489 33.913532 5.0346522
-100.51317 33.919552 4.4554958
-100.75031 33.384975 17.026327
-100.62688 33.421154 13.702589
-100.63918 33.45113 13.394557
-100.63034 33.457863 13.077594
-100.73518 33.589195 12.815516
-100.58443 33.567425 10.011014
-100.5676 33.564487 9.7073097
-100.56204 33.573948 9.4085646
-100.56127 33.588638 9.1123018
-100.55872 33.601326 8.8163872
-100.54354 33.737526 5.8982472
-100.54857 33.758289 5.6101484
-100.54526 33.769753 5.3211145
-100.52029 33.75705 5.0298681
-100.51361 33.764702 4.7413759
-100.5119 33.777893 4.4536643
-100.79321 33.295639 17.025042
-100.6189 33.276134 13.676091
-100.63114 33.305885 13.368804
-100.62863 33.319458 13.055672
-100.71431 33.42931 12.785265
-100.57565 33.420437 9.9935656
-100.57188 33.431843 9.6949463
-100.55972 33.433971 9.394722
-100.55235 33.441296 9.0971527
-100.56957 33.475674 8.8077211
-100.54794 33.603897 5.8937149
-100.52635 33.595016 5.6024027
-100.50973 33.591602 5.3125873
-100.52476 33.623322 5.0271573
-100.51144 33.623524 4.7385788
-100.49643 33.621834 4.4503484
-100.61806 33.138042 13.651178
-100.63024 33.167595 13.344553
-100.63407 33.188007 13.03517
-100.56732 33.27343 9.974453
-100.57007 33.291916 9.6787605
-100.56445 33.301178 9.3812923
-100.55702 33.308418 9.084321
-100.55443 33.320896 8.7897749
-100.53919 33.455452 5.885437
-100.53092 33.461311 5.5968165
-100.51428 33.457882 5.3076086
-100.50932 33.467335 5.020442
-100.50935 33.482311 4.7341228
-100.49434 33.480606 4.4465876
-100.61768 32.999382 13.626108
-100.62978 33.028759 13.320146
-100.62705 33.042023 13.00834
-100.57888 33.147682 9.961935
-100.5552 33.137299 9.6581087
-100.55608 33.15366 9.3635702
-100.5552 33.168034 9.0693588
-100.56579 33.194916 8.7793093
-100.51685 33.292286 5.8749423
-100.54871 33.3423 5.5930142
-100.53873 33.346268 5.30511
-100.51366 33.33358 5.0159454
-100.507 33.341148 4.7295408
-100.52547 33.376431 4.4457445
-100.665 32.944885 13.002971
-100.55061 32.978878 9.9357891
-100.55321 32.997116 9.6416311
-100.54741 33.006176 9.3456993
-100.53982 33.013229 9.0502672
-100.56364 33.054432 8.7648859
-100.50752 33.143917 5.8663855
-100.49085 33.170345 5.0081716
-100.48417 33.177879 4.7227249
-100.54124 32.832573 9.9155989
-100.55704 32.865009 9.6265297
-100.53791 32.8596 9.3270426
-100.51031 32.844933 9.0264044
-100.58068 32.936436 8.7553911
-100.51772 33.018181 5.8601604
-100.49436 33.052029 4.7185855
-100.50464 32.658714 9.8851299
-100.52036 32.690891 9.5971661
-100.5144 32.699646 9.3029385
-100.54661 32.74955 9.0211601
-100.5638 32.783241 8.7350702
-100.50043 32.863777 5.8484564
-100.39162 29.143259 13.738504
-100.45559 28.927111 17.143261
-100.41875 29.051928 13.731085
-100.42086 29.067955 13.435931
-100.47093 28.82333 17.124546
-100.41322 28.927263 13.7054
-100.42202 28.949606 13.41423
-100.46709 28.699205 17.094307
-100.40393 28.783634 13.975956
-100.42819 28.82073 13.691811
-100.39619 28.803988 13.380501
-100.40288 28.824135 13.090628
-100.38567 28.644358 13.943994
-100.39623 28.668287 13.653597
-100.39121 28.677299 13.356833
-100.39779 28.697289 13.067535
-100.29147 28.71092 5.3097076
-100.26868 28.713726 4.7800655
-100.21429 28.489738 5.818409
-100.19263 28.481333 5.5524192
-100.20521 28.505703 5.2918024
-100.18018 28.494028 5.0266604
-100.18227 28.50831 4.7652893
-100.17012 28.326227 5.8073769
-100.16479 28.357813 5.0221982
-100.1597 28.365149 4.760747
-100.14886 28.222076 5.0172019
-100.15102 28.236225 4.7572217
-100.16637 28.068863 6.0531025
-100.14815 28.09997 5.0084229
-100.15266 27.947206 5.7773528
-100.14713 27.978243 4.9973774
-100.12746 27.971754 4.7361178
-100.13517 27.991056 4.4781251
-100.14437 27.818729 5.7644467
-100.14411 27.830597 5.5049429
-100.1422 27.840893 5.2455525
-100.12615 27.849955 4.7264209
-100.13381 27.869207 4.4689488
-100.10333 27.876621 3.6931419
-100.14138 27.683641 6.0133471
-100.1355 27.690231 5.7531505
-100.12794 27.695238 5.4932213
-100.12599 27.705462 5.2345247
-100.12966 27.720928 4.9768209
-100.12441 27.728037 4.7183266
-100.11023 27.726767 4.4593229
-100.12354 27.751226 4.2030749
-100.11335 27.753672 3.9449894
-100.09423 27.747728 3.6867149
-100.14594 27.544519 6.5236487
-100.11275 27.585793 4.9674096
-100.12206 27.606436 4.7111516
-100.11515 27.611946 4.4533534
-100.12849 27.636332 4.1975389
-100.10368 27.625128 3.9388709
-100.10644 27.639633 3.6824737
-100.14458 27.412275 6.7719707
-100.11586 27.44578 5.4740124
-100.12116 27.462648 5.2173862
-100.0976 27.464657 4.700964
-100.09796 27.4769 4.4446316
-100.104 27.494406 4.1889162
-100.10839 27.510391 3.9330671
-100.13132 27.305113 6.240447
-100.11968 27.306372 5.9804449
-100.1133 27.324379 5.4648166
-100.11127 27.334431 5.2077684
-100.10226 27.349911 4.6941018
-100.09528 27.355341 4.4375229
-100.10131 27.372791 4.1823287
-100.09105 27.37516 3.925987
-100.08647 27.382784 3.6703007
-100.1156 27.219637 5.2017341
-100.10659 27.235035 4.6889358
-100.09961 27.240435 4.4327917
-100.09833 27.251068 4.1774378
-100.09541 27.260181 3.9221256
-100.09818 27.274551 3.6672943
-100.09199 27.280634 3.4120371
-100.09422 27.087765 5.1883225
-100.08315 27.089449 4.9316359
-100.07778 27.096329 4.6760478
-100.06928 27.135653 3.6573415
-100.07043 27.14847 3.4031513
-100.04786 27.139482 3.1481524
-100.3716 26.574389 16.762222
-100.35681 26.575527 16.442692
-100.33279 26.568403 16.120155
-100.3335 26.582943 15.815921
-100.33877 26.601406 15.516687
-100.31441 26.59362 15.202003
-100.29456 26.589674 14.892699
-100.34291 26.420135 17.025867
-100.26436 26.540424 12.827094
-100.31854 26.601219 12.570537
-100.30019 26.597786 12.281002
-100.29396 26.605011 11.998834
-100.28574 26.610395 11.717419
-100.27555 26.613953 11.436784
-100.27055 26.62204 11.15986
-100.25644 26.621983 10.880778
-100.25477 26.632898 10.608026
-100.15997 26.645676 8.4434719
-100.16364 26.660881 8.1825562
-100.15824 26.667961 7.919991
-100.13644 26.660318 7.6542511
-100.12753 26.664167 7.3927422
-100.11689 26.666424 7.1317077
-100.11924 26.680281 6.8742595
-100.09779 26.672779 6.612606
-100.09674 26.683527 6.3557806
-100.0822 26.693783 5.841589
-100.32971 26.292135 16.98591
-100.28342 26.440786 12.813106
-100.18303 26.465212 10.292253
-100.136 26.496157 8.6836805
-100.21119 26.65797 6.6234179
-100.19542 26.655619 6.3629861
-100.17054 26.645081 6.1018276
-100.10694 26.599848 5.8354278
-100.086 26.59272 5.5773382
-100.08559 26.603952 5.3229437
-100.07611 26.607035 5.0677314
-100.06496 26.608603 4.8128324
-100.05958 26.615316 4.559031
-100.10449 26.6672 4.3101516
-100.11067 26.684307 4.0572996
-100.05751 26.69412 2.7902272
-100.37061 26.209347 16.983578
-100.28842 26.327635 12.793806
-100.15371 26.395409 8.674984
-100.10917 26.485918 5.8271923
-100.08072 26.47221 5.5684276
-100.09509 26.49667 5.3166041
-100.07813 26.493143 5.0608039
-100.05948 26.488089 4.805491
-100.05403 26.494804 4.5522132
-100.39153 26.107914 16.968107
-100.2934 26.213745 12.774942
-100.14199 26.268291 8.6581602
-100.11573 26.364035 6.0746598
-100.09628 26.358519 5.8170156
-100.09742 26.37125 5.5633044
-100.07459 26.362667 5.306623
-100.07984 26.379005 5.0543318
-100.0611 26.374002 4.7994566
-100.0556 26.380743 4.5466161
-100.28159 26.088825 12.751801
-100.15046 26.161467 8.6502504
-100.10907 26.243881 6.067627
-100.08212 26.231796 5.8093047
-100.06835 26.231319 5.5539794
-100.06779 26.242506 5.3011513
-100.05814 26.245609 5.0475068
-100.04681 26.247215 4.7941775
-100.04874 26.260557 4.5427103
-100.30817 26.002188 12.754932
-100.14873 26.049173 8.6460199
-100.1078 26.131104 6.0676808
-100.08086 26.119032 5.809783
-100.06715 26.11854 5.5548868
-100.06667 26.12969 5.3024921
-100.04959 26.126194 5.0483394
-100.0682 26.154152 4.7989397
-100.04034 26.141081 4.5445833
-100.13151 25.923693 8.6399679
-100.0986 26.011421 6.0689149
-100.07919 26.005894 5.8127284
-100.06554 26.00539 5.5582595
-100.05769 26.009939 5.3052688
-100.05564 26.019571 5.0535159
-100.05194 26.027733 4.8019037
-100.03911 26.027843 4.5496821
-100.14438 25.824095 8.6393652
-100.06724 25.872431 6.0631318
-100.07026 25.886448 5.8113341
-100.06413 25.892458 5.5584998
-100.05632 25.896984 5.3059406
-100.05434 25.906582 5.0546212
-100.02822 25.895031 4.800868
-100.1508 25.718098 8.6336126
-100.08858 25.779255 6.0633955
-100.05419 25.760693 5.8057413
-100.07054 25.786234 5.5568719
-100.05525 25.784225 5.3036261
-100.04578 25.787264 5.051795
-100.03466 25.788828 4.8002782
-100.02938 25.795475 4.5498672
-100.08381 25.536987 8.8643074
-100.13516 25.592779 8.6204987
-100.06506 25.646845 6.0549974
-100.04559 25.641287 5.800446
-100.03945 25.647232 5.5487375
-100.03915 25.658222 5.2983384
-100.02968 25.661236 5.0471144
-100.03359 25.675844 4.7979245
-100.03585 25.689018 4.5487213
-100.16784 25.317459 12.905097
-100.09616 25.424631 9.1184063
-100.08266 25.424683 8.8549576
-100.14893 25.492998 8.6158838
-100.03386 25.507984 6.0451865
-100.05194 25.534792 5.7974501
-100.06086 25.553696 5.5483289
-100.04554 25.551666 5.2960343
-100.02855 25.548159 5.0442085
-100.04003 25.569235 4.7963142
-100.01217 25.556286 4.544364
-100.15359 25.19479 12.880488
-100.07449 25.306328 8.8413401
-100.1557 25.387075 8.6070824
-100.0329 25.39521 6.038518
-100.05103 25.421919 5.7912135
-100.03735 25.421316 5.5391622
-100.03709 25.432207 5.289629
-100.01253 25.422178 5.0373759
-100.02404 25.443165 4.7900887
-100.01881 25.44973 4.5410671
-100.24423 24.977476 16.996576
-100.16185 25.090359 12.863713
-100.07308 25.181913 9.0852051
-100.07427 25.194407 8.8273344
-100.14812 25.268576 8.591341
-100.03969 25.288977 6.0305223
-100.04273 25.302692 5.7811475
-100.05167 25.321432 5.5329771
-100.02117 25.306408 5.2795701
-100.01922 25.315792 5.030766
-100.00049 25.310774 4.780385
-99.995224 25.31728 4.5320592
-100.29564 24.907459 17.002871
-100.15629 24.973028 12.839873
-100.16326 25.168364 8.5819769
-100.02411 25.162882 6.0185757
-100.04224 25.189394 5.7722182
-100.04359 25.20162 5.5233603
-100.02814 25.199511 5.2725415
-100.01859 25.202402 5.0231395
-100.02254 25.216785 4.7757711
-100.00967 25.21681 4.5268478
-100.30635 24.802361 16.982134
-100.18695 24.884836 12.834074
-100.05891 24.943583 9.0521507
-100.06741 24.962162 8.797534
-100.1638 25.05472 8.5689125
-100.04663 25.068176 6.0136938
-100.03448 25.068954 5.7626867
-100.03581 25.081125 5.5143485
-100.04306 25.098309 5.2671471
-100.0183 25.08831 5.0161157
-100.01464 25.096197 4.7683234
-99.986542 25.083292 4.5183797
-100.18144 24.766567 12.81094
-100.0453 24.829899 8.7774506
-100.14178 24.922127 8.5495014
-100.0237 24.934828 6.0011606
-100.03426 24.95476 5.7544603
-100.02038 24.954056 5.5043192
-100.0276 24.971161 5.2577238
-100.01038 24.967583 5.0082464
-99.999092 24.968996 4.7601175
-99.986145 24.968981 4.5123262
-100.05325 24.72253 8.7654819
-100.13487 24.801964 8.5335627
-99.978058 24.782219 5.9839344
-100.01896 24.827559 5.7429986
-100.01262 24.83321 5.4945822
-100.00461 24.837433 5.2464452
-100.00255 24.846642 4.9995508
-100.01408 24.867279 4.7545142
-99.962982 24.835136 4.5031357
-100.02345 24.640429 7.4782929
-100.01836 24.713427 5.7343969
-100.0196 24.725418 5.4875298
-100.01156 24.729618 5.2397404
-100.00948 24.738794 4.9931931
-99.998116 24.740166 4.7459345
-99.985092 24.740124 4.4990144
-99.920242 24.658081 2.5389159
-100.12199 22.56558 16.727541
-100.09485 22.557617 16.411846
-100.12593 22.453844 17.014809
-100.17687 22.554617 15.569428
-100.16138 22.555065 15.27141
-100.15069 22.559034 14.978827
-100.08685 22.522608 14.658384
-100.07797 22.597094 12.726481
-100.07669 22.607414 12.457715
-100.05093 22.598997 12.179421
-100.0305 22.594557 11.905673
-100.03804 22.611389 11.645984
-100.00595 22.597885 11.370929
-100.00197 22.605789 11.109489
-100.01119 22.623735 10.854701
-99.995758 22.622755 10.591524
-99.901398 22.676374 7.5670114
-100.16937 22.383684 17.027018
-100.11659 22.44208 14.66107
-99.923485 22.527834 9.0439243
-99.91774 22.533867 8.7939854
-99.979805 22.591833 8.5647306
-100.00157 22.618914 8.3237171
-99.99836 22.62681 8.0763798
-99.985619 22.627344 7.8274741
-99.986656 22.638428 7.5829735
-99.970375 22.636166 7.3351321
-99.975746 22.650518 7.0931201
-99.955971 22.645487 6.8463378
-99.957916 22.65715 6.6049089
-99.934669 22.64937 6.3592658
-99.917534 22.646257 6.1157336
-99.88298 22.629671 5.8701854
-99.893845 22.6481 5.6328354
-99.871605 22.640947 5.3909154
-99.855545 22.638536 5.1506658
-99.837814 22.634802 4.9108953
-99.834167 22.641947 4.6733484
-99.801331 22.695858 2.7817645
-99.790886 22.697636 2.545866
-100.18503 22.293299 17.018032
-99.909248 22.425287 8.782897
-100.02559 22.524452 8.5697508
-99.897667 22.538662 5.8681326
-99.908554 22.557058 5.6309557
-99.90992 22.568121 5.3925781
-99.870216 22.547556 5.1491323
-99.876129 22.562077 4.912384
-99.856728 22.557079 4.6730247
-99.859344 22.569036 4.4365101
-99.923508 22.628489 4.2055197
-99.920609 22.646143 3.7312384
-99.908791 22.64695 3.4937625
-99.903244 22.652592 3.2568872
-99.880257 22.644722 3.0196095
-99.879349 22.653934 2.7833009
-99.884712 22.668011 2.5470369
-99.864731 22.662443 2.310607
-99.843132 22.655602 2.074528
-99.78833 22.622963 1.8395483
-100.01125 22.228977 12.920949
-99.918236 22.310175 9.2710161
-100.01707 22.416409 8.5571032
-99.904251 22.442226 5.8627987
-99.899384 22.448498 5.6234622
-99.87706 22.44138 5.3821492
-99.868843 22.44503 5.1435423
-99.858955 22.447386 4.9052424
-99.847412 22.448444 4.6672673
-99.857941 22.466433 4.431962
-99.994827 22.117054 12.900815
-99.904427 22.209877 9.0110664
-99.906296 22.221598 8.7646379
-99.886513 22.327709 5.8567972
-99.889534 22.339949 5.6191888
-99.890907 22.350908 5.3816772
-99.866898 22.342482 5.1411691
-99.841202 22.332735 4.9013147
-99.821747 22.327719 4.6629958
-99.840233 22.351686 4.4290762
-99.801315 22.429733 1.8409597
-99.9916 22.016014 12.891068
-99.895416 22.113588 8.7578564
-99.899681 22.236904 5.859046
-99.894875 22.243109 5.6203995
-99.880486 22.242008 5.3808966
-99.87233 22.245623 5.1428933
-99.846672 22.235897 4.9032927
-99.843109 22.242958 4.6669598
-99.837906 22.248753 4.4307966
-99.903915 22.338089 3.493794
-99.882591 22.331558 3.2572763
-99.80777 22.332703 1.8463207
-100.00409 21.926884 12.885579
-99.898354 22.006521 8.998435
-99.892471 22.012264 8.7503557
-99.94738 22.163248 6.1025233
-99.904762 22.140879 5.856956
-99.907898 22.153044 5.619781
-99.87767 22.139959 5.3781972
-99.861603 22.137547 5.1395001
-99.843864 22.133839 4.9012833
-99.840332 22.140871 4.665297
-99.835152 22.146641 4.4294806
-99.876015 22.18733 4.1980038
-99.899368 22.214756 3.9644792
-99.89724 22.222841 3.7289286
-99.773727 22.206125 1.8495514
-99.989937 21.816095 12.858467
-99.910904 21.874615 9.982213
-99.893936 21.89275 9.2293806
-99.889771 21.899809 8.9812164
-99.883789 21.90547 8.7335615
-99.895226 22.033123 5.8452935
-99.882446 22.033278 5.6061273
-99.875931 22.038115 5.3685288
-99.875679 22.047657 5.132257
-99.85788 22.043951 4.8942165
-99.846367 22.044956 4.6575398
-99.833191 22.044691 4.4212074
-99.998077 21.720955 12.843349
-99.910309 21.773226 9.9670849
-99.896095 21.772985 9.7123623
-99.885284 21.785416 9.2127705
-99.904388 21.809767 8.9722586
-99.874931 21.797998 8.7177992
-99.928391 21.94717 6.0793576
-99.885529 21.924858 5.8346701
-99.880623 21.930944 5.5971484
-99.874046 21.935755 5.3598976
-99.857849 21.933323 5.1218991
-99.839973 21.929604 4.8843827
-99.820435 21.924601 4.647366
-99.855011 21.960258 4.4162993
-99.777046 22.007463 1.8415416
-100.01887 21.636055 12.84083
-99.91571 21.676888 9.9599724
-99.893082 21.680643 9.4543905
-99.880241 21.701502 8.7119493
-99.882965 21.821993 5.8306103
-99.87011 21.822119 5.5922241
-99.87149 21.832846 5.3565292
-99.855286 21.830416 5.1188769
-99.837395 21.826704 4.8817062
-99.833794 21.833651 4.6467624
-99.852493 21.857273 4.414319
-99.758835 21.892443 1.8437546
-100.02332 21.541428 12.83196
-99.896873 21.564472 9.9455585
-99.882568 21.564117 9.6915874
-99.881927 21.573753 9.4435616
-99.879456 21.581999 9.1960049
-99.875153 21.58886 8.9489384
-99.876869 21.600107 8.70471
-99.906929 21.730154 6.0687113
-99.879875 21.719728 5.8274746
-99.851105 21.707979 5.5870094
-99.852516 21.71863 5.3518338
-99.836311 21.71616 5.1146989
-99.818428 21.712418 4.8780456
-99.814857 21.719305 4.6436214
-99.841621 21.748783 4.412478
-99.756508 21.789667 1.8465042
-99.998062 21.425924 12.80547
-99.893593 21.46438 9.9336586
-99.878571 21.473488 9.4323301
-99.871742 21.488413 8.9383802
-99.873444 21.499563 8.6944895
-99.887573 21.616859 6.0594754
-99.860474 21.606396 5.8187566
-99.855598 21.612331 5.5824428
-99.873001 21.634741 5.3497744
-99.824837 21.608583 5.1085739
-99.83094 21.622587 4.8752065
-99.811394 21.617563 4.6392269
-99.822205 21.635044 4.4068747
-99.761398 21.69342 1.8460946
-100.02724 21.347401 12.802575
-99.877228 21.362658 9.6664743
-99.869568 21.386873 8.9258432
-99.871223 21.397938 8.6822901
-99.877022 21.508547 6.0496502
-99.865822 21.509829 5.8119593
-99.852936 21.509836 5.5746946
-99.838364 21.508572 5.3378758
-99.822105 21.506041 5.101521
-99.804176 21.502247 4.8656487
-99.800606 21.509027 4.6320047
-99.811424 21.526428 4.400085
-99.758652 21.590433 1.8439125
-100.04556 21.089634 17.004902
-100.04248 21.257643 12.790845
-99.874901 21.250551 9.8988981
-99.867302 21.265007 9.4018316
-99.85231 21.273909 8.906992
-99.885323 21.307758 8.6732426
-99.874725 21.406271 6.0397186
-99.863464 21.407528 5.8023753
-99.866524 21.419258 5.5678763
-99.84388 21.412119 5.3301105
-99.835587 21.415474 5.0950537
-99.825623 21.417585 4.8603067
-99.789917 21.400755 4.6233029
-99.83284 21.441719 4.3949151
-99.723564 21.464033 1.8409936
-100.08332 21.016373 17.004419
-99.865799 21.143719 9.8798704
-99.873642 21.1693 9.3887959
-99.870918 21.177223 9.1425867
-99.858505 21.178091 8.8944645
-99.891502 21.211803 8.6609621
-99.840332 21.2805 6.0233583
-99.853004 21.299217 5.7905879
-99.848 21.305019 5.5553131
-99.841316 21.309576 5.320312
-99.84903 21.324633 5.0876698
-99.814919 21.309097 4.8502579
-99.795197 21.304049 4.6154156
-99.846207 21.350769 4.3880501
-99.720482 21.361105 1.8364326
-100.08438 20.918451 16.980293
-100.04176 21.05736 12.751493
-99.871544 21.048649 9.8668613
-99.864594 21.053585 9.6174021
-99.847923 21.051477 9.3659897
-99.860786 21.070583 9.12535
-99.840393 21.065697 8.875247
-99.881248 21.10491 8.6445646
-99.821289 21.166893 6.0102921
-99.858002 21.20298 5.7819118
-99.820839 21.185389 5.5420756
-99.846245 21.213251 5.3121552
-99.829819 21.210678 5.0766754
-99.819763 21.212717 4.8426247
-99.799988 21.207659 4.6080456
-99.84301 21.248348 4.3801584
-99.725075 21.264355 1.8322004
-100.12003 20.8444 16.983431
-99.852943 20.936396 9.8487263
-99.845879 20.941248 9.5997705
-99.844795 20.950335 9.3540125
-99.849754 20.963709 9.1112204
-99.845032 20.970106 8.8663511
-99.877998 21.003515 8.6336002
-99.809486 21.05929 6.0017228
-99.838188 21.089443 5.772481
-99.849182 21.106794 5.5403948
-99.842438 21.11129 5.3060002
-99.817909 21.102882 5.0698366
-99.799759 21.099062 4.8352766
-99.77993 21.094002 4.6012197
-99.822998 21.134562 4.3738513
-99.704918 21.150551 1.831652
-99.922104 20.763626 12.928267
-99.849426 20.834846 9.8370581
-99.865852 20.85643 9.5964117
-99.841171 20.848665 9.3430166
-99.838203 20.856337 9.0980721
-99.866379 20.895927 8.6212978
-99.813431 20.962711 5.9968877
-99.834122 20.986979 5.7666135
-99.829018 20.992661 5.5324636
-99.806114 20.985495 5.2963533
-99.805725 20.994528 5.0639777
-99.811752 21.008183 4.8326845
-99.767677 20.985647 4.5962291
-99.818886 21.031916 4.3700647
-99.692734 21.042051 1.8318892
-99.925545 20.669872 12.916879
-99.84996 20.728533 10.07477
-99.837517 20.739355 9.5775976
-99.828476 20.742693 9.3299379
-99.820633 20.7565 8.8413897
-99.885315 20.812153 8.6187639
-99.8004 20.855534 5.9897752
-99.821129 20.879684 5.759932
-99.824089 20.891092 5.5274186
-99.809235 20.889706 5.2927718
-99.808868 20.898691 5.0606546
-99.782593 20.889046 4.8258433
-99.762726 20.883974 4.5925674
-99.814034 20.930084 4.3667502
-99.696205 20.945879 1.8322099
-99.83255 20.638872 9.567687
-99.831367 20.647724 9.322937
-99.828354 20.655237 9.0786657
-99.823509 20.661415 8.8348932
-99.872414 20.705624 8.6078844
-99.85173 20.794327 5.9946189
-99.807976 20.772356 5.7541852
-99.810951 20.783693 5.5221038
-99.804176 20.788055 5.2890072
-99.779549 20.779634 5.054142
-99.777527 20.78735 4.8227706
-99.749557 20.776472 4.5889831
-99.809067 20.82823 4.3643727
-99.691505 20.843885 1.8336548
-99.81559 20.604959 7.6264601
-99.791939 20.597639 7.3840547
-99.82267 20.62878 7.155118
-99.811584 20.630295 6.9172034
-99.790314 20.652405 5.9777212
-99.811066 20.676395 5.7485695
-99.822098 20.693474 5.5179524
-99.799095 20.686333 5.282795
-99.782501 20.68372 5.0493102
-99.772339 20.685663 4.817256
