# .PCD v0.7 - Point Cloud Data file format
VERSION 0.7
FIELDS x y z
SIZE 4 4 4
TYPE F F F
COUNT 1 1 1
WIDTH 1559
HEIGHT 1
VIEWPOINT 0 0 0 1 0 0 0
POINTS 1559
DATA ascii
-100.53806 34.505409 6.0486073
-102.08354 17.896265 17.778303
-102.10635 17.937765 17.4443
-102.07472 17.925898 17.07786
-102.05353 17.924061 16.721188
-102.07573 17.964596 16.39357
-102.0628 17.970573 16.04697
-102.05405 17.980516 15.705339
-102.0363 17.981493 15.361059
-102.02946 17.993048 15.025277
-102.03365 18.015341 14.697538
-101.99553 17.995861 14.349704
-101.9818 18.000259 14.01706
-101.97926 18.015574 13.692064
-101.9678 18.021992 13.364612
-101.94063 18.012783 13.031849
-101.93153 18.021309 12.709544
-101.92709 18.034338 12.391051
-101.90013 18.024992 12.064622
-101.88464 18.026886 11.745028
-101.89438 18.053703 11.437222
-101.8679 18.044523 11.116556
-101.83931 18.033142 10.797049
-101.82925 18.040066 10.48611
-101.83096 18.058615 10.180633
-101.80312 18.047705 9.8663816
-101.80781 18.069082 9.5642653
-101.76212 18.04022 9.247571
-101.75598 18.050674 8.9445915
-101.73404 18.045303 8.6382055
-101.73304 18.07719 8.0405092
-101.70534 18.06587 7.7361908
-101.68608 18.079203 7.1395268
-101.65027 18.091906 6.2493896
-101.56776 17.98576 1.2966837
-101.5545 17.988306 1.0075365
-102.11856 17.310463 18.335346
-102.19292 17.092405 18.302126
-102.35201 16.460884 22.286503
-102.37029 16.202 22.204128
-102.38106 15.936666 22.116703
-102.37907 15.661267 22.015965
-102.22831 15.447651 18.195883
-102.47415 14.445337 21.295794
-102.25726 13.815636 14.185386
-102.25484 13.858552 13.262972
-102.25681 13.874963 12.960336
-102.23464 13.871439 12.648678
-102.23216 13.884017 12.347612
-102.22751 13.894722 12.047251
-102.23878 13.506417 14.732249
-102.24035 13.568037 13.500143
-102.23685 13.580062 13.194895
-102.24575 13.602072 12.897043
-102.24515 13.616282 12.596457
-102.24236 13.628631 12.296553
-102.22261 13.627099 11.991243
-102.22283 13.641738 11.695918
-102.21351 13.648525 11.398298
-102.21079 13.674874 10.813613
-102.2278 13.295447 13.435425
-102.21655 13.301308 13.128189
-102.21773 13.317047 12.828516
-102.22408 13.336868 12.53272
-102.20609 13.337038 12.228033
-102.20809 13.353205 11.933552
-102.2154 13.373571 11.642613
-102.22808 13.398203 11.354995
-102.19388 13.384976 11.050844
-102.19489 13.400056 10.761613
-102.20883 13.42553 10.478163
-102.19823 13.431117 10.187254
-102.1859 13.449271 9.6124048
-101.95151 13.582754 2.9785924
-102.57051 12.932695 21.191238
-102.5759 12.972779 20.46912
-102.56386 12.981079 20.102304
-102.1915 13.054702 12.465849
-102.18791 13.06644 12.169008
-102.20451 13.094145 11.882042
-102.18169 13.090427 11.580475
-102.1791 13.102731 11.288668
-102.16689 13.107296 10.994687
-102.16759 13.122079 10.706966
-102.18131 13.14719 10.425027
-102.17793 13.158598 10.138187
-102.1725 13.168309 9.8519087
-102.17262 13.182397 9.5685978
-102.17074 13.19483 9.2857275
-102.15163 13.193418 8.9988995
-102.16862 13.220862 8.7235308
-102.14551 13.216123 8.4379568
-102.15097 13.234251 8.1610813
-102.19421 12.862098 11.25099
-102.19688 12.878383 10.963616
-102.19747 12.892972 10.676733
-102.18085 12.893922 10.385098
-102.17729 12.905103 10.099437
-102.17168 12.914604 9.8143406
-102.17928 12.934481 9.5345936
-102.15437 12.928596 9.2459393
-102.14266 12.933096 8.9626827
-102.13661 12.94201 8.6822119
-102.15926 12.973631 8.4104156
-102.13394 12.967172 8.1267462
-102.12968 12.977372 7.8495865
-102.1312 12.992113 7.5746217
-102.11537 12.993034 7.296525
-102.11305 13.004649 7.0222797
-102.51323 12.096255 16.754875
-102.26253 11.747865 9.7012014
-102.62668 11.000456 21.013739
-102.62118 11.013478 20.650784
-102.59851 11.014194 20.278835
-102.30172 10.559967 10.114605
-102.61559 8.6368399 16.317015
-102.57366 8.6659155 15.070723
-102.56232 8.6723604 14.765067
-102.56396 8.6868067 14.468413
-102.53968 8.6849499 14.160967
-102.55985 8.7107916 13.877574
-102.53838 8.7104864 13.576033
-102.51437 8.7084846 13.275715
-102.51952 8.7246733 12.99083
-102.50648 8.7293625 12.699652
-102.50521 8.754076 12.133472
-102.31931 8.8427725 7.4971943
-102.35342 8.8762236 7.2452154
-102.32753 8.8713732 6.9809608
-102.32458 8.8811274 6.722363
-102.31971 8.8896132 6.4640942
-102.2879 8.8808346 6.2018604
-102.28748 8.892108 5.9459233
-102.26846 8.8914375 5.6876736
-102.25588 8.8948536 5.4311876
-102.26649 8.9131212 5.1784101
-102.22501 8.8979311 4.9195309
-102.22348 8.9083652 4.6662388
-102.21171 8.9121943 4.4122591
-102.20645 8.9201918 4.1593628
-102.15845 8.9346476 3.1494138
-102.10247 8.9663105 1.6429508
-102.64551 8.4583092 15.671908
-102.6129 8.4925966 14.452121
-102.53115 8.4948349 13.246221
-102.61567 8.5601196 12.997435
-102.56948 8.5699558 12.126397
-102.34892 8.5356331 4.9201865
-102.25596 8.5226688 3.903425
-102.29774 8.560214 3.6553979
-102.7253 8.0482531 16.261965
-102.67039 8.0291424 15.922712
-102.64341 8.0265875 15.602622
-102.64472 8.0408678 15.300784
-102.64345 8.0534954 14.999834
-102.6396 8.064476 14.699802
-102.6017 8.0548859 14.384909
-102.59264 8.0625153 14.087124
-102.58898 8.0732975 13.79414
-102.56696 8.0729189 13.494612
-102.55529 8.091403 12.917018
-102.54988 8.100771 12.631262
-102.53201 8.1149969 12.062256
-102.54386 8.1345863 11.788721
-102.52917 8.1380253 11.506184
-102.37534 8.2450047 6.9548612
-102.36919 8.2753916 6.1872025
-102.3689 8.2865534 5.9328218
-102.35827 8.2913065 5.6773911
-102.34571 8.2948437 5.4223723
-102.34815 8.3076162 5.1699791
-102.35717 8.3244419 4.9187016
-102.33891 8.3243837 4.6646066
-102.34418 8.3388596 4.4135122
-102.33062 8.3416653 4.1609101
-102.27279 8.3169889 3.9053552
-102.27243 8.3279209 3.6550729
-102.65223 7.8870497 14.095278
-102.63285 7.88836 13.794781
-102.57898 7.8690372 13.480625
-102.63326 7.9638577 12.08748
-102.27038 8.100666 3.9112184
-102.27018 8.1115379 3.6617188
-102.31069 8.1473703 3.4147277
-102.70542 7.6052804 16.514343
-102.62099 7.6606278 14.06491
-102.60149 7.6618123 13.765367
-102.35756 7.8982124 4.9293475
-102.26542 7.8860664 3.9211423
-102.25687 7.8917241 3.6718416
-102.30627 7.9324546 3.4262455
-102.61038 7.4603009 13.751062
-102.54799 7.6359363 8.7995415
-102.33436 7.6741443 4.930275
-102.35058 7.6945562 4.6823268
-102.26832 7.6882915 3.679852
-102.28377 7.7081928 3.4328821
-102.32656 7.4612484 4.9294424
-102.36012 7.4915686 4.6841588
-102.26797 7.489974 3.436213
-102.32292 7.2731113 4.4309607
-102.31849 7.2809443 4.1829181
-102.36378 7.0498033 5.4227648
-102.35832 7.0570927 5.1733298
-103.14855 4.5412569 22.538918
-103.20091 4.5811434 22.212196
-102.6096 4.9133258 7.2696223
-102.60155 4.9198265 7.0191021
-102.5915 4.9252996 6.7690573
-102.59715 4.9384613 6.5227327
-102.5831 4.9419055 6.2735291
-102.57594 4.9487047 6.0263009
-102.98631 4.4368653 18.240868
-99.518684 55.628609 17.975351
-99.496849 55.617226 17.499266
-99.563515 55.477509 18.416983
-99.60495 55.609619 17.988613
-99.602402 55.642101 17.526781
-99.536278 55.5303 17.020027
-99.507004 55.50172 16.544342
-99.514816 55.557091 16.097261
-99.653412 55.466446 18.434399
-99.075035 55.518738 1.6286323
-99.585556 55.0597 18.783606
-99.673241 55.039295 18.797911
-100.33357 44.037537 18.764042
-100.38888 43.830631 18.71376
-100.44138 43.622334 18.667831
-100.44426 42.112724 18.65167
-100.50413 41.909008 18.606258
-100.52867 41.642376 18.525566
-100.54961 41.375843 18.44795
-100.55151 41.084419 18.364887
-100.60046 41.192818 18.019674
-100.53839 40.76923 18.2708
-100.56335 40.836983 17.909134
-100.5625 40.861946 17.529268
-100.5433 40.506947 17.80127
-100.5179 40.491264 17.405519
-100.56026 40.285812 16.962326
-100.54266 39.955917 16.848001
-100.50156 39.721531 14.917728
-100.50206 39.438046 14.839365
-100.46033 39.46817 13.408704
-100.21423 39.22139 2.6521385
-100.22426 38.950256 2.6462021
-100.21962 38.964523 2.3235579
-100.19246 38.942379 2.0013094
-100.70859 38.510059 16.444885
-100.5779 38.54105 12.863881
-100.23524 38.678329 2.6375723
-100.23066 38.692532 2.3165836
-100.20872 38.67889 1.9958588
-100.46047 38.055698 8.7319736
-100.44061 37.743366 8.6986828
-100.44164 37.463657 8.67313
-102.06123 18.014185 17.924908
-102.05871 18.026077 17.621952
-102.0388 18.038675 17.014463
-102.05681 18.065081 16.734291
-102.04404 18.069016 16.435701
-102.02158 18.065767 16.133669
-102.02526 18.081406 15.851444
-102.01939 18.089989 15.565536
-102.00392 18.091448 15.276203
-101.99329 18.096325 14.992441
-101.98763 18.104712 14.714045
-101.97968 18.111332 14.436601
-101.98418 18.126957 14.168391
-101.95705 18.119318 13.884686
-101.94238 18.120701 13.610273
-101.93291 18.125809 13.340814
-101.92131 18.129246 13.072289
-101.90757 18.13102 12.804724
-101.94422 18.169758 12.563658
-101.89631 18.146233 12.283273
-101.89896 18.159815 12.02895
-101.87694 18.155155 11.765002
-101.86045 18.154478 11.505463
-101.84956 18.157852 11.25011
-101.84434 18.165342 10.99872
-101.83721 18.171356 10.747999
-101.82051 18.170225 10.494985
-101.80189 18.167593 10.24285
-101.80447 18.180605 10.000079
-101.78209 18.175051 9.749526
-101.75494 18.176805 9.2589931
-101.75028 18.184227 9.0185537
-101.72829 18.178701 8.7738256
-101.7279 18.189186 8.5369091
-101.71014 18.186705 8.2959146
-101.70629 18.194523 8.059948
-102.07372 17.812798 18.194916
-102.06664 17.821608 17.886293
-102.07087 17.838394 17.588997
-102.03734 17.827936 17.26775
-102.07171 17.866116 16.997288
-102.07545 17.882181 16.707767
-102.09104 17.90666 16.428646
-102.05414 17.893204 16.11742
-102.05772 17.908798 15.835509
-102.05175 17.917383 15.549914
-102.06518 17.939878 15.278666
-102.03996 17.934338 14.986178
-101.56741 18.178057 1.8994209
-102.07394 17.637913 17.854874
-102.07101 17.6495 17.553049
-102.07153 17.676804 16.962549
-102.08226 17.697733 16.678471
-102.06912 17.701529 16.380877
-102.04624 17.698233 16.079842
-102.05688 17.718756 15.803227
-102.04349 17.721987 15.513731
-102.0495 17.738993 15.238744
-102.04595 17.74905 14.960132
-102.04745 17.762623 14.686732
-102.05409 17.779793 14.418338
-102.02159 17.768759 14.129968
-102.02386 17.794712 13.597415
-102.04394 17.473694 16.919819
-102.06169 17.499327 16.641417
-102.05558 17.507992 16.349339
-102.03976 17.509663 16.053665
-102.05762 17.535063 15.782276
-102.05145 17.543331 15.497841
-102.04288 17.549793 15.21443
-102.05395 17.570084 14.945181
-102.04074 17.573038 14.663672
-102.03997 17.584728 14.391702
-102.03698 17.594748 14.120558
-102.04668 17.613714 13.858372
-102.03188 17.615133 13.58483
-102.00735 17.60951 13.308465
-102.03902 17.314896 16.319818
-102.03033 17.321482 16.029512
-102.02641 17.331303 15.744931
-102.03468 17.349575 15.470405
-102.01139 17.345554 15.178788
-102.02972 17.370705 14.914779
-102.02379 17.378681 14.638345
-102.02296 17.390167 14.367084
-102.01993 17.399994 14.096651
-102.01469 17.408171 13.827074
-102.01474 17.420002 13.562357
-102.00515 17.424925 13.294493
-102.01602 17.444244 13.039016
-102.00218 17.445992 12.77281
-101.98684 17.480539 11.745425
-102.02541 17.150061 15.720956
-102.04829 17.178301 15.456039
-102.01758 17.169132 15.160348
-101.99907 17.168333 14.874934
-102.01515 17.191566 14.612253
-102.02912 17.213245 14.35006
-102.00368 17.207291 14.067682
-101.99083 17.210039 13.794758
-102.0058 17.232162 13.538798
-102.00365 17.242229 13.275471
-102.00696 17.256037 13.01674
-101.98543 17.252338 12.747436
-101.99217 17.268402 12.493915
-101.98928 17.277634 12.237347
-101.99203 17.290758 11.98499
-101.97623 17.3018 11.475371
-101.96795 17.317871 10.975239
-101.52829 17.427284 1.2766385
-102.02423 16.987429 15.410431
-102.00394 16.997597 14.848371
-102.00401 17.021425 14.307545
-102.00069 17.030888 14.038367
-101.97264 17.023104 13.757871
-101.99498 17.050179 13.506598
-101.99266 17.060068 13.243901
-101.98822 17.068401 12.981984
-101.99689 17.085777 12.728351
-101.9883 17.091064 12.467909
-101.98527 17.100153 12.2119
-101.96484 17.09704 11.94962
-101.98086 17.119261 11.705475
-101.9718 17.123934 11.451612
-101.953 17.121723 11.195292
-101.97105 17.145199 10.955779
-101.9639 17.151005 10.707193
-101.96265 17.160875 10.462302
-101.54138 17.28224 0.83341616
-101.96368 16.905939 13.208596
-101.97436 16.924538 12.954887
-101.94485 16.915361 12.682975
-101.95905 16.936243 12.434321
-101.94827 16.939808 12.175314
-101.92769 16.936533 11.913696
-101.92819 16.947748 11.663386
-101.95776 16.979008 11.427002
-101.92333 16.965927 11.164608
-101.93358 16.983707 10.922514
-101.94198 17.000158 10.680763
-101.94069 17.009842 10.436378
-101.92967 17.012712 10.18963
-101.9325 17.025145 9.9492855
-101.90984 17.019794 9.7011251
-101.9248 17.040569 9.4672394
-101.90631 17.038013 9.2231665
-102.12922 16.683771 16.840578
-102.10368 16.679018 16.534595
-102.11911 16.701817 16.258709
-102.08831 16.693249 15.955337
-102.11361 16.722517 15.69042
-102.1072 16.73023 15.40776
-102.09098 16.731174 15.121675
-102.07973 16.735384 14.841184
-102.06611 16.737867 14.561782
-102.05761 16.743734 14.287719
-102.0694 16.763306 14.027062
-102.04886 16.760788 13.750713
-102.04874 16.772083 13.487509
-102.05408 16.787022 13.228959
-102.01919 16.774418 12.951937
-102.02791 16.791504 12.698792
-102.04231 16.812405 12.449815
-102.01622 16.80555 12.183331
-102.01115 16.812986 11.928537
-101.98853 16.808338 11.667665
-101.98715 16.818157 11.417879
-101.97601 16.821218 11.165474
-101.98634 16.838953 10.92338
-101.97129 16.839199 10.672382
-101.95427 16.838022 10.422249
-101.97469 16.862545 10.187579
-101.96176 16.864065 9.9416542
-101.93902 16.858759 9.6937447
-101.93022 16.863001 9.4521179
-101.92753 16.871407 9.2137098
-101.90079 16.873316 8.7335672
-101.90069 16.883368 8.4991922
-101.90685 16.89772 8.2674417
-101.88992 16.906059 7.7984433
-101.88287 16.911144 7.5657177
-102.18889 16.529936 17.140926
-101.81661 16.74349 6.1752295
-101.7851 16.741138 5.7197814
-101.76171 16.527508 6.1564832
-101.76268 16.547476 5.7084775
-101.77943 14.343331 2.4121456
-101.76614 14.344228 2.1971712
-101.77682 14.359796 1.9818788
-101.76885 14.363951 1.7667822
-101.76779 14.372346 1.5513902
-102.14254 12.84695 9.6872778
-102.15112 12.861348 9.4589281
-102.14099 12.865393 9.2255306
-102.12897 12.868335 8.9927902
-102.12351 12.874861 8.7632332
-102.1332 12.889707 8.5390472
-102.09857 12.88001 8.3033876
-102.09612 12.888055 8.0778122
-102.08332 12.890339 7.8504872
-102.08582 12.90106 7.6279321
-102.05231 12.891762 7.3976774
-102.04268 12.895675 7.1741414
-102.04848 12.908125 6.9547472
-102.03536 12.91003 6.7320433
-102.01188 12.90613 6.508215
-102.02115 12.92043 6.2913742
-102.00283 12.919337 6.0701399
-101.99143 12.92207 5.850883
-101.98699 12.928658 5.6333623
-101.96355 12.924603 5.4136715
-102.42664 12.619685 15.298772
-102.18665 12.767228 8.5534048
-102.42378 12.48814 14.754172
-102.17139 12.569264 9.4644613
-102.17088 12.607162 8.5507851
-102.17227 12.456503 8.5523701
-102.16177 12.27353 9.2326021
-102.15305 12.287921 8.774498
-102.15446 12.298126 8.5486603
-102.16262 12.311902 8.3255501
-102.15958 12.356861 7.2099304
-102.13931 12.382711 6.3268213
-102.13862 12.391456 6.1084685
-102.05624 12.428109 4.155951
-102.27717 12.047923 12.608607
-102.28976 12.125414 10.911128
-102.05589 12.279882 4.162293
-102.27414 11.899604 12.607581
-102.05518 12.131894 4.1705818
-102.07301 12.150238 3.9583969
-102.26495 11.88623 9.2733517
-102.11455 11.97244 5.257134
-102.09509 11.997678 4.3966293
-102.03532 11.97498 4.1778955
-102.0621 11.997933 3.9667933
-102.26954 11.74301 9.2774744
-102.1027 11.820776 5.26197
-102.10118 11.855333 4.4044809
-102.03257 11.828248 4.1851702
-102.05065 11.846489 3.9736998
-102.28279 11.606431 9.2811861
-102.28851 11.618708 9.0544128
-102.24269 11.623152 8.3619909
-102.10834 11.679808 5.2659993
-102.08944 11.705093 4.407567
-102.02077 11.678219 4.1885848
-102.05669 11.705553 3.9787533
-102.26061 11.454593 9.2705917
-102.25772 11.46237 9.0416174
-102.27021 11.477878 8.8182182
-102.07735 11.522058 5.2618656
-102.06747 11.551576 4.4063225
-102.04366 11.556547 3.9790142
-102.26429 11.316128 9.2663422
-102.2528 11.319509 9.0349131
-102.25668 11.330541 8.8092289
-102.22418 11.332291 8.3494816
-102.09034 11.38731 5.261806
-102.05405 11.403044 4.4041438
-102.04807 11.417009 3.9788151
-102.07747 11.247496 5.0424385
-102.067 11.250741 4.8279018
-102.08153 11.266571 4.6164169
-102.02613 11.264037 3.9745774
-102.07272 11.104228 5.0321469
-102.07107 11.111949 4.8188634
-102.07664 11.123272 4.6066456
-102.21836 10.876923 8.9830275
-102.25671 10.90473 8.7684612
-102.25844 10.923692 8.3195314
-102.23817 10.993659 6.3323011
-101.95476 10.919801 1.1999406
-102.26954 8.8811598 6.2758236
-102.27837 8.8933096 6.0622296
-102.24908 8.8890696 5.8430767
-102.2453 8.8957586 5.6286597
-102.3187 8.7587585 6.7158556
-102.28513 8.7778921 5.8477464
-102.19452 8.7023926 3.5054877
-102.15614 8.6174431 2.0341818
-102.17681 8.6344175 1.8237469
-102.159 8.6350174 1.6141697
-102.37601 8.3522167 8.0345917
-102.37225 8.3592548 7.8125734
-102.35757 8.3617649 7.5889044
-102.35913 8.3709249 7.3698773
-102.33166 8.3680725 7.1453943
-102.3529 8.3937349 6.7147064
-102.37439 8.2197285 8.2566032
-102.37254 8.2275181 8.0342464
-102.37787 8.2381973 7.8144894
-102.36324 8.2407045 7.590817
-102.3558 8.2461042 7.3697815
-102.35316 8.2785225 6.4989147
-102.35146 8.1216812 7.374105
-102.36951 8.1373339 7.1593995
-102.36758 8.1448603 6.9409995
-102.37296 8.1553297 6.7246928
-102.34916 8.1539068 6.5035739
-102.36359 8.0125837 7.165051
-102.37087 8.0237503 6.948576
-102.3581 8.0268164 6.7287593
-102.38007 8.0438614 6.516151
-102.35615 7.8957567 6.9503984
-102.33801 7.904789 6.5133033
-102.35242 7.7874446 6.5157647
-103.1674 4.8259082 22.418873
-102.99124 4.9124188 18.350262
-103.0322 4.9355135 18.075397
-102.93449 4.926899 17.417267
-102.64561 5.0881076 6.645196
-102.64069 5.0942721 6.4252534
-102.60639 5.0987568 5.9835558
-102.61472 5.1090527 5.7677546
-102.60234 5.1127462 5.5494232
-102.59756 5.1188383 5.3327589
-102.59096 5.12433 5.1163859
-102.5723 5.1335163 4.6845798
-102.56973 5.1402473 4.4700541
-103.08208 4.4336896 19.049805
-99.123558 55.735142 4.40626
-99.11631 55.770111 3.8559382
-99.094315 55.77356 3.3046772
-99.066071 55.763577 2.7535446
-99.056946 55.794537 2.2030435
-99.016197 55.757698 1.6525552
-100.74886 38.481613 17.696587
-100.719 37.922276 17.549841
-100.77502 38.034634 17.11644
-100.72932 37.425926 17.427597
-100.73061 37.458725 16.968161
-100.62197 37.546028 13.307417
-100.66028 37.090298 13.227893
-100.6474 36.536034 13.563985
-100.63459 36.547245 13.120581
-100.61909 36.583538 12.242605
-100.60593 36.622723 11.371122
-100.58176 36.617424 10.931656
-100.55533 36.608833 10.493223
-100.53236 36.605007 10.057511
-100.56998 36.686581 9.6399622
-100.57693 36.72485 9.2140846
-100.50024 36.199055 7.8629808
-100.48111 36.200211 7.4383593
-100.4945 36.246845 7.0206375
-100.48843 36.266197 6.5996542
-100.49178 36.298752 6.1805849
-100.48723 36.320194 5.7605834
-100.46899 36.322372 5.3392453
-100.44283 36.313389 4.9177356
-100.44348 36.342068 4.4994946
-100.44202 36.367764 4.0810618
-100.45502 35.777794 5.7228851
-100.42501 35.763584 5.3038936
-100.43952 35.811172 4.8905787
-100.41693 35.807194 4.4735522
-100.42721 35.848915 4.0596519
-100.41206 35.855236 3.643847
-100.41228 35.882961 3.2290506
-100.41038 35.907753 2.8139849
-100.39471 35.913342 2.3985052
-100.37453 35.94006 1.5677459
-100.28276 35.839188 1.1546112
-100.35694 35.420998 1.5738846
-100.76893 34.841499 11.554241
-100.71468 34.823597 10.694077
-100.7282 34.869148 10.278712
-100.66309 34.8088 9.8417625
-100.60427 34.864876 7.7522655
-100.57298 34.849495 7.3334336
-102.15525 18.054367 18.110222
-101.67707 18.416555 4.4957986
-101.62295 18.444393 3.1937325
-101.60584 18.44842 2.8689613
-101.58654 18.450649 2.5444705
-101.57281 18.457375 2.2203519
-101.54912 18.456022 1.8964083
-101.53877 18.465466 1.5726053
-102.34873 16.552137 21.304655
-102.18763 16.608011 18.100805
-102.35822 16.213142 21.212822
-102.20802 16.276386 18.02833
-102.22408 15.9457 17.958334
-102.20015 15.587532 17.870598
-102.19153 15.641123 16.764057
-102.2255 15.282616 17.438471
-102.21984 15.298336 17.069471
-102.15051 14.428844 12.977892
-102.1009 14.122072 11.569448
-102.10511 14.142167 11.24231
-102.07456 14.139052 10.905859
-102.08994 14.166445 10.584761
-102.09482 14.186788 10.261575
-102.09727 14.205461 9.938776
-102.09732 14.222466 9.6163902
-102.09496 14.237808 9.2944441
-102.0739 14.240576 8.9690905
-102.06673 14.252578 8.6482744
-102.07353 14.273891 8.3315077
-102.06981 14.288112 8.0132637
-102.09204 13.806809 10.856184
-102.057 13.834994 9.8773355
-102.07304 13.862485 9.5609455
-102.054 13.86684 9.2365875
-102.06528 13.891109 8.9207706
-102.05783 13.902973 8.6014147
-102.03977 13.907785 8.2808208
-102.044 13.927258 7.9659719
-102.03766 13.939711 7.6497645
-102.03723 13.956027 7.3354878
-102.04273 13.976242 7.0229077
-102.02117 13.978476 6.7064691
-102.03033 14.001055 6.3956823
-102.00414 14.000123 6.0802736
-102.00047 14.014112 5.7688026
-102.03751 13.547626 8.5538588
-102.02738 13.557734 8.2365742
-102.02315 13.57162 7.9215136
-102.01656 13.583934 7.6068583
-102.00764 13.594678 7.292634
-101.99638 13.603856 6.9788656
-102.00771 13.627729 6.669558
-102.00845 13.64467 6.3589969
-101.99859 13.654654 6.0474668
-101.98644 13.663099 5.7363186
-101.98866 13.68092 5.427536
-102.01359 13.713627 5.1215172
-101.9863 13.71206 4.810245
-101.99007 13.730856 4.5025029
-101.96658 13.731718 4.1928434
-101.9575 13.742036 3.8848014
-101.92382 13.784873 2.6554775
-102.21831 13.084648 13.094602
-102.20235 13.092175 12.755895
-102.1918 13.103024 12.421056
-102.17861 13.112107 12.087091
-102.1628 13.119435 11.75403
-102.13971 13.139228 11.09578
-102.14071 13.156969 10.772749
-102.12283 13.162637 10.445526
-102.11063 13.171844 10.121449
-102.09596 13.179395 9.79811
-102.0953 13.19581 9.4797297
-102.08397 13.20536 9.1597872
-102.07021 13.213296 8.8404913
-102.05405 13.219621 8.5218706
-102.03547 13.22434 8.203949
-102.03268 13.255638 7.5782261
-102.02364 13.26631 7.2651238
-102.00392 13.270085 6.9510694
-102.01522 13.293744 6.6429677
-101.99086 13.29444 6.3299036
-101.99758 13.315101 6.0221505
-101.97696 13.318118 5.7112403
-101.97076 13.3304 5.4028673
-101.97067 13.34659 5.095644
-101.96832 13.361304 4.7885294
-101.97208 13.379959 4.4822645
-101.94008 13.375455 4.1734595
-101.97286 13.412879 3.8697035
-101.94474 13.410836 3.5620859
-101.93952 13.42362 3.2561502
-101.94044 13.440388 2.9505725
-101.93912 13.4557 2.6449196
-101.92719 13.464103 2.3391066
-101.90309 13.496922 1.4221733
-102.16733 12.554948 9.7576027
-102.15005 12.560778 9.4367256
-102.50536 11.186297 14.632535
-101.95616 10.897651 0.85061115
-101.94888 10.908245 0.55336297
-102.62 8.8888693 16.410204
-102.57022 8.9129066 15.361093
-102.62519 8.9567814 15.047554
-102.5857 8.9528923 14.695122
-102.56822 8.9599972 14.354642
-102.53098 8.9569864 14.008636
-102.55815 8.9864779 13.690362
-102.32668 9.1236563 8.2790537
-102.32056 9.1494007 7.6733899
-102.31391 9.1603546 7.371182
-102.31365 9.1745739 7.0709214
-102.28465 9.1738863 6.7667251
-102.28845 9.1901312 6.4686732
-102.2635 9.1914387 6.1670794
-102.26261 9.2051945 5.8696609
-102.24176 9.2085524 5.5703325
-102.24506 9.2244253 5.2745333
-102.21954 9.2252893 4.9761515
-102.20939 9.2341118 4.6800194
-102.19693 9.2417097 4.3842015
-102.17333 9.2434683 4.088089
-102.20586 8.9140797 4.6769943
-102.18336 8.9718571 3.208863
-102.19514 8.9917498 2.9164388
-102.17797 8.9967489 2.6231737
-102.14964 8.9959803 2.330096
-102.13682 9.0031881 2.0375602
-102.1395 9.0183945 1.7450653
-102.13991 9.0324345 1.4524124
-102.12028 9.0361204 1.1600997
-102.13389 9.0570097 0.86672145
-102.12746 9.0675402 0.57372808
-102.53656 8.4201183 12.007809
-102.36457 8.537096 7.6509571
-102.35802 8.5478678 7.3501191
-102.33138 8.5485792 7.0467315
-102.30628 8.5639248 6.4477472
-102.30793 8.5786343 6.1515074
-102.28947 8.5832586 5.8531599
-102.25977 8.5822077 5.5543141
-102.2544 8.5933104 5.2591767
-102.23781 8.5987568 4.9634147
-102.2244 8.619503 4.3754716
-102.2187 8.6303549 4.0821815
-102.54527 8.1046009 11.965448
-102.30444 8.0374622 4.0409446
-103.02322 4.9006886 18.134808
-102.57127 5.3178949 5.145268
-102.56351 5.3281274 4.8558874
-99.575722 55.414467 18.269674
-99.564125 55.421211 17.819855
-99.494644 55.347233 16.897533
-99.475769 55.367622 16.018978
-99.463509 55.372314 15.581183
-100.61544 41.591747 19.182899
-100.60602 41.420475 19.147062
-100.69253 38.602379 18.765966
-100.72956 38.482651 18.742165
-100.7655 38.362476 18.719904
-100.78884 38.227871 18.690731
-100.80058 38.077641 18.655907
-100.83566 37.954983 18.637842
-100.77058 37.031597 17.927807
-100.76132 37.059757 17.211952
-100.77422 36.880684 17.877768
-100.7675 36.892334 17.518147
-100.63064 36.431919 11.947492
-100.60113 36.448448 10.982533
-100.38065 36.094131 1.5107766
-100.37285 36.101192 1.2125636
-100.37253 35.935253 1.5189451
-100.37764 35.957691 1.2208803
-100.36395 35.776428 1.5286413
-100.3306 35.75301 1.2336112
-100.35413 35.61845 1.5401043
-100.35305 35.633343 1.2441498
-100.34434 35.460323 1.5517617
-100.33047 35.460018 1.2573903
-100.32796 35.294472 1.563754
-100.32072 35.301823 1.2699847
-100.32476 35.322441 0.97525328
-101.00103 34.562321 16.749575
-100.9127 34.515785 15.684244
-100.90555 34.524906 15.347905
-100.86506 34.496578 14.995023
-100.80383 34.544056 12.709464
-100.80334 34.559761 12.393954
-100.80094 34.573227 12.079025
-100.76464 34.54842 11.751335
-100.77116 34.571793 11.44325
-100.75658 34.571289 11.127975
-100.75938 34.590332 10.820822
-100.73457 34.578129 10.504703
-100.64346 34.568569 8.6590471
-100.67072 34.614925 8.3671751
-100.64415 34.600151 8.0616331
-100.63536 34.605503 7.7617397
-100.62482 34.608822 7.4623036
-100.61253 34.610107 7.1633487
-100.5985 34.609371 6.8648982
-100.58273 34.606617 6.566977
-100.5849 34.624252 6.2730112
-100.55259 34.602547 5.9738631
-100.53822 34.601265 5.678544
-100.52872 34.605499 5.3845477
-100.53066 34.62278 5.0924239
-100.51778 34.623112 4.7988725
-100.51637 34.63652 4.5068913
-100.50012 34.632961 4.2138758
-100.50191 34.650028 3.9225655
-100.48232 34.64259 3.6300881
-100.47098 34.659584 3.0473433
-100.45952 34.676437 2.4647696
-100.69207 34.479465 8.6489058
-100.5938 34.505951 5.9634805
-100.59248 34.519615 5.6702561
-100.57632 34.516373 5.375391
-100.55187 34.503674 5.0802135
-100.55206 34.518978 4.788497
-100.55714 34.53986 4.4973874
-100.44199 34.543747 1.8753225
-100.70268 34.345585 8.6256199
-100.58972 34.356606 5.9435883
-100.58827 34.370193 5.6511455
-100.57195 34.366909 5.3570695
-100.56052 34.369137 5.064249
-100.55399 34.376907 4.7724457
-100.56558 34.405212 4.4826374
-100.49548 34.461708 1.8648773
-100.69914 34.196781 8.6024885
-100.58482 34.207226 5.9274869
-100.57005 34.205856 5.6339188
-100.55358 34.20253 5.3408036
-100.54203 34.204716 5.048943
-100.54862 34.227371 4.7594852
-100.54031 34.233185 4.4686399
-100.69372 34.048183 8.5837088
-100.73954 34.130566 8.0022755
-100.71265 34.131599 7.4047728
-100.55031 34.041904 5.6210299
-100.57349 34.083202 5.3340693
-100.55524 34.077946 5.0418663
-100.53531 34.070751 4.7501621
-100.54682 34.09893 4.4620051
-100.72677 33.942997 8.5796118
-100.7193 33.996899 7.3958244
-100.70512 34.01199 6.8057184
-100.6888 34.00919 6.5099812
-100.67739 34.01181 6.2159271
-100.55651 33.907295 5.6157141
-100.55318 33.918804 5.3258982
-100.52819 33.921219 4.7452903
-100.7258 33.801739 8.5681076
-100.7172 33.653824 8.5545225
-100.67648 33.67033 7.3692145
-100.66766 33.721481 6.2025647
-100.71558 33.513161 8.5410824
-100.67469 33.529373 7.3585253
-100.68837 33.559635 7.0700598
-100.68702 33.57333 6.77881
-100.68396 33.585106 6.4877496
-100.63248 33.543419 6.1889968
-100.74715 33.408573 8.5366001
-100.68617 33.402901 7.3506517
-100.72654 33.462372 7.0682626
-100.73187 33.48341 6.7784901
-100.71545 33.480526 6.485085
-100.64381 33.416889 6.1832013
-100.76529 33.289375 8.5283337
-100.72446 33.321133 7.0579853
-100.62138 33.253647 6.1716099
-100.7434 33.143475 8.2157974
-100.70163 33.158714 7.042738
-100.75352 33.018574 8.2041197
-100.74569 33.025238 7.9106812
-100.7495 33.044464 7.620811
-102.07962 18.090225 17.878172
-102.02409 18.070063 17.52969
-102.06369 18.116695 16.937309
-102.05269 18.12199 16.626043
-102.03887 18.125538 16.316013
-102.02226 18.12735 16.007252
-102.01843 18.136494 15.708495
-102.00416 18.139456 15.406488
-101.97937 18.136179 15.101497
-101.98334 18.149586 14.814366
-101.96904 18.152241 14.519962
-101.9601 18.157936 14.230659
-101.92479 18.148115 13.930743
-101.92677 18.160017 13.651329
-101.91837 18.165773 13.368951
-101.89954 18.165331 13.08388
-101.91052 18.182306 12.814144
-101.88694 18.178921 12.531034
-101.87718 18.183575 12.255884
-101.86513 18.186811 11.981619
-101.84264 18.183832 11.70504
-101.84238 18.193876 11.438983
-101.82355 18.192919 11.167441
-101.8025 18.190571 10.896886
-101.78745 18.191708 10.630233
-101.78677 18.201267 10.370065
-101.76744 18.199753 10.105007
-101.72257 18.222023 8.8169651
-101.72426 18.232672 8.5657797
-102.14942 18.02375 18.233654
-101.85863 18.186661 9.3621883
-101.84787 18.190001 9.1042728
-101.82861 18.197891 8.5926867
-101.82018 18.202477 8.338891
-101.77383 18.222364 7.0839019
-101.76213 18.2248 6.8351636
-101.74854 18.226068 6.5869422
-101.75004 18.236284 6.3421507
-101.74117 18.240309 6.0962095
-101.73042 18.243193 5.8506713
-101.69222 18.229692 5.6019936
-101.68627 18.235369 5.3586807
-101.67847 18.239927 5.1156564
-101.66029 18.23827 4.8720117
-101.67449 18.255926 4.6322289
-101.66978 18.262276 4.3907619
-101.64612 18.257284 4.1481519
-101.63777 18.261429 3.9072571
-101.61047 18.254215 3.6656046
-101.62422 18.271572 3.4265718
-101.60189 18.267302 3.186008
-101.61205 18.282507 2.9468241
-101.60328 18.28635 2.70713
-101.57557 18.278809 2.4674675
-101.56322 18.280483 2.228255
-101.5405 18.275921 1.9893413
-102.1184 17.897888 18.525623
-101.54599 18.191635 1.7552983
-101.59045 18.139479 1.2763766
-102.16435 17.607845 19.161766
-102.35286 17.397633 22.7486
-102.34903 17.305313 22.729898
-102.18077 17.340937 19.135889
-102.35378 17.217365 22.71508
-102.36312 17.127928 22.696033
-102.20023 17.165968 19.110136
-102.37966 17.041321 22.682831
-102.17064 17.054443 19.066534
-101.54541 17.36706 0.7909264
-102.36923 16.928276 23.020926
-102.16901 16.959747 19.046045
-102.39877 16.770512 22.634794
-102.40454 16.678593 22.619867
-102.38766 16.574028 22.589554
-102.38984 16.479935 22.579233
-102.3908 16.385666 22.570448
-102.37344 16.284607 22.554182
-102.37528 16.193373 22.558281
-102.37647 16.101816 22.563183
-102.37349 15.697665 22.496771
-102.38612 15.600247 22.473623
-102.38313 15.497695 22.438822
-102.37791 15.396799 22.405642
-102.46464 14.731174 21.638124
-102.45107 14.627075 21.614218
-102.46664 14.535276 21.6138
-102.47509 14.440887 21.606853
-102.4745 14.342624 21.596569
-102.4865 14.250377 21.600138
-102.47725 14.147708 21.585455
-102.42876 14.024115 21.529833
-102.43847 13.937683 21.166071
-102.56356 13.104774 21.508591
-102.5835 13.125935 21.173599
-102.54687 13.122573 20.800262
-102.55207 13.137091 20.462269
-102.59644 12.841765 21.543953
-102.20941 13.050843 10.925109
-102.21263 13.06155 10.668457
-102.21365 13.071249 10.412334
-102.1861 13.068373 10.148393
-102.20913 13.087633 9.9017677
-102.5886 12.743948 21.538601
-102.19434 13.009396 9.3907871
-102.19026 13.025786 8.8897352
-102.14351 13.050056 7.6464896
-102.59934 12.645423 21.524956
-102.62045 12.555441 21.526575
-102.64619 12.470971 21.536547
-102.64571 12.37859 21.533207
-102.58342 12.259858 21.485014
-102.2887 11.813377 9.8993731
-102.67316 11.134319 21.222059
-102.65238 11.138792 20.859871
-102.63548 11.144561 20.504997
-102.60696 11.145794 20.146296
-102.24517 11.102356 10.172147
-102.29031 11.041534 10.19136
-102.25175 11.035751 9.9259624
-102.28879 10.964523 10.198364
-102.26828 10.965625 9.9384108
-102.30484 10.895181 10.212099
-102.26648 10.88949 9.9465094
-102.60197 10.702559 16.986498
-102.32049 10.818401 10.481511
-102.26663 10.806924 10.209203
-102.31013 10.769194 9.7258148
-102.28836 10.690632 9.7288656
-102.27831 10.625923 9.4832306
-102.19914 10.650051 5.8171315
-102.18175 10.599146 5.1118817
-102.19181 10.633955 4.1672006
-101.98446 10.520431 1.1245612
-101.99007 10.53009 0.89018929
-102.55344 8.903718 14.720276
-102.557 8.9144068 14.436653
-102.55786 8.9241257 14.153859
-102.53858 8.9270353 13.864129
-102.50774 8.9259939 13.571789
-102.54444 8.9475098 13.310734
-102.51703 8.9474697 13.024227
-102.51344 8.9553566 12.749734
-102.51647 8.9743805 12.210093
-102.34048 9.0597067 7.7989211
-102.35452 9.0727034 7.5557909
-102.31069 9.065835 7.301899
-102.31123 9.0741482 7.0578027
-102.29105 9.0753164 6.8107495
-102.29679 9.0853643 6.5690489
-102.3005 9.094698 6.3275394
-102.25536 9.087183 6.0793304
-102.23623 9.0885897 5.836102
-102.28073 9.1119347 5.6019316
-102.24818 9.1086683 5.3581839
-102.22297 9.1079073 5.1162786
-102.20515 9.1096725 4.8759751
-102.18232 9.1175871 4.3984308
-102.13258 9.1475039 2.9768298
-102.12533 9.1528168 2.7408652
-102.10133 9.1679544 2.0337899
-102.10517 9.1771421 1.7980403
-102.0956 9.1973391 1.090489
-102.62738 8.8096285 16.830479
-102.62575 8.8191872 16.526339
-102.62955 8.8304548 16.227814
-102.61342 8.8350382 15.921346
-102.59423 8.8385115 15.616181
-102.60629 8.8522606 15.329536
-102.5984 8.8593102 15.035199
-102.59628 8.8681993 14.746085
-102.58271 8.8731985 14.45387
-102.59243 8.8858805 14.174734
-102.58205 8.8917933 13.888499
-102.53388 8.8850031 13.588041
-102.54433 8.8977222 13.315456
-102.5611 8.9124994 13.047143
-102.56656 8.923439 12.775736
-102.55177 8.9275246 12.498013
-102.55219 8.9366589 12.22813
-102.55016 8.9449091 11.958968
-102.52774 8.9462442 11.684057
-102.53873 8.9587708 11.4229
-102.53838 8.9674292 11.159125
-102.51759 8.9691362 10.890009
-102.50341 8.9730186 10.624816
-102.505 8.9821844 10.366151
-102.29642 9.107667 4.4094858
-102.27269 9.107378 4.1694264
-102.26643 9.121027 3.6935587
-102.26507 9.1284542 3.4560614
-102.23343 9.1253529 3.2176294
-102.24703 9.1379652 2.9810891
-102.22091 9.136755 2.7436593
-102.21002 9.1487083 2.2702413
-102.20637 9.1553078 2.0336087
-102.20077 9.1612272 1.796996
-102.19322 9.1664648 1.5604211
-102.18372 9.1710205 1.3239021
-102.16284 9.1715918 1.0879016
-102.14003 9.1714783 0.85216725
-102.64521 8.7633066 16.843618
-102.70267 8.7924213 16.571503
-102.6645 8.7899389 16.249554
-102.68253 8.8059072 15.960505
-102.6551 8.8067694 15.650267
-102.65884 8.8178511 15.3587
-102.62535 8.8165121 15.051164
-102.62334 8.8255205 14.761734
-102.62724 8.8364105 14.477318
-102.63712 8.8492279 14.197705
-102.56136 8.8428326 13.602421
-102.59832 8.8644629 13.340722
-102.58878 8.8705292 13.060878
-102.56187 8.8798304 12.504115
-102.56033 8.8973789 11.964746
-102.65382 8.7145405 16.852257
-102.70831 8.7630272 15.977588
-102.58802 8.8010607 13.616982
-102.61628 8.8198528 13.351227
-102.56225 8.8296289 12.506912
-102.66199 8.6680937 16.860971
-102.58801 8.7526236 13.620165
-102.58008 8.7873745 12.51676
-102.63527 8.6130724 16.852003
-102.56932 8.7006035 13.616759
-102.624 8.7281923 13.362215
-102.57907 8.7413464 12.520667
-102.64893 8.5733223 16.867271
-102.62142 8.6835546 13.367179
-102.5677 8.6939173 12.521895
-102.64445 8.5401831 16.56805
-102.6655 8.5573978 16.277899
-102.72632 8.587534 16.010656
-102.70779 8.5916672 15.703936
-102.52068 8.6367435 12.508854
-102.60145 8.5183725 15.656685
-102.58898 8.5343103 15.06587
-102.63898 8.5605974 14.801039
-102.55178 8.5707521 13.627409
-102.61539 8.6012478 13.376451
-102.54412 8.6058979 12.52369
-102.58457 8.5178013 14.499496
-102.58596 8.5279226 14.215592
-102.57591 8.5342121 13.92864
-102.57403 8.5525694 13.369104
-102.59126 8.5676413 13.099751
-102.53827 8.5687323 12.531039
-102.49628 8.6617117 9.3673801
-102.5397 8.5093155 13.368645
-102.53045 8.5155382 13.088474
-102.55404 8.5325298 12.823582
-102.53076 8.5339937 12.541542
-102.59406 8.5640192 12.294835
-102.49941 8.6292934 9.379343
-102.53131 8.4762325 13.380029
-102.5222 8.4823828 13.099771
-102.51933 8.4905224 12.824058
-102.52279 8.5006933 12.55267
-102.5416 8.5158863 12.288808
-102.55804 8.5302525 12.025331
-102.5452 8.5348711 11.752505
-102.52984 8.5385981 11.480607
-102.52787 8.5554247 10.95172
-102.52332 8.562582 10.688272
-102.50732 8.565877 10.422681
-102.53715 8.4676476 12.84491
-102.51414 8.4689579 12.562688
-102.55093 8.4899626 12.305586
-102.53175 8.4924202 12.028512
-102.52796 8.4999056 11.759017
-102.5127 8.5035381 11.487112
-102.51556 8.5302563 10.69769
-102.51788 8.5479889 10.178239
-102.51102 8.562499 9.6610794
-102.52425 8.4441195 12.577619
-102.53443 8.4562044 12.310008
-102.53324 8.4644785 12.039607
-102.52346 8.4784164 11.501041
-102.51295 8.4919043 10.968635
-102.57083 8.3766851 14.274641
-102.5434 8.3944845 13.418672
-102.54356 8.4033499 13.1415
-102.52342 8.4054585 12.857955
-102.51839 8.4124832 12.582566
-102.51972 8.4215546 12.31145
-102.52393 8.4400501 11.774637
-102.50887 8.4435387 11.502476
-102.60233 8.3280363 15.160399
-102.58047 8.3392048 14.571471
-102.5827 8.3489828 14.286674
-102.57346 8.3549385 13.998816
-102.5527 8.3570347 13.708162
-102.55557 8.3668251 13.429978
-102.55585 8.3757029 13.152563
-102.5358 8.3778257 12.868773
-102.53087 8.3848619 12.59314
-102.55014 8.3998365 12.328621
-102.53124 8.4021502 12.051126
-102.53668 8.4124575 11.78447
-102.51272 8.4129753 11.508883
-102.52231 8.4245567 11.246785
-102.51146 8.4293146 10.979147
-102.5036 8.4678354 9.6772919
-102.63415 8.2773514 16.069408
-102.62496 8.2837954 15.766561
-102.59682 8.3024378 14.873458
-102.61057 8.3160648 14.591594
-102.60423 8.3230515 14.302409
-102.58639 8.32619 14.01032
-102.5745 8.3312082 13.723254
-102.55988 8.3352566 13.437251
-102.58672 8.3528795 13.170674
-102.56683 8.3550653 12.886477
-102.54424 8.3562946 12.603428
-102.55468 8.3683538 12.335242
-102.55373 8.376605 12.064263
-102.55031 8.3839855 11.794019
-102.52642 8.3845387 11.518186
-102.54511 8.3991394 11.25893
-102.52531 8.4009371 10.987951
-102.53026 8.4108953 10.72675
-102.52379 8.4170198 10.463233
-102.52409 8.4253502 10.20319
-102.51295 8.4298306 9.9410429
-102.51779 8.4395962 9.6848392
-102.50238 8.4506435 9.1689548
-102.67708 8.2413645 16.708275
-102.69109 8.2555389 16.411787
-102.6852 8.2631636 16.107161
-102.62502 8.2530174 15.77735
-102.66438 8.2752132 15.501338
-102.65811 8.2824631 15.204436
-102.64895 8.2886896 14.908607
-102.64559 8.2967386 14.617949
-102.63944 8.3038025 14.328263
-102.62177 8.3070183 14.035671
-102.59251 8.3063507 13.740442
-102.56918 8.3075542 13.450347
-102.57844 8.3193922 13.176174
-102.58515 8.3303452 12.902633
-102.53599 8.3228292 12.60872
-102.5732 8.3437233 12.350702
-102.55446 8.3461065 12.072693
-102.56005 8.356473 11.805522
-102.57224 8.3689737 11.542123
-102.55498 8.371686 11.269897
-102.53523 8.3735161 10.998646
-102.54025 8.383502 10.737175
-102.53383 8.3896542 10.473387
-102.52506 8.3949785 10.210312
-102.52309 8.4025192 9.9506521
-102.50346 8.4203386 9.1753206
-102.67458 8.2319422 16.729673
-102.67201 8.2406445 16.423645
-102.6749 8.2510405 16.12318
-102.64921 8.2520504 15.810526
-102.65469 8.2631283 15.516588
-102.63149 8.2647724 15.210837
-102.64851 8.2794638 14.927232
-102.63679 8.2847033 14.632033
-102.62222 8.2889299 14.337965
-102.6048 8.2921486 14.045057
-102.58456 8.2943649 13.75334
-102.54391 8.2897987 13.455341
-102.57104 8.3074322 13.188278
-102.57803 8.3183947 12.914342
-102.5666 8.3317928 12.36161
-102.56601 8.3400955 12.089882
-102.57191 8.3504915 11.822146
-102.55738 8.3540888 11.548646
-102.54937 8.359787 11.279189
-102.53892 8.3646231 11.01054
-102.52603 8.3686028 10.742723
-102.51983 8.3747492 10.478607
-102.51127 8.3800659 10.215205
-102.52778 8.3936796 9.9605751
-102.50543 8.3943272 9.6958237
-102.68331 8.2144356 16.755123
-102.74035 8.2424002 16.480541
-102.72681 8.2473669 16.170214
-102.65036 8.2317638 15.830429
-102.69044 8.2540092 15.553435
-102.68488 8.2613173 15.255521
-102.67641 8.267602 14.958672
-102.62167 8.2586784 14.642545
-102.61601 8.2657137 14.352314
-102.61632 8.2746334 14.066997
-102.59637 8.2768478 13.774878
-102.58341 8.2899065 13.209016
-102.59068 8.3008614 12.934683
-102.56195 8.3083658 12.374288
-102.58841 8.3254929 12.112357
-102.5946 8.3358908 11.844136
-102.56235 8.33354 11.56378
-102.58165 8.348177 11.303291
-102.56245 8.350028 11.031049
-102.55891 8.3570166 10.765667
-102.52569 8.3541145 10.492426
-102.52646 8.3624382 10.231458
-102.52109 8.3766699 9.7112474
-102.32488 8.4865932 3.9814987
-102.7179 8.1937838 16.787451
-102.64956 8.2354708 14.667477
-102.64413 8.2425299 14.376844
-102.66215 8.2571964 14.098958
-102.63371 8.2565851 13.802436
-102.64776 8.2784157 13.246622
-102.63762 8.2836075 12.964371
-102.59158 8.2853203 12.395965
-102.32731 8.4454184 4.2280269
-102.3213 8.4507656 3.9865644
-102.69592 8.1513176 16.783514
-102.65524 8.1659412 15.853247
-102.66216 8.204217 14.680392
-102.64812 8.2084637 14.385523
-102.64874 8.2174253 14.099643
-102.63786 8.2225637 13.810792
-102.61671 8.232831 13.239956
-102.56932 8.2425985 12.393215
-102.31438 8.4055424 4.2286897
-102.31783 8.4140902 3.987849
-102.71715 8.1204472 16.802891
-102.7282 8.1519842 15.898047
-102.63235 8.1569424 14.673109
-102.67054 8.1782589 14.402384
-102.68003 8.190155 14.120101
-102.66055 8.1925144 13.827011
-102.64848 8.2058334 13.259204
-102.56585 8.2041311 12.397517
-102.31511 8.3766413 3.9893475
-102.69644 8.0758457 16.799015
-102.64619 8.1236534 14.686091
-102.67578 8.1421661 14.41113
-102.6941 8.15695 14.132607
-102.65716 8.1536283 13.8316
-102.66286 8.1727839 13.270982
-102.56266 8.1653872 12.401696
-102.34707 8.3427258 4.2345653
-102.32221 8.3417311 3.9913335
-102.68421 8.0358438 16.797594
-102.62529 8.0806732 14.680589
-102.62871 8.0906229 14.393714
-102.66439 8.1110315 14.123343
-102.66251 8.1191339 13.837846
-102.65065 8.1325121 13.269552
-102.56829 8.1309338 12.407128
-102.31003 8.3008289 3.9898891
-102.64204 8.0492182 14.686213
-102.64551 8.0591803 14.399096
-102.6725 8.0767412 14.12456
-102.6355 8.07339 13.823563
-102.64995 8.0953341 13.266613
-102.5675 8.0937366 12.403961
-102.31767 8.2663746 3.9845674
-102.67788 7.9572182 16.784925
-102.69701 7.991425 15.88446
-102.62668 8.0049114 14.671474
-102.6736 8.0290442 14.404398
-102.6656 8.0352736 14.113885
-102.65484 8.0405312 13.824395
-102.64272 8.053916 13.255946
-102.58673 8.0611553 12.403603
-102.52387 8.1302357 9.4653473
-102.33184 8.2265139 4.2174306
-102.29739 8.222331 3.9734221
-102.3366 8.24298 3.7343957
-102.63589 7.9679756 14.671703
-102.65665 7.9836555 14.392486
-102.66604 7.995594 14.109875
-102.664 8.0037556 13.824139
-102.65183 8.0172558 13.255371
-102.56004 8.0129986 12.388865
-102.32057 8.1851435 4.2096367
-102.31442 8.1905565 3.9674823
-102.65218 7.9343967 14.679884
-102.67299 7.9501281 14.400426
-102.65618 7.9535975 14.105848
-102.6541 7.9617777 13.820112
-102.6507 7.9781981 13.255014
-102.57672 7.9798937 12.395121
-102.51284 8.0496283 9.4559917
-102.33768 8.1534166 4.2077789
-102.29367 8.1461277 3.9629111
-102.69354 7.8451376 16.791536
-102.64236 7.8936777 14.675376
-102.65441 7.906569 14.391927
-102.6813 7.9242153 14.116968
-102.64416 7.9210329 13.815603
-102.64954 7.9403148 13.25417
-102.58446 7.9449592 12.397463
-102.32643 8.1124907 4.2033105
-102.31076 8.114748 3.9602852
-102.62303 7.8513627 14.666638
-102.65247 7.8698578 14.391238
-102.66185 7.8818121 14.108382
-102.64221 7.8842998 13.814754
-102.64759 7.9035549 13.253158
-102.58248 7.9081779 12.396213
-102.34291 8.0816555 4.2007527
-102.3083 8.0775537 3.9562471
-102.67198 7.8325119 14.693144
-102.66674 7.8397746 14.401239
-102.6587 7.8460627 14.110331
-102.65667 7.8542285 13.824272
-102.64452 7.8677449 13.254862
-102.57055 7.8694091 12.394255
-102.32143 8.0387926 4.198081
-102.31521 8.0441904 3.9554935
-102.62405 7.7824645 14.677982
-102.66233 7.8037448 14.406327
-102.65435 7.8100219 14.115337
-102.67875 7.8267117 13.840674
-102.63149 7.8287978 13.25596
-102.56653 7.8333111 12.398765
-102.52158 7.9086609 9.460969
-102.31866 8.0022783 4.1998343
-102.30299 8.004488 3.9565485
-102.35159 8.0282364 3.7173202
-102.67216 7.7623472 14.706227
-102.6845 7.7752657 14.422055
-102.65037 7.7731118 14.119027
-102.6748 7.7898126 13.844284
-102.63646 7.7948136 13.263071
-102.57168 7.7994299 12.405387
-102.32493 7.969111 4.2010174
-102.29981 7.9681673 3.9569466
-102.62686 7.7101364 14.686839
-102.63031 7.7202191 14.399
-102.66606 7.7406659 14.127619
-102.67297 7.7517533 13.844983
-102.62576 7.7539954 13.259952
-102.56979 7.7616372 12.405696
-102.30353 7.9263377 4.1972671
-102.30676 7.9349284 3.9551158
-102.35534 7.9586987 3.7156229
-102.66092 7.6832538 14.701897
-102.67319 7.6962719 14.417645
-102.63898 7.6942449 14.114549
-102.65455 7.708199 13.835897
-102.64254 7.7219958 13.265685
-102.55086 7.718329 12.397044
-102.31992 7.8971033 4.1942172
-102.28524 7.8930931 3.9493742
-102.3527 7.9232364 3.7110031
-102.6768 7.6515312 14.708719
-102.65417 7.6534014 14.408298
-102.65491 7.6627135 14.120898
-102.67051 7.6767545 13.842005
-102.61427 7.6764278 13.253015
-102.55797 7.6844535 12.398544
-102.33557 7.8684473 4.1910586
-102.31032 7.8676648 3.9465685
-102.33986 7.8851848 3.7057614
-102.64188 7.6156921 14.406421
-102.65135 7.6278481 14.122923
-102.66696 7.641922 13.843949
-102.65501 7.6559739 13.273097
-102.313 7.8284345 4.1885347
-102.31612 7.8371568 3.9459505
-102.34565 7.8547001 3.7049682
-102.67574 7.5861845 14.7217
-102.67068 7.5937338 14.429004
-102.67159 7.6031299 14.141203
-102.65218 7.605917 13.846622
-102.60487 7.6085267 13.261128
-102.30876 7.7954726 4.1918597
-102.30245 7.801034 3.9485822
-102.35095 7.8248992 3.7086425
-102.6541 7.5585575 14.433501
-102.63752 7.5623083 14.137894
-102.65328 7.5763931 13.858763
-102.60621 7.5790443 13.272937
-102.32248 7.7695532 4.1983757
-102.30676 7.7719622 3.9542277
-102.34585 7.7926607 3.7136006
-102.66106 7.5220728 14.736945
-102.65615 7.5296464 14.444088
-102.66596 7.5418844 14.160032
-102.63793 7.5418782 13.86138
-102.59977 7.5473971 13.279212
-102.30811 7.7351813 4.2009654
-102.31135 7.7439127 3.9580345
-102.35994 7.7677836 3.7177598
-102.70498 7.4785686 15.650751
-102.64213 7.495522 14.443552
-102.64317 7.5049467 14.155592
-102.64149 7.5134287 13.868493
-102.59457 7.5161543 13.28234
-102.54181 7.6178541 9.4920044
-102.31277 7.7075796 4.2018323
-102.30655 7.7131653 3.958118
-102.35513 7.7370424 3.7177556
-102.62545 7.4807997 13.870015
-102.30687 7.6779332 4.2040224
-102.30067 7.6835189 3.9602206
-102.33981 7.7042322 3.7192514
-102.6043 7.4746938 13.027022
-102.31005 7.6524534 4.21104
-102.29445 7.6548853 3.9664509
-102.33364 7.6756005 3.7254028
-102.55943 7.4619122 12.191919
-102.62028 7.4901824 11.940607
-102.313 7.6279154 4.2181802
-102.27853 7.6240144 3.9721844
-102.33672 7.6510377 3.7321982
-102.55117 7.4783154 10.848491
-102.59324 7.5084705 10.33036
-102.29632 7.5976586 4.2228804
-102.29031 7.6031919 3.978724
-102.33911 7.6270237 3.7379575
-102.32723 7.5838776 4.2305884
-102.29291 7.5798998 3.9841425
-102.3323 7.6005306 3.7426784
-102.52586 7.5120025 7.9954424
-102.32996 7.5606227 4.2347746
-102.28622 7.5534482 3.9875307
-102.32565 7.5740471 3.7459826
-102.34184 7.5404119 4.2389283
-102.29815 7.5332108 3.9914184
-102.33762 7.5537896 3.7496116
-102.39443 7.4449368 7.2202501
-102.32571 7.5112891 4.2402163
-102.30099 7.5103669 3.9939425
-102.32156 7.5245776 3.7508969
-102.38778 7.4266763 6.9727902
-102.39542 7.436657 6.7236805
-102.39156 7.4428148 6.4732594
-102.37753 7.4529624 5.9735456
-102.38618 7.4632173 5.7267494
-102.37844 7.4753561 5.2313123
-102.36201 7.4772205 4.9830565
-102.38131 7.4909773 4.7388148
-102.37967 7.4977465 4.4927945
-102.32868 7.4880185 4.2434139
-102.28506 7.48072 3.9957206
-102.31514 7.4980502 3.7532089
-102.39847 7.3990231 7.2318754
-102.38792 7.4103475 6.7280841
-102.38412 7.4164681 6.4775753
-102.37821 7.4218659 6.2274356
-102.37019 7.4265418 5.9776845
-102.3789 7.4367609 5.7308011
-102.37612 7.4431467 5.4828568
-102.36183 7.445683 5.2341309
-102.36434 7.4537988 4.9878111
-102.36479 7.4612198 4.741631
-102.3632 7.467947 4.4956093
-102.31226 7.4581718 4.2462211
-102.29708 7.4603252 4.0003867
-102.31774 7.4744582 3.757081
-102.38128 7.3841615 6.7308269
-102.38691 7.3933654 6.48172
-102.38105 7.3987374 6.2314057
-102.36367 7.4002609 5.9801636
-102.37241 7.4104495 5.7331934
