# .PCD v0.7 - Point Cloud Data file format
VERSION 0.7
FIELDS x y z
SIZE 4 4 4
TYPE F F F
COUNT 1 1 1
WIDTH 1062
HEIGHT 1
VIEWPOINT 0 0 0 1 0 0 0
POINTS 1062
DATA ascii
-84.620789 56.710583 13.776881
-84.991844 56.536007 16.451183
-84.973198 56.684761 15.399277
-85.611671 56.444202 17.547592
-85.883293 56.527813 16.48658
-86.192924 56.463341 17.041655
-86.793671 56.365517 17.628155
-86.774902 56.487423 16.558283
-87.070557 56.471897 16.580399
-86.98925 56.554142 13.878444
-87.362961 56.435154 16.600594
-87.339203 56.407852 16.045504
-87.326256 56.442719 15.507558
-87.271751 56.563271 13.366876
-97.528519 55.746063 16.536385
-81.492065 56.670219 18.730486
-81.492233 56.716496 18.364761
-81.490181 56.750172 17.995697
-81.602394 56.664696 18.717747
-81.604225 56.719933 18.355505
-81.598846 56.735283 17.978502
-81.721863 56.667416 18.707373
-81.720215 56.704403 18.337032
-81.714615 56.719608 17.95978
-81.832451 56.657543 18.703653
-81.832466 56.703583 18.3368
-81.825096 56.709675 17.955395
-81.930496 56.636791 18.705265
-81.929092 56.673717 18.33433
-81.928772 56.716209 17.967724
-82.02536 56.627697 18.706945
-82.027779 56.682728 18.343307
-82.022697 56.697887 17.964981
-82.142395 56.644176 18.691971
-82.139603 56.671814 18.316366
-82.132683 56.677608 17.934055
-82.276024 56.660091 18.255922
-82.271912 56.683643 17.88088
-82.430466 56.681076 18.187223
-82.414604 56.649414 17.789602
-82.573715 56.641117 18.479813
-82.568436 56.66713 18.103456
-82.557045 56.662155 17.716862
-82.699173 56.64135 18.421772
-82.69162 56.65778 18.041407
-82.67421 56.624897 17.643715
-82.659401 56.657494 16.895617
-82.811737 56.571323 18.741575
-82.81752 56.65435 18.38706
-82.807869 56.661377 18.002554
-82.784645 56.65506 17.233335
-82.778534 56.678448 16.862768
-82.766167 56.670673 16.482742
-82.927345 56.582527 18.712839
-82.927391 56.638126 18.346455
-82.897346 56.65612 17.199366
-82.885338 56.651661 16.818056
-83.021935 56.693939 17.177639
-83.005745 56.670937 16.788788
-82.994568 56.671787 16.4116
-83.079735 56.755997 14.887431
-83.210907 56.682755 18.002478
-83.203217 56.706558 17.624359
-83.179375 56.653683 17.218353
-83.124969 56.805439 14.64314
-83.091553 56.817879 13.550266
-83.066299 56.923702 12.14048
-83.06189 56.958916 11.793078
-83.050964 56.962425 11.439064
-83.318985 56.665825 17.557816
-83.304161 56.658092 17.169853
-83.243896 56.797981 14.589231
-83.206764 56.799843 13.492902
-83.187332 56.942017 12.091969
-83.44146 56.650257 17.911974
-83.423004 56.627853 17.515293
-83.421547 56.683735 17.152273
-83.354904 56.804119 14.561586
-83.324623 56.843063 13.474971
-83.291954 56.927814 12.056524
-83.550369 56.526531 18.624695
-83.558823 56.62883 18.275291
-83.548813 56.646366 17.891909
-83.530159 56.623795 17.49493
-83.461067 56.798668 14.538477
-83.432381 56.846474 13.453565
-83.403923 56.893009 12.38218
-83.389122 56.883064 12.021444
-83.387833 56.936466 11.677793
-83.377838 56.948711 11.325087
-83.666084 56.544483 18.603085
-83.668571 56.619473 18.241732
-83.662399 56.654858 17.865499
-83.641518 56.622948 17.464527
-83.577347 56.823681 14.514181
-83.546204 56.861485 13.424765
-83.519333 56.916801 12.354289
-83.510445 56.935139 12.000106
-83.500931 56.950302 11.646387
-83.482628 56.924149 11.284341
-83.456566 56.979412 10.236756
-83.790977 56.560593 18.579748
-83.793083 56.635452 18.21784
-83.756874 56.60223 17.425257
-83.690804 56.810184 14.476461
-83.658791 56.788197 13.734138
-83.62571 56.882915 12.310165
-83.572502 56.941536 10.543793
-83.564079 56.963005 10.196036
-83.934143 56.581261 18.536047
-83.923286 56.601627 18.151018
-83.909653 56.609211 17.763226
-83.885071 56.567505 17.358568
-83.81823 56.800003 14.418502
-83.78022 56.758549 13.670248
-83.758286 56.918018 12.262935
-84.067787 56.551125 18.460043
-84.064232 56.607132 18.089968
-84.05584 56.641533 17.712851
-84.02401 56.572182 17.297016
-83.92289 56.815491 13.621891
-83.883087 56.907543 12.194148
-84.203857 56.590893 18.424406
-84.19355 56.619526 18.042448
-84.15612 56.602104 17.255924
-84.084824 56.78936 14.667193
-84.045052 56.823757 13.569394
-83.998749 56.895439 12.135119
-83.947075 56.870079 11.055235
-83.933479 56.877415 10.701914
-83.936165 56.958191 10.364936
-84.309799 56.564899 18.40102
-84.259056 56.566528 17.228531
-84.188087 56.761753 14.64214
-84.136864 56.748745 13.53022
-84.093765 56.838264 12.101727
-84.096771 56.921471 11.762483
-84.077827 56.906635 11.400343
-84.029846 56.899887 10.331982
-84.413803 56.537502 18.406651
-84.407326 56.584156 18.031712
-84.395889 56.609138 17.649944
-84.364639 56.548546 17.237007
-84.290672 56.735256 14.645361
-84.238907 56.7225 13.532715
-84.208145 56.869114 12.117552
-84.524834 56.552658 18.437485
-84.511955 56.572498 18.050762
-84.498306 56.588627 17.664961
-84.466843 56.52824 17.251705
-84.363922 56.80695 13.574133
-84.302727 56.82254 12.120512
-84.625587 56.554184 18.453072
-84.614822 56.583218 18.069576
-84.599014 56.590458 17.679577
-84.567406 56.530243 17.265848
-84.510284 56.722202 15.044178
-84.490669 56.709686 14.665488
-84.476822 56.721577 14.29671
-84.466606 56.748768 13.934318
-84.451355 56.753929 13.566952
-84.448425 56.812103 13.216255
-84.438309 56.838932 12.857756
-84.427498 56.862545 12.49965
-84.409492 56.854561 12.134811
-84.397324 56.871712 11.777838
-84.377953 56.857159 11.414701
-84.35791 56.839314 11.052588
-84.348473 56.937225 10.360962
-84.724373 56.545547 18.467064
-84.663811 56.512959 17.275089
-84.663681 56.58559 16.915356
-84.647667 56.590881 16.531813
-84.764908 56.511051 17.296774
-84.764793 56.583897 16.936556
-84.746506 56.580261 16.549141
-84.842506 56.578823 16.571878
-84.827843 56.590057 16.191807
-85.004311 56.586147 16.276089
-85.064934 56.564342 15.94814
-86.374763 56.451622 18.001684
-86.360237 56.438278 17.596399
-86.351913 56.448265 17.202913
-86.463341 56.415112 18.439089
-86.454758 56.465248 17.654987
-86.432335 56.421265 17.23999
-86.353828 56.637512 12.329555
-86.37281 56.74918 11.985883
-86.364044 56.754128 11.616841
-86.359383 56.774727 11.252691
-86.3283 56.769852 10.153262
-86.533257 56.359097 18.470404
-86.541672 56.431301 18.095989
-86.534836 56.445881 17.70031
-86.515045 56.411369 17.288321
-86.458427 56.587475 13.482755
-86.452507 56.679264 12.383305
-86.462036 56.753635 12.029625
-86.451057 56.749489 11.657784
-86.434326 56.723114 11.282551
-86.416298 56.766457 10.192142
-86.612633 56.348698 18.520266
-86.616676 56.403252 18.138155
-86.612595 56.427193 17.745695
-86.537537 56.711437 12.061973
-86.514687 56.770828 10.598551
-86.490311 56.786552 9.506979
-86.692886 56.338936 18.568388
-86.699738 56.402843 18.189451
-86.700867 56.44524 17.803526
-86.674408 56.384407 17.37993
-86.647224 56.688763 13.221481
-86.618591 56.688496 12.097131
-86.793831 56.42173 18.241283
-86.785522 56.428436 17.840429
-86.764084 56.386051 17.423334
-86.783134 56.494034 17.065842
-86.72654 56.609272 13.613512
-86.73214 56.665874 13.250909
-86.731934 56.700596 12.883222
-86.71843 56.685158 12.503822
-86.71405 56.703915 12.134744
-86.718834 56.757114 11.774997
-86.697784 56.71278 11.393728
-86.674698 56.730042 10.293097
-86.647858 56.869614 7.7757468
-86.876984 56.380928 18.256538
-86.876076 56.414837 17.866184
-86.861641 56.435455 17.073833
-86.785706 56.652351 11.771924
-86.974693 56.379505 18.275045
-86.968887 56.395538 17.877092
-86.949471 56.398212 17.077309
-86.953156 56.448521 16.699036
-86.936119 56.422329 16.295197
-87.073296 56.369789 18.286615
-87.069923 56.394955 17.891808
-87.060638 56.398335 17.49085
-87.042938 56.370693 17.080879
-87.04911 56.430141 16.70566
-87.034454 56.41317 16.304724
-87.031326 56.438202 15.920924
-87.175339 56.369434 18.30068
-87.169464 56.385719 17.901831
-87.157631 56.380165 17.496998
-87.151016 56.430305 16.717756
-87.136284 56.413464 16.316332
-87.128105 56.420296 15.925755
-87.268623 56.33585 18.292665
-87.277649 56.406139 17.914932
-87.250702 56.346474 17.488659
-87.246452 56.405594 16.712378
-87.236626 56.406986 16.317152
-87.233414 56.432152 15.932433
-87.383095 56.358692 18.296167
-87.369423 56.347958 17.885874
-87.357254 56.342319 17.480482
-87.352692 56.401352 16.703354
-87.347733 56.420952 16.314146
-87.339287 56.427818 15.922578
-87.495071 56.354946 18.28475
-87.488708 56.371174 17.884666
-87.473732 56.356533 17.475182
-87.46283 56.356106 17.073923
-87.471313 56.424644 16.700161
-87.453369 56.398651 16.294258
-87.444656 56.405396 15.902446
-87.602516 56.332764 18.266125
-87.598419 56.357883 17.86932
-87.585678 56.352203 17.462975
-87.579597 56.369846 17.068041
-87.580238 56.411098 16.683819
-87.564522 56.39415 16.280811
-87.558113 56.409981 15.891705
-87.548172 56.413071 15.500373
-87.722069 56.346821 18.259302
-87.715172 56.362926 17.858398
-87.702126 56.357204 17.451574
-87.693207 56.365738 17.052788
-87.709122 56.461441 16.687771
-87.693108 56.44458 16.283878
-87.820381 56.251175 18.620274
-87.834862 56.342491 18.247437
-87.830353 56.367523 17.849632
-87.809319 56.334671 17.432035
-87.823532 56.424599 17.063145
-87.771767 56.520332 14.337238
-87.754929 56.499985 13.945493
-87.946304 56.344181 18.247845
-87.933945 56.342232 17.839018
-87.912727 56.309315 17.421198
-87.893196 56.520325 14.720453
-87.827583 56.561878 12.051597
-87.824234 56.62656 11.314978
-88.056808 56.331814 18.255297
-88.044403 56.329948 17.846064
-88.025703 56.306149 17.431269
-87.961868 56.634651 12.072636
-87.938293 56.704781 10.585782
-88.167664 56.299885 18.255579
-88.1604 56.316036 17.853111
-88.146828 56.310383 17.444761
-88.088951 56.508656 13.569965
-88.104782 56.602295 13.211643
-88.095505 56.609032 12.830725
-88.082603 56.603039 12.448212
-88.042145 56.654243 10.577193
-88.29612 56.304813 18.261822
-88.275391 56.276154 17.841291
-88.266838 56.288502 17.439623
-88.201332 56.468307 13.556317
-88.152679 56.613472 10.56218
-88.147629 56.634647 10.193563
-88.425552 56.285938 18.242933
-88.420319 56.311127 17.843061
-88.395302 56.26952 17.420124
-88.295746 56.668396 10.551794
-88.279655 56.772079 9.0811949
-88.574905 56.311615 18.237383
-88.563805 56.318913 17.829805
-88.535454 56.26833 17.402954
-88.70929 56.29044 18.218245
-88.700378 56.306683 17.813829
-88.676796 56.274128 17.393414
-88.646545 56.486012 14.672629
-88.586609 56.546791 12.369302
-88.590401 56.602631 12.001759
-88.570175 56.620445 11.247615
-88.562958 56.681599 10.507233
-88.545418 56.664955 10.1292
-88.840919 56.285286 18.216187
-88.831688 56.301601 17.811285
-88.807686 56.269138 17.390411
-88.696266 56.616016 11.236562
-88.682869 56.658333 10.491391
-88.659325 56.622814 10.10946
-88.623405 56.67487 8.6298637
-88.964088 56.268867 18.220081
-88.957466 56.294235 17.818237
-88.933228 56.261902 17.396893
-88.95211 56.369923 17.030203
-88.849426 56.442223 13.489513
-88.83252 56.564014 11.984506
-89.086922 56.268978 18.237473
-89.071999 56.267624 17.824663
-89.050415 56.244392 17.406382
-89.201965 56.250748 18.250278
-89.195396 56.276402 17.847452
-89.170975 56.244411 17.425138
-89.181816 56.325569 17.047535
-89.13839 56.458946 14.690321
-89.130859 56.479527 14.30315
-89.095749 56.454895 13.5154
-89.107956 56.539154 13.150399
-89.0811 56.540241 12.379506
-89.073326 56.558975 12.000866
-89.076012 56.611794 11.631198
-89.054878 56.586559 11.245036
-89.026878 56.582211 10.487609
-89.020042 56.603329 10.115378
-89.311508 56.213493 18.258572
-89.302124 56.230289 17.852037
-89.283203 56.216358 17.436327
-89.274429 56.234528 17.035301
-89.289986 56.330357 16.664095
-89.273453 56.323277 16.257845
-89.261505 56.330612 15.858974
-89.251343 56.343414 15.464049
-89.430504 56.221561 18.285149
-89.429611 56.265446 17.888348
-89.402199 56.22493 17.461597
-89.387787 56.225327 17.05332
-89.383621 56.258053 16.659107
-89.37841 56.287209 16.265472
-89.541473 56.214916 18.298414
-89.529373 56.223118 17.887272
-89.510452 56.20953 17.470499
-89.501793 56.228001 17.068403
-89.500603 56.269867 16.676817
-89.486923 56.271988 16.273123
-89.477882 56.288559 15.876633
-89.646996 56.200291 18.307337
-89.649231 56.25325 17.913074
-89.624657 56.221947 17.488733
-89.606438 56.255478 16.684082
-89.749771 56.184956 18.318739
-89.752129 56.237999 17.924059
-89.730408 56.215771 17.502686
-89.71328 56.207523 17.089552
-89.712318 56.249535 16.697042
-89.704514 56.269928 16.298689
-89.859764 56.195229 18.344185
-89.850723 56.212753 17.935022
-89.83477 56.208561 17.520073
-89.817665 56.200481 17.106445
-89.81971 56.251644 16.716646
-89.958977 56.180916 18.355276
-89.95578 56.216389 17.952612
-89.945656 56.23027 17.543833
-89.916946 56.186462 17.116308
-89.921997 56.246708 16.729296
-90.054977 56.169479 18.361029
-90.057693 56.222824 17.964848
-90.041817 56.218887 17.548752
-90.016006 56.184113 17.124117
-90.032898 56.28043 16.749409
-90.01358 56.26511 16.336653
-89.993118 56.245956 15.925337
-90.156212 56.184174 18.381021
-90.159073 56.237656 17.984173
-90.128624 56.189129 17.550585
-90.120407 56.208241 17.145422
-90.115303 56.280514 16.353333
-90.103729 56.288677 15.950465
-90.074287 56.284912 15.144825
-90.243248 56.16045 18.39555
-90.252136 56.231861 18.00527
-90.2276 56.201416 17.577921
-90.207741 56.184845 17.158958
-90.182053 56.408569 14.403548
-90.32251 56.123955 18.418692
-90.331642 56.195511 18.028183
-90.321976 56.209972 17.617424
-90.272118 56.401134 14.432348
-90.197121 56.421589 12.082086
-90.416176 56.182167 18.073511
-90.403801 56.188057 17.658888
-90.358917 56.390854 14.473262
-90.326897 56.417633 13.292913
-90.256294 56.487034 10.594405
-90.491615 56.192745 17.712873
-90.408844 56.39901 13.33223
-90.373932 56.413994 12.162367
-90.352165 56.507748 10.638203
-90.557045 56.16832 17.73757
-90.481415 56.396812 13.355872
-90.422729 56.540028 10.278992
-90.525734 56.12833 18.441832
-90.505814 56.193264 17.212051
-90.3918 56.48774 10.921302
-90.372208 56.467026 10.532233
-90.360245 56.585136 9.0255938
-90.601868 56.087055 18.477152
-90.62748 56.204594 18.102085
-90.591393 56.179733 17.256603
-90.528221 56.391941 13.279428
-90.476601 56.470421 10.955941
-90.463242 56.468666 10.570196
-90.68457 56.190598 17.317623
-90.610985 56.370983 13.323116
-90.794151 56.1805 18.210903
-90.789185 56.206635 17.799978
-90.761848 56.166489 17.36656
-90.775665 56.247654 16.980555
-90.690666 56.35067 13.36796
-90.868713 56.15852 18.25544
-90.873161 56.211678 17.854357
-90.864311 56.22554 17.440243
-90.851212 56.22665 17.023876
-90.768936 56.332417 13.407511
-90.723312 56.535152 9.9417953
-90.947205 56.155632 18.304962
-90.945961 56.191353 17.89649
-90.937439 56.205524 17.481966
-90.918549 56.189045 17.058666
-90.833374 56.429169 11.897142
-90.798073 56.471249 10.351775
-90.805328 56.529507 9.9772739
-90.794807 56.571098 9.2161341
-91.014893 56.115665 18.343275
-91.005692 56.166134 17.519804
-90.980942 56.132065 17.089716
-90.931534 56.324471 13.49293
-90.930283 56.467514 11.948879
-90.892914 56.501808 10.397923
-90.894196 56.541725 10.019108
-91.090225 56.092442 18.389715
-91.107872 56.182106 18.001217
-91.099937 56.197109 17.585548
-91.063179 56.127846 17.141453
-91.025574 56.351215 13.547033
-91.012932 56.458889 11.990952
-90.957626 56.438564 10.426929
-90.978035 56.534653 10.058635
-91.170807 56.089386 18.437691
-91.179619 56.152748 18.038351
-91.17807 56.185856 17.629066
-91.147644 56.134846 17.190977
-91.131866 56.345978 14.389353
-91.121864 56.38892 13.598184
-91.107338 56.382256 13.197366
-91.075752 56.396473 12.014398
-91.052734 56.469913 10.468749
-91.259514 56.153973 18.076944
-91.252113 56.169544 17.660376
-91.221901 56.118778 17.221849
-91.175446 56.447491 12.055124
-91.125023 56.438297 10.488775
-91.330002 56.163662 17.690933
-91.2938 56.095284 17.24534
-91.277412 56.400986 13.258885
-91.253532 56.434921 12.076447
-91.222931 56.482075 10.519444
-91.411591 56.132381 18.1364
-91.387161 56.133781 17.29258
-91.347946 56.3694 13.277411
-91.345505 56.396519 12.885528
-91.330917 56.422161 12.098585
-91.334618 56.466866 11.714458
-91.311821 56.4342 11.314148
-91.297424 56.425865 10.921014
-91.30986 56.529392 10.162148
-91.263016 56.492496 8.9949951
-91.4897 56.126629 18.165951
-91.486046 56.151749 17.751348
-91.471817 56.146336 17.327703
-91.468758 56.172798 16.918198
-91.473846 56.2225 16.518757
-91.455421 56.23917 15.697065
-91.40049 56.319874 12.889683
-91.563034 56.104519 18.184494
-91.55162 56.142342 17.352156
-91.536224 56.133209 16.92935
-91.550835 56.209892 16.539103
-91.542358 56.220238 16.127363
-91.526367 56.208828 15.710672
-91.512276 56.202671 15.298174
-91.503265 56.210934 14.892437
-91.641022 56.102879 18.203821
-91.64386 56.146042 17.795128
-91.626732 56.132065 17.367208
-91.608292 56.114105 16.940788
-91.613655 56.16394 16.540852
-91.602104 56.165291 16.125992
-91.586166 56.153858 15.7093
-91.575836 56.192188 14.902199
-91.722649 56.111866 18.222342
-91.72567 56.15514 17.813065
-91.711792 56.150196 17.38785
-91.690338 56.123447 16.957571
-91.695885 56.173378 16.557045
-91.690773 56.192818 16.147669
-91.678123 56.190559 15.733178
-91.667397 56.193596 15.322707
-91.799927 56.110588 18.242455
-91.793732 56.12735 17.82259
-91.783112 56.131371 17.400408
-91.764908 56.113644 16.972994
-91.76432 56.145737 16.565819
-91.762512 56.174206 16.159224
-91.746811 56.163006 15.741446
-91.736198 56.166084 15.330723
-91.724037 56.197563 14.523181
-91.87516 56.098686 18.26194
-91.878502 56.142231 17.851757
-91.852264 56.101959 17.412504
-91.843597 56.111134 16.99444
-91.839981 56.134426 16.583651
-91.825615 56.127083 16.164505
-91.829025 56.169991 15.764346
-91.951057 56.079796 18.270563
-91.954445 56.123409 17.860046
-91.940804 56.118839 17.433596
-91.916344 56.083549 16.998878
-91.92543 56.142712 16.600302
-91.914246 56.144505 16.183609
-91.901802 56.142529 15.768032
-91.894478 56.154869 15.35934
-91.885933 56.16357 14.951501
-92.030586 56.063698 18.269693
-91.998802 56.076408 17.000227
-92.00618 56.164356 16.193201
-91.993675 56.162483 15.776961
-91.9767 56.147823 15.359012
-91.977699 56.183708 14.959091
-92.209427 56.084213 18.287254
-92.209526 56.119141 17.871872
-92.195587 56.114758 17.444038
-92.164352 56.061813 17.001593
-92.182945 56.147888 16.611034
-92.174706 56.158833 16.195881
-92.152344 56.130043 15.769917
-92.144775 56.142479 15.359886
-92.285286 56.057648 18.287292
-92.288498 56.101467 17.87501
-92.280846 56.114933 17.453388
-92.259079 56.088879 17.020023
-92.271271 56.157223 16.622496
-92.259743 56.159325 16.203741
-92.25016 56.166641 15.789038
-92.229614 56.143173 15.366757
-92.233665 56.188244 14.96816
-92.377281 56.082611 18.313068
-92.353622 56.087021 17.458078
-92.35424 56.123474 17.046766
-92.439919 56.027504 18.310438
-92.455971 56.106983 17.910809
-92.441872 56.103012 17.481586
-92.42643 56.0951 17.053692
-92.337753 56.287643 11.77604
-92.52681 56.04261 18.337751
-92.519196 56.09193 17.497786
-92.510201 56.102001 17.075848
-92.596199 56.013893 18.347631
-92.598297 56.090046 17.516973
-92.576363 56.064651 17.081804
-92.668678 55.99242 18.365364
-92.688194 56.081192 17.967861
-92.64566 56.03476 17.095371
-92.763771 56.031551 18.410376
-92.76722 56.076458 17.99523
-92.762878 56.099918 17.574007
-92.727928 56.039463 17.124933
-92.686172 56.36832 11.85591
-92.661674 56.367176 11.054676
-92.621475 56.42078 9.0848074
-92.818649 55.96759 18.407986
-92.84156 56.065556 18.013031
-92.830711 56.071438 17.58486
-92.802193 56.028923 17.141912
-92.692123 56.403515 9.0918598
-92.895889 55.967781 18.424152
-92.912354 56.048187 18.021996
-92.911263 56.080776 17.603298
-92.885963 56.047344 17.162966
-92.963921 55.942253 18.427994
-92.986908 56.040379 18.032276
-92.985786 56.073074 17.613165
-92.944016 55.995281 17.156509
-93.040657 55.94352 18.441227
-93.070206 56.059441 18.051697
-93.065781 56.083458 17.62866
-93.023872 56.005848 17.171444
-93.109131 55.927734 18.448227
-93.134232 56.067806 17.634983
-93.09549 55.999191 17.180634
-93.209892 56.037304 18.067951
-93.205383 56.061493 17.644171
-93.169846 56.001881 17.192602
-93.235573 55.98764 17.197136
-93.189972 56.287079 12.286847
-93.159142 56.374714 10.290747
-93.21109 56.291286 10.676286
-93.406509 56.026375 17.665001
-93.483582 56.01009 18.117731
-93.482292 56.04364 17.695562
-93.443077 55.975742 17.23912
-93.373337 56.252819 11.899674
-93.547859 55.99976 18.142784
-93.549965 56.042377 17.723469
-93.510757 55.974754 17.266518
-93.619743 56.008133 18.171198
-93.618584 56.042149 17.748051
-93.589378 56.001396 17.300129
-93.60553 56.081081 16.897549
-93.680099 55.982162 18.181141
-93.682213 56.025146 17.761011
-93.662918 56.011177 17.322296
-93.62365 56.234253 13.587441
-93.61129 56.23695 13.17479
-93.721481 55.975906 17.329161
-93.724129 56.020317 16.913464
-93.681152 56.199947 13.592843
-93.668663 56.202751 13.180028
-93.727943 56.177082 13.192079
-93.720963 56.194683 12.784402
-93.722992 56.236214 12.383809
-93.710075 56.237732 11.974969
-93.713051 56.281628 11.57694
-93.697639 56.276222 11.169326
-93.687157 56.319546 10.368964
-93.674911 56.3223 9.966794
-93.660553 56.35471 9.1703196
-93.885979 55.981422 18.252565
-93.875526 56.029522 17.397131
-93.866318 56.080177 16.551109
-93.940704 55.965164 18.272463
-93.932991 55.982426 17.84075
-93.927231 56.004658 17.413187
-93.899864 55.96973 16.96788
-93.904839 56.01984 16.554605
-93.891571 56.021664 16.126926
-93.998817 55.956459 18.299252
-93.998009 55.991573 17.873657
-93.982338 55.987465 17.435968
-93.958488 55.961597 16.993418
-93.963661 56.011879 16.579735
-93.950562 56.013882 16.151636
-93.939476 56.021019 15.727513
-94.052711 55.937881 18.325375
-94.055466 55.982014 17.902725
-94.029854 55.951546 17.455059
-94.019684 55.961357 17.024744
-94.025063 56.011856 16.610573
-94.012146 56.014088 16.181971
-94.110641 55.928719 18.35322
-94.123718 55.999519 17.939976
-94.108444 55.995907 17.501202
-94.071411 55.935013 17.045132
-94.076988 55.985638 16.63072
-94.067635 55.996937 16.204803
-94.063736 56.022369 15.78555
-94.048248 56.017185 15.358639
-94.166328 55.913307 18.370552
-94.179573 55.984211 17.95698
-94.164413 55.980717 17.517874
-94.13765 55.946587 17.070782
-94.133194 55.970669 16.646721
-94.130783 55.999935 16.226349
-94.113373 55.989689 15.795169
-94.115082 56.029461 15.381948
-94.219017 55.888821 18.384056
-94.239151 55.977448 17.976784
-94.237656 56.009506 17.550018
-94.194016 55.931248 17.086645
-94.203285 55.991055 16.674345
-94.194191 56.00267 16.247425
-94.183716 56.010494 15.821457
-94.171867 56.014549 15.396476
-94.271797 55.862545 18.401928
-94.302231 55.977757 18.00424
-94.2771 55.94809 17.554649
-94.253883 55.923134 17.109991
-94.253059 55.956409 16.68821
-94.244041 55.968128 16.261124
-94.247337 56.011864 15.846419
-94.361443 55.967655 18.033211
-94.350014 55.973614 17.595968
-94.320114 55.931263 17.144335
-94.333092 56.000404 16.734089
-94.310555 55.976803 16.294312
-94.300293 55.985001 15.86759
-94.292076 55.998394 15.44463
-94.418694 55.955433 18.068989
-94.421036 55.997055 17.644121
-94.384483 55.937378 17.185492
-94.383987 55.971249 16.762566
-94.365005 55.956802 16.325472
-94.358322 55.974197 15.901281
-94.467453 55.957878 17.672771
-94.431 55.89846 17.213943
-94.427223 55.923668 16.78783
-94.428932 55.962944 16.368359
-94.526588 55.945957 17.706892
-94.500473 55.913441 17.25699
-94.507126 55.965672 16.83934
-94.49527 55.969715 16.407143
-94.485435 55.978844 15.978921
-94.600067 55.937885 18.177044
-94.592583 55.953888 17.741194
-94.569969 55.930542 17.293827
-94.573318 55.974186 16.872484
-94.558105 55.969601 16.436745
-94.548355 55.978985 16.008024
-94.53376 55.975613 15.577486
-94.656914 55.918327 18.203629
-94.663177 55.969894 17.780293
-94.630341 55.920326 17.322876
-94.626892 55.946453 16.895041
-94.625488 55.977715 16.470896
-94.605461 55.960594 16.032959
-94.615105 56.020157 15.621644
-94.588806 55.986404 15.183228
-94.713593 55.897259 18.234648
-94.709656 55.922611 17.801361
-94.693985 55.917542 17.359495
-94.672768 55.967716 16.070976
-94.679047 56.018646 15.656302
-94.687462 56.075005 15.244509
-94.773895 55.887764 18.261133
-94.787155 55.957485 17.843519
-94.754356 55.908535 17.38516
-94.819046 55.912766 17.401794
-94.829536 55.975105 16.984764
-94.779373 56.157776 13.183176
-94.895439 55.981201 16.995466
-94.844933 56.164703 13.18933
-94.947174 55.915894 17.420589
-94.954155 55.969551 16.999582
-95.013046 55.847256 18.29109
-95.019348 55.899639 17.86562
-95.000015 55.922314 16.991302
-95.079407 55.854145 18.3004
-95.089149 55.915436 17.877632
-95.080185 55.928841 17.439386
-95.08017 55.964947 17.011282
-95.024506 56.140896 13.192237
-95.143791 55.861973 18.308687
-95.150108 55.914509 17.882204
-95.137665 55.919109 17.44042
-95.130707 55.937481 17.005896
-95.050514 56.154419 11.936482
-95.202362 55.861717 18.314791
-95.208786 55.914265 17.88788
-95.192955 55.910038 17.44256
-95.186073 55.928394 17.007696
-95.139412 56.021286 14.436223
-95.259506 55.860653 18.324953
-95.262604 55.904423 17.894417
-95.246872 55.900211 17.448763
-95.254051 55.954048 17.025707
-95.32077 55.902256 17.905685
-95.312088 55.915802 17.465855
-95.298447 55.916557 17.023998
-97.059212 55.69165 18.360933
-97.091713 55.806175 17.942688
-97.068314 55.785152 17.478033
-96.983421 56.029568 11.79563
-97.127457 55.708096 18.368521
-97.14183 55.778778 17.934072
-97.136536 55.801735 17.484434
-97.12603 55.811913 17.03269
-97.049202 55.904778 13.498719
-97.219025 55.79409 17.9349
-97.191605 55.764313 17.466499
-97.206367 55.836254 17.035305
-97.116402 55.902882 13.489165
-97.254448 55.668224 18.345251
-97.279259 55.765224 17.919588
-97.273415 55.788246 17.4692
-97.251373 55.771999 17.007891
-97.222427 55.920395 14.3644
-97.334038 55.701706 18.355839
-97.519905 55.745926 17.967085
-97.514137 55.769363 17.515034
-97.495758 55.762375 17.05501
-97.467186 55.913048 14.400909
-97.582367 55.764088 18.006762
-97.573235 55.778988 17.55102
-97.536751 55.72813 17.075691
-97.509735 55.879364 14.420585
-97.628349 55.736324 18.034933
-97.630508 55.777775 17.588028
-97.590591 55.718369 17.109226
-97.673279 55.700676 18.053616
-97.679283 55.75103 17.609581
-97.650566 55.718235 17.139355
-97.739655 55.711277 18.078047
-97.742088 55.753036 17.630402
-97.702347 55.693977 17.150827
-97.805046 55.71315 18.096437
-97.803825 55.746281 17.645264
-97.868149 55.74696 17.667198
-97.843193 55.723503 17.198502
-97.816032 55.871075 14.526387
-97.938164 55.756512 17.689899
-98.006325 55.716755 18.149258
-97.99028 55.715279 17.684469
-97.965157 55.692055 17.215117
-98.070618 55.692696 18.144333
-98.065437 55.717609 17.688391
-98.036339 55.685719 17.215611
-98.029663 55.888622 14.551615
-98.149544 55.701572 18.158436
-98.151619 55.744244 17.70797
-98.103691 55.668617 17.21974
-98.213455 55.683731 18.168846
-98.186035 55.695061 17.244209
-98.289009 55.700462 18.195366
-98.283638 55.725948 17.737854
-98.254219 55.694664 17.263514
-98.146606 55.99239 10.62902
-98.426247 55.730835 17.785942
-98.472702 55.634247 18.235998
-98.486183 55.703911 17.792715
-98.44931 55.655575 17.31115
-98.459587 55.717434 16.868975
-98.468315 55.775566 16.42687
-98.46418 55.803398 15.976791
-98.43956 55.782963 15.514315
-98.432243 55.80299 15.06599
-98.411995 55.792419 14.61107
-98.400948 55.840179 13.725517
-98.418114 55.954052 12.861201
-98.401566 55.951538 12.416766
-98.551186 55.643421 18.2486
-98.557182 55.695671 17.798674
-98.535278 55.682568 17.328474
-98.52298 55.691711 16.868383
-98.535469 55.758686 16.428793
-98.516182 55.751118 15.96761
-98.495262 55.739517 15.507748
-98.480309 55.741707 15.054292
-98.475159 55.766758 14.609214
-98.449753 55.963902 11.53817
-98.616829 55.617744 18.246033
-98.626534 55.678757 17.79887
-98.60453 55.665691 17.328344
-98.58461 55.657249 16.862209
-98.578148 55.680027 16.408573
-98.698425 55.626755 18.253958
-98.704353 55.679089 17.803179
-98.686035 55.674881 17.3351
-98.669815 55.675339 16.871241
-98.667099 55.70705 16.419703
-98.647606 55.699478 15.958028
-98.777901 55.634518 18.26829
-98.783875 55.686974 17.816923
-98.769348 55.691669 17.3512
-98.734207 55.648254 16.872412
-98.754265 55.732948 16.437231
-98.713661 55.714096 15.513699
-98.848518 55.62212 18.285261
-98.850868 55.665928 17.830458
-98.821289 55.635612 17.352655
-98.785217 55.740368 15.083079
-98.906723 55.581547 18.298597
-98.93573 55.686672 17.864775
-98.906311 55.656631 17.386215
-98.880341 55.671917 16.462425
-98.990784 55.585411 18.317495
-99.012314 55.67318 17.877047
-98.97908 55.634502 17.395138
-98.968384 55.685238 16.48176
-99.080391 55.591019 18.325191
-99.079086 55.626419 17.866035
-99.068512 55.64032 17.401665
-99.154785 55.560074 18.323584
-99.180061 55.656685 17.885281
-99.165604 55.662029 17.417149
-99.263336 55.647694 17.907743
-99.245094 55.644485 17.436178
-99.341675 55.628284 17.933001
-99.331215 55.642803 17.466885
-99.438911 55.654282 17.967428
-99.417068 55.642815 17.491673
-99.787933 55.628986 17.561638
-99.882584 55.584499 18.041021
-99.980194 55.580597 18.059439
-99.974144 55.6049 17.592503
-100.08723 55.592201 18.087603
-100.07348 55.599281 17.614052
-100.17843 55.559254 18.098812
-100.17647 55.592606 17.633726
-100.29664 55.577667 18.124306
-100.27896 55.576412 17.64666
-100.40136 55.54274 18.122532
-100.40314 55.585144 17.659208
-100.51183 55.515762 18.123299
-100.52525 55.584396 17.668335
-100.73792 55.493259 18.155716
-100.75144 55.562206 17.699581
-100.85835 55.497398 18.183298
-100.84404 55.505741 17.705948
-100.9758 55.49559 18.212446
-100.96143 55.504066 17.734451
-101.17888 55.484749 17.843018
-82.024124 56.884624 14.914244
-81.97876 56.956726 13.353114
-81.959686 56.958626 12.831459
-81.934509 56.92683 12.305416
-82.342377 56.917622 13.328622
-82.322823 56.919495 12.806556
-82.306114 56.936073 12.28889
-82.702431 56.86591 13.306361
-82.691887 56.916012 12.79314
-82.672958 56.922977 12.272962
-83.204979 56.571671 18.029484
-83.050797 56.953846 12.276169
-83.024811 56.927422 11.750672
-83.007675 56.944733 11.234365
-83.349876 57.001846 10.221275
-83.329773 57.005974 9.7054062
-83.68924 57.057812 9.222806
-84.049629 57.030518 9.2495174
-83.996353 57.08297 7.7095237
-84.358528 57.074833 7.7339811
-84.800842 56.945461 10.333917
-84.707634 57.016449 7.7536802
-85.20507 56.837505 11.923069
-85.157288 56.824223 10.873783
-85.135277 56.825146 10.352683
-85.499969 56.847805 10.395757
-85.46991 56.815811 9.8702002
-87.25869 56.753487 11.005022
-87.156113 56.789185 8.3876143
-87.146545 56.836689 7.8714738
-87.128098 56.85096 7.3523583
-87.123924 56.918594 6.8384137
-87.674179 56.576397 13.636165
-87.651985 56.661045 12.584208
-87.625923 56.649067 12.050163
-87.606544 56.660976 11.522016
-87.575455 56.630196 10.988504
-87.56945 56.690186 10.470556
-87.94812 56.715412 11.003064
-87.921043 56.69931 10.471964
-87.876648 56.701099 9.4192629
-88.817299 56.280556 17.978493
-89.507568 56.253624 18.043472
-89.731911 56.479912 13.181779
-89.705475 56.538155 12.116129
-89.672638 56.503864 11.574431
-89.653076 56.512085 11.041731
-89.643875 56.553574 10.515366
-89.621613 56.552738 9.9837446
-89.609718 56.585293 9.4578505
-89.593559 56.603916 8.9309301
-89.576057 56.618084 8.4043474
-90.077728 56.496613 12.650443
-90.057945 56.504757 12.113443
-90.02784 56.480049 11.572481
-90.017197 56.516655 11.043316
-90.333817 56.501118 9.9872789
-90.291847 56.576496 8.4032068
-90.698174 56.623825 8.9665737
-91.417366 56.539261 9.0067387
-91.836395 56.462486 10.634436
-92.281036 56.323597 13.368711
-92.270584 56.356915 12.828132
-92.245445 56.34848 12.28123
-92.218727 56.335369 11.735436
-92.206879 56.364223 11.198308
-92.190193 56.379227 10.660098
-92.624527 56.269638 12.857846
-92.609573 56.351028 11.781438
-92.571617 56.367794 10.698739
-94.116821 56.254765 11.368261
-94.118881 56.31778 10.83097
-94.096672 56.374981 9.7479229
-94.086601 56.406139 9.2079582
-94.600464 56.074093 15.252365
-94.530281 56.183067 12.492771
-94.503807 56.172565 11.939717
-94.486374 56.185028 11.392343
-94.457123 56.223957 10.303651
-94.87674 56.160442 11.41117
-94.890305 56.25148 10.876017
-96.449409 56.087219 11.500083
-96.445068 56.133438 10.952212
-100.79776 55.545536 18.026852
-100.71554 55.631725 15.109109
-100.71052 55.671513 14.53672
-101.11742 55.676029 14.538595
-101.52138 55.667252 14.543621
-83.687469 56.674622 17.037033
-83.660713 56.612091 16.63405
-83.881706 56.6068 17.330732
-83.846062 56.628849 16.199533
-84.065376 56.624168 17.289425
-83.980629 56.737602 14.328052
-84.1334 56.693512 14.281934
-84.312943 56.694824 14.626798
-84.529251 56.580418 16.428734
-86.006027 56.47757 17.158775
-86.03701 56.623009 13.410415
-86.317474 56.467129 16.400009
-88.630013 56.318974 17.358278
-88.744606 56.268364 17.409286
-90.857292 56.126762 17.380768
-91.880447 56.142357 16.269077
-94.228325 55.977604 17.058228
-94.227684 56.077946 15.836703
-94.218224 56.089699 15.425934
-94.172981 56.018364 14.991581
-94.168167 56.040527 14.58862
-96.059326 55.8172 17.200886
-96.551041 55.868454 16.048759
-96.521416 55.865307 15.196996
-96.526634 55.935066 14.374921
-98.585487 55.771378 14.550803
-98.977913 55.635197 16.832186
