# .PCD v0.7 - Point Cloud Data file format
VERSION 0.7
FIELDS x y z
SIZE 4 4 4
TYPE F F F
COUNT 1 1 1
WIDTH 1364
HEIGHT 1
VIEWPOINT 0 0 0 1 0 0 0
POINTS 1364
DATA ascii
-102.37325 17.985437 10.59
-102.37569 18.004711 10.281056
-102.34126 17.988052 9.9610357
-102.33965 18.003258 9.6533155
-102.34308 18.023298 9.3481569
-102.3095 18.007219 9.0331049
-102.316 18.030144 8.730938
-102.35493 16.924093 8.3097
-102.33594 16.922071 8.0082979
-102.35816 16.958519 7.7178211
-102.12074 15.895014 18.280119
-102.34965 16.713331 6.8095407
-102.39034 16.664888 3.0373318
-102.35508 16.70756 1.5979285
-102.34396 16.712326 1.3101171
-102.01431 14.97746 18.324244
-101.97062 13.634627 18.28949
-102.02668 13.423071 18.244812
-102.19991 14.055126 8.2774534
-102.17091 14.099264 6.8691354
-102.22619 14.158984 6.6014729
-102.19291 13.75836 8.8030348
-102.19313 13.772359 8.5208502
-102.19898 13.790938 8.2409821
-102.18774 13.795422 7.9575782
-102.17453 13.798242 7.6747489
-102.18219 13.818199 7.3976226
-102.18796 13.836574 7.1206021
-102.18422 13.847079 6.8421793
-102.17095 13.849686 6.5626349
-102.1787 13.869602 6.2876773
-102.16928 13.875325 6.0101991
-102.15798 13.879457 5.733108
-102.16012 13.894677 5.4586215
-101.91457 12.76195 19.01716
-102.1806 13.514397 8.2019815
-102.18433 13.531178 7.9237814
-102.17075 13.547518 7.3647075
-101.9437 12.565402 18.28097
-101.85635 12.200884 19.158178
-101.94899 12.322108 18.21167
-101.86555 11.517744 18.301935
-101.90245 11.306263 18.267393
-101.79523 10.278572 18.281235
-101.84722 10.087634 18.255354
-101.88748 9.8238468 14.748941
-101.98586 10.109825 9.9813538
-101.98865 10.124038 9.7117128
-101.97348 10.125772 9.4375534
-101.9722 10.137064 9.1689539
-101.97691 10.152461 8.9031277
-101.98767 10.17201 8.639842
-101.96439 10.167896 8.3682032
-101.97926 10.190228 8.1076775
-102.01637 10.228008 7.8530827
-101.94685 10.191587 7.5736585
-101.92366 10.187317 7.306778
-101.93082 10.20415 7.0475111
-101.93611 10.219647 6.7883763
-101.94105 10.24664 6.2705841
-101.9407 10.25814 6.0119677
-101.94662 10.273993 5.7548375
-101.96416 9.8297701 10.764597
-101.97302 9.8480892 10.494739
-101.96394 9.8541193 10.219787
-101.97665 9.8749638 9.953476
-101.96342 9.8780413 9.6797304
-101.97208 9.8960352 9.4141674
-101.95473 9.8961811 9.1417208
-101.96742 9.9168406 8.8792992
-101.94601 9.9140892 8.60816
-101.94671 9.9264479 8.3442783
-101.95352 9.9429626 8.0828142
-101.94225 9.9470205 7.8176451
-101.929 9.9496794 7.5530596
-101.93812 9.9676685 7.2944536
-101.92911 9.9731617 7.0325489
-101.92973 9.9968824 6.514791
-101.73044 9.1044044 18.275986
-101.96384 9.613781 10.460795
-101.95461 9.6196299 10.186848
-101.95925 9.634778 9.9189024
-101.95386 9.6431007 9.6488066
-101.93837 9.644556 9.3768368
-101.94495 9.6608582 9.1128216
-101.94954 9.6757832 8.8491125
-101.92794 9.6729383 8.5790758
-101.93665 9.6905594 8.3184319
-101.93533 9.7013493 8.0559416
-101.92393 9.7052727 7.7918811
-101.91058 9.7078123 7.5284066
-101.92781 9.7310877 7.2727046
-101.91058 9.7309208 7.0101233
-101.91588 9.7460356 6.7530503
-101.91113 9.7542868 6.4945989
-101.78391 8.91856 18.253605
-101.94528 9.3755541 10.421721
-101.92783 9.375885 10.146137
-101.94033 9.3961039 9.8820066
-101.93475 9.4042282 9.6130047
-101.93518 9.4163036 9.3470764
-101.92551 9.4215956 9.079215
-101.91381 9.4254704 8.8120012
-101.90008 9.4279346 8.5454569
-101.92493 9.4561558 8.2902679
-101.9235 9.4667702 8.0287991
-101.92012 9.4760389 7.7677259
-101.90664 9.4784946 7.5051928
-101.89119 9.4795876 7.2432685
-101.90652 9.5012941 6.9887943
-101.89541 9.5052242 6.7294283
-101.93164 9.1166582 10.923032
-101.91856 9.1320171 10.377584
-101.941 9.1586475 10.116792
-101.92118 9.1574516 9.8428583
-101.91538 9.16541 9.5749521
-101.91561 9.17729 9.3101206
-101.92194 9.19314 9.0481319
-101.91816 9.2022867 8.7841539
-101.91238 9.2100668 8.5206776
-101.90461 9.2164831 8.2577257
-101.91118 9.232338 7.9994121
-101.90765 9.241477 7.7393646
-101.87761 9.2330217 7.4741116
-101.89476 9.2557793 7.2205467
-101.88237 9.2702599 6.7051892
-101.93885 9.0241032 7.9788227
-101.92959 9.0410166 7.4603491
-101.93027 9.0528946 7.2035508
-101.91256 9.0526943 6.9436407
-101.91766 9.0673952 6.6892309
-101.88782 9.059165 6.4288654
-101.89739 9.0767431 6.1765833
-101.89683 9.0876503 5.9229722
-101.90269 9.1027536 5.6708517
-101.9333 8.9769897 3.8988197
-101.94273 9.0167322 3.1497066
-101.92827 9.0184708 2.8993995
-101.92872 9.0299501 2.649822
-101.69267 7.9516783 18.25882
-101.7175 7.7496238 18.223028
-101.57722 6.4505992 18.251785
-101.58809 6.076252 22.653162
-101.61309 6.2765431 18.242554
-101.59219 5.8838701 22.606335
-101.76957 6.2782393 10.830258
-101.76474 6.3082075 10.050228
-101.7701 6.321969 9.7950678
-101.75657 6.3251548 9.5350103
-101.76544 6.3514199 9.0296679
-101.77618 6.3995557 8.0281744
-101.74406 6.4023881 7.5237737
-101.75498 6.4188771 7.2792177
-101.73828 6.4198265 7.0293579
-101.74743 6.0457067 11.313263
-101.75477 6.060771 11.053459
-101.74329 6.0654664 10.787985
-101.75469 6.0826473 10.532295
-101.74725 6.089437 10.271149
-101.73766 6.0949864 10.010707
-101.74586 6.1209769 9.5026436
-101.73843 6.1275549 9.2466898
-101.7459 6.1422906 8.9963312
-101.73438 6.1465135 8.7414875
-101.74635 6.1636553 8.4942589
-101.7393 6.1702652 8.2427549
-101.73026 6.1757231 7.991797
-101.72778 6.1847706 7.743464
-101.52105 5.4002285 18.936226
-101.7419 5.8679099 10.75151
-101.73633 5.8758035 10.490514
-101.73558 5.8970523 9.9762335
-101.74339 5.92274 9.4695063
-101.74423 5.9338493 9.2167931
-101.74303 5.9438066 8.9645414
-101.73981 5.9526157 8.7127743
-101.73456 5.9602795 8.4615116
-101.71873 5.9621353 8.2085505
-101.70946 5.9675083 7.9584465
-101.70678 5.976439 7.7109671
-101.71074 5.9889646 7.4658756
-101.71278 6.0004086 7.2210526
-101.52589 5.0511665 22.654213
-101.50981 5.2016711 18.872952
-101.5212 5.2344041 18.244362
-101.71667 5.6481476 10.968645
-101.72978 5.6660638 10.714025
-101.73125 5.6992984 9.9438124
-101.73021 5.72012 9.4357777
-101.73085 5.731081 9.1838217
-101.70893 5.7404041 8.6765404
-101.72916 5.7617607 8.4331322
-101.72173 5.7682052 8.1830778
-101.70947 5.7823701 7.6866899
-101.71331 5.7947755 7.4421945
-101.70659 5.8014469 7.1960878
-101.54406 4.8716164 22.610001
-101.56645 5.0679531 18.226513
-101.70659 5.4610438 10.675867
-101.70898 5.4731088 10.41943
-101.70926 5.4840045 10.163517
-101.712 5.5067968 9.6560802
-101.71452 5.5187302 9.4044342
-101.715 5.5295367 9.1532345
-101.70488 5.5346847 8.9000273
-101.70985 5.5477839 8.652256
-101.71284 5.559792 8.4048252
-101.70524 5.5661387 8.1555367
-101.69563 5.5713758 7.9067993
-101.68402 5.5755076 7.6586347
-101.6964 5.5923605 7.416955
-101.6982 5.6035614 7.1734972
-101.69186 5.2724242 10.389017
-101.70046 5.2876024 10.136747
-101.69678 5.317492 9.3770351
-101.70567 5.3326488 9.1291494
-101.6954 5.3377452 8.8766193
-101.69167 5.3462114 8.6271362
-101.70316 5.3626037 8.3827724
-101.69543 5.3688936 8.1341639
-101.69434 5.3786254 7.8882422
-101.69059 5.1302686 9.3542461
-101.69081 5.1408424 9.104393
-101.68038 5.1458797 8.8525391
-101.68515 5.1587071 8.6061201
-101.67928 5.1660051 8.3577433
-101.68872 5.1811743 8.1143332
-101.67019 5.1818395 7.8647447
-101.67058 5.2024317 7.3776307
-101.68094 5.2179523 7.1374173
-101.80794 5.0172033 4.4978709
-102.1023 17.882715 21.491665
-102.10421 17.687031 21.440691
-102.09353 17.491447 21.385889
-102.07086 17.279053 21.675163
-102.0752 17.29747 21.337833
-102.14227 16.971533 21.678808
-102.16023 16.998905 21.353569
-102.1485 17.005774 21.005795
-102.13346 17.010189 20.659567
-102.13544 17.026079 20.332113
-102.114 17.025726 19.988901
-102.35452 16.692619 7.6449814
-102.35439 16.702587 7.4112825
-102.32809 16.694836 7.172442
-102.32447 16.702374 6.9396253
-102.31913 16.708719 6.70715
-102.32025 16.719412 6.4765911
-102.30062 16.755415 5.3272533
-102.39301 16.390785 2.848525
-102.39099 16.399033 2.6227555
-102.35276 16.431093 1.2679441
-101.96645 15.14119 21.48114
-101.96201 14.784883 21.743471
-101.99044 14.63396 21.731911
-102.31557 15.542909 5.3119545
-102.33701 15.594796 4.4171834
-101.99767 14.469735 21.702143
-102.32174 15.41534 4.4128366
-102.0174 14.314809 21.684336
-101.97535 14.12604 21.610378
-102.20214 14.852054 4.1703572
-102.20589 14.682587 4.3888898
-102.19866 14.687479 4.1679845
-102.1983 14.696566 3.947907
-102.2048 14.709862 3.7284129
-101.89028 13.130048 21.688784
-101.92704 13.164658 21.384274
-101.91927 13.174272 21.043858
-101.89407 13.173958 20.692892
-101.93878 13.00211 21.697838
-102.08339 12.85637 12.296955
-102.05595 12.851565 12.039079
-102.06712 12.867952 11.800336
-102.05169 12.869613 11.55151
-102.03413 12.870018 11.303621
-102.01446 12.869176 11.056692
-102.08072 12.783705 10.364662
-102.04462 12.773658 10.117725
-102.07346 12.799239 9.8954325
-102.05851 12.610514 10.588118
-101.88315 11.937167 17.162083
-101.88889 11.793244 17.159897
-101.98345 12.150011 9.8616877
-101.90089 11.654812 17.163042
-101.96441 11.964604 10.549943
-102.08926 12.288895 4.3792605
-101.80765 11.127543 21.731422
-101.88338 11.219831 20.475105
-101.8889 11.235861 20.159008
-102.05041 11.746722 9.8914118
-101.80157 10.98278 21.72175
-101.80306 10.846244 21.715448
-102.03519 11.461765 9.6581669
-101.82507 10.724454 21.724777
-101.83418 10.5961 21.719746
-101.95371 11.13349 9.849225
-101.97548 11.00368 9.8482304
-102.07784 11.204845 6.1150484
-102.08469 11.216887 5.9007654
-102.07214 11.219168 5.6838851
-102.06673 11.225014 5.468699
-102.05076 11.225519 5.252634
-102.02322 11.245639 4.3982191
-101.80769 10.50056 16.748379
-101.99824 10.873831 9.8411903
-102.07098 11.08623 5.4591393
-102.0638 11.091222 5.2444153
-102.00926 11.098077 4.3879123
-102.0299 11.125386 3.966249
-102.01565 10.759952 9.3722305
-102.02209 10.964562 4.3748684
-102.0247 10.982904 3.9520948
-101.67473 9.2876396 21.685051
-101.6805 9.3036146 21.354792
-101.71455 9.1767044 21.711823
-101.72913 9.0567274 21.722151
-101.72787 8.931982 21.720747
-101.72779 8.8079042 21.718124
-101.73627 8.6866093 21.718983
-101.74684 8.5630627 21.718355
-101.89458 8.9876604 12.498675
-101.89471 8.9970875 12.257326
-101.86716 8.9944439 12.005403
-101.86287 9.0018044 11.765719
-101.85641 9.0081625 11.526784
-101.83064 9.0060568 11.28159
-101.81985 9.0103951 11.044383
-101.81557 9.0175095 10.811343
-101.93447 9.0007153 9.2611465
-101.94566 9.0229149 8.8198299
-101.93959 9.028882 8.5971766
-101.92275 9.0301075 8.372633
-101.9129 9.0343399 8.1511669
-101.91012 9.0416145 7.9325452
-101.90551 9.0480566 7.7143526
-101.89012 9.0497465 7.4945145
-101.87289 9.0505896 7.2753134
-101.93771 9.0251255 5.3739071
-101.93923 9.0340233 5.163887
-101.92995 9.0381718 4.9529448
-101.93721 9.0495529 4.7442756
-101.93366 9.0561857 4.5347161
-101.89566 8.8022871 4.1149673
-101.90071 8.5287218 4.7388582
-101.90639 8.5392218 4.530879
-101.91336 8.5664101 3.9070821
-102.04545 8.7279902 1.2005388
-101.89426 8.4334421 3.9039607
-101.70208 7.3590951 20.321236
-101.68643 7.3652315 19.991093
-101.84683 7.5596128 3.9170117
-101.6049 6.6274757 16.977562
-101.53355 6.3250065 21.50354
-101.46884 5.0413809 21.287298
-101.50252 4.8878074 22.704739
-101.51272 5.0497332 18.201447
-101.5222 5.0630474 17.915541
-101.53203 4.9278374 18.522102
-101.64225 5.0981236 14.712168
-101.6402 5.1064444 14.453247
-101.61012 5.1056657 14.181638
-101.59429 5.109376 13.920382
-101.59295 5.1176715 13.669043
-101.59773 5.127871 13.422869
-101.65971 5.1413646 10.15337
-101.66714 5.1515827 9.930831
-101.64536 5.1522632 9.6996784
-101.66693 5.1670046 9.4840965
-101.84084 5.2326751 2.1325874
-101.85817 5.2528749 1.719515
-101.84055 5.2542772 1.5135128
-101.84019 5.2613997 1.3068815
-101.85706 5.274251 1.0991137
-102.33958 18.147856 12.282215
-102.35419 18.178608 11.938661
-102.33582 18.183563 11.585453
-102.33784 18.204353 11.240377
-102.32975 18.217167 10.893475
-102.33455 18.239979 10.551693
-102.32923 18.254826 10.208141
-102.32919 18.273735 9.8672056
-102.32676 18.290707 9.5266933
-102.29874 18.28756 9.1809874
-102.33174 17.75532 12.553793
-102.33317 17.775879 12.206322
-102.34742 17.80621 11.864528
-102.32082 17.805067 11.510633
-102.31472 17.819599 11.165032
-102.31385 17.838079 10.822388
-102.31825 17.860558 10.482473
-102.30478 17.869179 10.138666
-102.30434 17.887793 9.7996941
-102.31702 17.916489 9.4650717
-102.30405 17.925301 9.1249352
-102.28867 17.932184 8.7854519
-102.11692 16.908667 18.15284
-102.30959 17.35708 12.823145
-102.31313 17.37924 12.476979
-102.32184 17.405231 12.13399
-102.31265 17.417595 11.786302
-102.30865 17.433804 11.44185
-102.31763 17.459785 11.102794
-102.30094 17.466202 10.757163
-102.29116 17.49674 10.077018
-102.1246 16.320892 22.371277
-102.30366 17.053446 11.72347
-102.29936 17.069323 11.380705
-102.29887 17.106915 10.701699
-102.35759 16.945139 8.0038567
-102.35819 16.96384 7.6747074
-102.34853 16.974859 7.3443761
-102.32064 16.97224 7.0117965
-102.31424 16.985592 6.6838346
-102.30553 16.997179 6.3562055
-102.30247 17.012955 6.030025
-102.42492 16.926241 2.7818277
-102.41296 16.935059 2.4581268
-102.36664 16.918306 2.1343803
-102.3662 16.935671 1.8112433
-102.36349 16.951353 1.4879435
-101.97414 14.147221 22.487772
-101.98866 13.820854 22.394892
-101.94556 13.453023 22.261343
-101.98988 13.703313 18.08374
-101.89375 13.057135 22.519257
-102.02241 13.381728 18.014105
-101.88418 12.712019 22.408197
-102.05473 13.371398 12.095157
-102.06326 13.394255 11.770166
-102.06116 13.41021 11.442997
-102.04945 13.437028 10.790559
-102.04411 13.467671 10.145382
-101.88885 12.381756 22.318762
-101.99741 12.689491 17.841799
-101.88548 12.053121 22.236546
-101.8877 12.273249 18.079197
-102.18608 13.098207 6.030479
-102.19073 13.117397 5.7220683
-101.79889 11.657272 22.502611
-101.93669 11.976707 18.049273
-101.79413 11.333824 22.429134
-101.92902 11.647518 17.989632
-101.79456 11.01548 22.360762
-101.79248 10.697796 22.290829
-101.96777 11.430902 9.9396324
-102.01962 11.47727 9.6410751
-101.71771 10.320567 22.561777
-101.70833 9.9989662 22.480299
-101.81067 10.074694 22.157839
-101.8051 10.276891 18.051849
-101.9025 10.486443 14.996558
-101.90353 10.503718 14.663039
-101.89357 10.514733 14.326908
-101.88992 10.545581 13.667572
-101.87987 10.556234 13.337549
-101.95817 10.616577 13.042681
-101.88332 10.606586 12.37097
-101.96455 10.684405 11.760606
-101.94662 10.737296 10.494246
-101.96118 10.761169 10.186411
-102.02412 10.812524 9.892416
-102.01701 10.823994 9.5801668
-101.84287 9.9798613 18.015858
-101.88958 10.19225 14.280767
-101.86832 10.196842 13.943368
-101.869 10.213453 13.617014
-101.86698 10.228479 13.29142
-101.86228 10.241925 12.966615
-101.8549 10.253797 12.642629
-101.8532 10.26874 12.322433
-101.85728 10.286807 12.005809
-101.68478 9.3591213 22.328255
-101.81377 9.6478472 17.947987
-101.87222 9.8149376 15.227582
-101.84425 9.8649387 13.894277
-101.86964 9.8947868 13.578978
-101.8342 9.89147 13.241603
-101.84596 9.9137402 12.924338
-101.84677 9.9299641 12.604538
-101.83656 9.9400988 12.28248
-101.68837 9.0502186 22.265444
-101.80682 9.3298244 17.891836
-101.83185 9.5255089 14.175438
-101.8349 9.543088 13.850645
-101.81856 9.5502195 13.520041
-101.81102 9.5776215 12.874589
-101.63145 8.6941071 22.547094
-101.69136 8.7437048 22.197327
-101.88807 9.2888241 13.181989
-101.88295 9.3016891 12.859908
-101.88358 9.3174925 12.541679
-101.87312 9.3273716 12.221198
-101.86848 9.3402309 11.904461
-101.83574 9.3381729 11.580145
-101.85137 9.3615866 11.273252
-101.84747 9.374609 10.961445
-101.85813 9.395278 10.655343
-101.71492 8.4475441 22.145874
-101.68671 8.6294489 18.065762
-101.94391 9.2423172 8.2149792
-101.93278 9.2509327 7.9130239
-101.91925 9.2582407 7.6116462
-101.92082 9.2734365 7.3140354
-101.9113 9.2827654 7.0152087
-101.89944 9.2908163 6.7168589
-101.89503 9.3169889 6.1253996
-101.70152 8.1351223 22.081131
-101.76337 8.2914448 19.492989
-101.70246 8.3294649 18.029497
-101.70539 7.8352585 22.034649
-101.70508 8.0263233 17.991369
-101.60672 7.4667864 22.295595
-101.70181 7.7190862 17.941496
-101.63024 7.1672821 22.23439
-101.68067 7.3974786 17.866491
-101.65794 7.4351039 16.824129
-101.60342 6.8385129 22.129038
-101.59642 6.5218539 22.039907
-101.60065 6.7155843 18.028189
-101.64721 6.753222 17.707319
-101.61194 6.2225671 21.979296
-101.65614 6.3317404 20.135323
-101.66333 6.3696542 19.41482
-101.61208 6.4145536 17.975121
-101.66912 6.5999589 14.665592
-101.67123 6.6619349 13.392764
-101.72935 6.7626619 11.860653
-101.76884 6.9245844 8.867713
-101.74585 6.9281197 8.5682144
-101.52611 5.8675151 22.24637
-101.61067 5.9221258 21.920105
-101.6409 6.006927 20.438564
-101.64638 6.0441771 19.71253
-101.59099 6.1045694 17.915371
-101.64532 6.3027053 14.295182
-101.50459 5.5629711 22.178579
-101.55776 5.6035123 21.832006
-101.59978 5.6392345 21.480623
-101.63012 5.7225618 20.017433
-101.62274 5.7366571 19.651005
-101.63606 5.759366 19.30028
-101.56558 5.796061 17.858473
-101.59509 5.8249631 17.531389
-101.51914 5.2765827 22.138805
-101.57233 5.3165169 21.792744
-101.5749 5.335464 21.415768
-101.60397 5.4173012 19.956171
-101.6093 5.4534492 19.240843
-101.56217 5.4998322 17.816118
-101.68022 5.3633361 15.50305
-101.66327 5.3715873 15.170528
-101.65182 5.3819947 14.842999
-101.62019 5.3839211 14.509264
-101.61997 5.3987579 14.191333
-101.60826 5.4087224 13.870759
-101.61102 5.4246063 13.558075
-101.6023 5.4356275 13.242809
-101.69196 5.3439512 9.6384745
-101.68483 5.3547201 9.3435402
-101.66619 5.3606625 9.0470657
-101.68118 5.3805003 8.759737
-101.6757 5.3917985 8.4685802
-101.67686 5.4058099 8.179863
-101.84103 5.3861661 3.660593
-102.35 18.147148 12.991317
-102.35204 18.158863 12.714779
-102.33551 18.159752 12.432138
-102.30028 18.149717 12.143912
-102.29533 18.157171 11.869986
-102.27992 18.158484 11.593673
-102.28691 18.172749 11.327493
-102.37965 18.138102 11.085184
-102.38253 18.14991 10.819312
-102.38327 18.160431 10.553962
-102.37357 18.164841 10.286427
-102.3617 18.167944 10.019629
-102.32261 18.15518 9.7459106
-102.31479 18.160515 9.4833813
-102.29648 18.159704 9.2190981
-102.30129 18.172297 8.9625597
-102.43809 18.134604 6.9474115
-102.42526 18.136644 6.6934161
-102.42759 18.147449 6.4428468
-102.428 18.157124 6.1924801
-102.40936 18.155697 5.9397845
-102.40593 18.163095 5.6900563
-102.4006 18.169367 5.4405904
-102.40198 18.179522 5.1924224
-102.40147 18.188568 4.9443822
-102.38187 18.186466 4.6948037
-102.39482 18.203335 4.448761
-102.38869 18.209059 4.2012186
-102.44704 18.081295 5.9435649
-102.45228 18.093653 5.6948524
-102.44702 18.099922 5.4451246
-102.43126 18.10008 5.1946621
-102.43943 18.114092 4.9474635
-102.42849 18.117008 4.6985517
-102.42429 18.123817 4.4507356
-102.40958 18.124508 4.202435
-102.40162 18.129107 3.9550948
-102.42632 18.1527 3.7099576
-102.406 18.150089 3.4623258
-102.40108 18.156435 3.2157707
-102.40295 18.166727 2.9695547
-102.39432 18.170898 2.7231419
-102.44161 17.982096 5.9386706
-102.44688 17.994368 5.6902156
-102.42442 17.990644 5.43854
-102.4345 18.005663 5.1915588
-102.42547 18.009638 4.9426723
-102.41454 18.012499 4.6941066
-102.42761 18.029222 4.4481483
-102.41293 18.029882 4.2000203
-102.42227 18.044437 3.9540162
-102.42112 18.05291 3.7073922
-102.40081 18.050278 3.4600205
-102.39593 18.05657 3.2137253
-102.39783 18.066797 2.9677687
-102.39788 18.075945 2.7217619
-102.40472 18.089039 2.4757829
-102.3924 18.091005 2.2296734
-102.39552 18.101944 1.9835131
-102.42433 17.885677 5.6811585
-102.42054 17.901773 5.184382
-102.43739 17.92057 4.9386282
-102.42646 17.923395 4.6901488
-102.42229 17.930088 4.4427643
-102.39894 17.925732 4.1942291
-102.39966 17.935211 3.9479895
-102.38986 17.938623 3.7013054
-102.39551 17.950932 3.4556773
-102.39063 17.95717 3.2096419
-102.40987 17.977331 2.9644098
-102.40994 17.986423 2.7184885
-102.39084 17.98443 2.4724202
-102.38719 17.991369 2.2266297
-102.4201 17.786213 5.6702719
-102.42342 17.797216 5.4225945
-102.41621 17.802191 5.1740136
-102.42439 17.815948 4.927588
-102.42205 17.823681 4.6802969
-102.40918 17.825367 4.4324207
-102.42039 17.840837 4.1869006
-102.40376 17.840345 3.9395025
-102.40258 17.848698 3.6934853
-102.4082 17.860947 3.4479411
-102.39462 17.862175 3.2016761
-102.39652 17.872282 2.9561515
-102.39657 17.881321 2.7105777
-102.40341 17.894279 2.4650285
-102.39108 17.896193 2.2193568
-102.38554 17.902021 1.9737473
-102.3868 17.911776 1.727957
-102.43257 17.696663 5.6617212
-102.41856 17.697803 5.4119339
-102.42859 17.712584 5.1656356
-102.43674 17.726292 4.9192934
-102.43435 17.733997 4.6720891
-102.41275 17.730743 4.423552
-102.40659 17.736267 4.1768761
-102.39857 17.740711 3.9304061
-102.40601 17.753979 3.6851385
-102.37689 17.746357 3.438159
-102.39983 17.777475 2.9483263
-102.38248 17.776548 2.7026458
-102.39798 17.794426 2.4574955
-102.39426 17.801304 2.2120538
-102.10265 16.935421 18.677195
-102.42188 17.603292 5.4047184
-102.42323 17.613106 5.1575813
-102.41403 17.616932 4.9096527
-102.40293 17.619665 4.6620469
-102.4073 17.631144 4.4162798
-102.40111 17.636633 4.1698647
-102.40173 17.645975 3.9242306
-102.3918 17.649317 3.6781602
-102.40295 17.682577 2.9428434
-102.39425 17.686596 2.6974778
-102.37501 17.684599 2.4522057
-102.37128 17.691439 2.2071996
-102.38307 17.707134 1.961955
-102.14434 16.852873 19.010717
-102.11543 16.848986 18.667904
-102.4163 17.504045 5.3971486
-102.42629 17.518686 5.1512785
-102.41706 17.522488 4.9035234
-102.40594 17.525202 4.6560922
-102.39292 17.526829 4.4090033
-102.40408 17.542091 4.1642561
-102.38731 17.541569 3.917649
-102.39474 17.554714 3.672899
-102.37422 17.552048 3.4268494
-102.38847 17.57798 2.9376516
-102.38847 17.586906 2.6927724
-102.39529 17.599712 2.4479134
-102.39156 17.606531 2.2029068
-102.37727 17.607355 1.9580328
-102.37851 17.617001 1.7129364
-102.11967 16.757898 18.654293
-102.41132 17.414286 5.1437821
-102.41943 17.427795 4.8982139
-102.40829 17.430494 4.6509571
-102.41264 17.441879 4.4055347
-102.39771 17.442429 4.1588087
-102.39832 17.451687 3.9136076
-102.39705 17.45989 3.6684582
-102.38521 17.462133 3.4229822
-102.37151 17.463314 3.1777697
-102.36464 17.46834 2.9330628
-102.37334 17.482138 2.6887546
-102.37147 17.489977 2.4441941
-102.38515 17.506605 2.1995461
-102.37085 17.507427 1.9549348
-102.37148 17.525604 1.465134
-102.12417 16.665771 18.640991
-102.41249 17.309547 5.3850808
-102.4051 17.314381 5.1376295
-102.4045 17.322989 4.8914018
-102.40202 17.33053 4.6453247
-102.39764 17.337009 4.3994174
-102.40011 17.347296 4.1543565
-102.39199 17.351654 3.9087584
-102.37328 17.350071 3.6629028
-102.37885 17.362072 3.4186561
-102.39127 17.37792 3.1746342
-102.36697 17.373163 2.9294834
-102.40182 17.401609 2.6857526
-102.38251 17.399645 2.4410093
-102.38749 17.411327 2.1964862
-102.36446 17.407259 1.9521773
-102.37443 17.421753 1.7073884
-102.37382 17.430302 1.4625975
-102.14277 16.580692 18.640253
-102.39101 17.23699 4.3964472
-102.39407 17.256477 3.9068813
-102.37534 17.254927 3.6612005
-102.37592 17.272987 3.1726623
-102.37778 17.28289 2.9285266
-102.36031 17.282001 2.6840744
-102.36718 17.294701 2.4400845
-102.36345 17.301483 2.19595
-102.35786 17.307224 1.9518239
-102.13671 16.482573 18.626402
-102.40805 17.131802 4.8885117
-102.38689 17.155615 3.9066892
-102.39437 17.168625 3.6627207
-102.38251 17.170904 3.4178553
-102.36879 17.172134 3.1732538
-102.38816 17.191738 2.9298251
-102.36197 17.186028 2.6853237
-102.37762 17.203571 2.4415572
-102.36518 17.205498 2.1975489
-102.36836 17.216116 1.9534708
-102.35221 17.215965 1.7096723
-102.3604 17.229382 1.4651914
-102.36241 17.248243 0.97586936
-102.1297 16.384239 18.614067
-102.38852 17.059065 3.9085813
-102.37549 17.069513 3.419697
-102.38804 17.08526 3.1762877
-102.38123 17.090309 2.9321904
-102.37257 17.094324 2.68822
-102.36203 17.097301 2.4443953
-102.35839 17.104088 2.2006962
-102.35288 17.109844 1.9570053
-102.36301 17.124266 1.7129159
-102.35377 17.127962 1.4691225
-102.1422 16.298496 18.621386
-102.37677 16.973078 3.4262693
-102.38068 16.983965 3.1827242
-102.38271 16.993828 2.9391127
-102.36368 17.000832 2.4516597
-102.36013 17.007612 2.2081337
-102.35472 17.013367 1.9646153
-102.3562 17.022924 1.7209131
-102.14523 16.207476 18.626188
-102.41649 16.879824 3.925411
-102.41262 16.89509 3.4370952
-102.40788 16.901182 3.1930604
-102.40127 16.906244 2.9491327
-102.3928 16.91028 2.7053301
-102.40877 16.927704 2.461838
-102.38779 16.924883 2.2181125
-102.39125 16.935461 1.9743855
-102.37532 16.935396 1.730922
-102.38381 16.948744 1.4867963
-102.37291 16.951443 1.2431457
-102.35139 16.948305 1.0000439
-102.14016 16.112112 18.626659
-102.43688 16.861614 1.9848576
-102.42983 16.866379 1.7409228
-102.43845 16.879709 1.4964519
-102.41888 16.877638 1.2528243
-102.42374 16.888929 1.0080596
-102.15321 16.024342 18.63376
-102.13191 15.914858 18.610165
-102.32899 16.476776 5.6420841
-102.14504 15.819561 18.602613
-102.1265 15.68351 19.210732
-102.12315 15.479882 19.151648
-101.9993 15.059236 18.674328
-102.01547 14.877941 18.986818
-102.00968 14.793228 18.651617
-102.00196 14.696548 18.633062
-102.01773 14.611109 18.62936
-102.01787 14.514765 18.618166
-102.00985 14.413257 18.602213
-102.04075 14.330753 18.611418
-102.03934 14.233263 18.60228
-102.02049 14.127645 18.585049
-102.04125 14.040046 18.592812
-102.04329 13.941137 18.578802
-102.02036 13.606356 19.153385
-102.01308 13.506111 19.132637
-102.02895 13.415972 19.12804
-102.21037 14.106164 2.393101
-102.20685 14.113075 2.1558645
-102.19241 14.114837 1.9187782
-102.20313 14.137046 1.4436648
-101.9653 13.29089 19.073677
-102.21365 13.968879 3.5777657
-102.2195 13.980209 3.3407471
-102.21442 13.986432 3.1033525
-102.20747 13.99177 2.8660707
-102.2077 14.000464 2.6290424
-102.20605 14.008281 2.3919885
-102.21159 14.019464 2.1548753
-102.21525 14.029773 1.9175984
-102.20797 14.034958 1.6804026
-102.19882 14.039263 1.443254
-102.00665 13.214762 19.096905
-102.23556 13.796917 5.9670238
-102.22041 13.841885 4.5299268
-102.20916 13.853889 4.0534587
-102.21881 13.866956 3.8166544
-102.21752 13.874949 3.5792627
-102.17305 13.871449 3.1035383
-102.20238 13.893654 2.8676198
-102.21172 13.906569 2.6308892
-102.19755 13.917125 2.1570008
-102.21031 13.931655 1.9198474
-102.20307 13.936861 1.6828258
-102.19395 13.941193 1.4458511
-102.20107 13.953111 1.2081405
-101.95341 13.099077 19.057716
-102.23526 13.728054 5.249373
-102.22646 13.741238 4.7709861
-102.23278 13.752737 4.5333838
-102.21909 13.755021 4.2943168
-102.21256 13.760584 4.0562663
-102.22227 13.773623 3.8195505
-102.21197 13.777428 3.5817728
-102.20604 13.80033 2.8708615
-102.18821 13.800621 2.6338468
-102.2048 13.816841 2.3973029
-102.21044 13.827998 2.1604528
-102.19606 13.829877 1.9237136
-102.18887 13.835091 1.6869525
-102.18887 13.843644 1.449926
-101.97092 13.01413 19.065105
-102.2219 13.609252 5.7268815
-102.22683 13.620106 5.4880195
-102.22081 13.62595 5.2481785
-102.23096 13.639162 5.0106239
-102.22111 13.643227 4.7712193
-102.2184 13.650543 4.5329685
-102.22287 13.661127 4.2956305
-102.21637 13.666686 4.0576663
-102.20798 13.671366 3.8199158
-102.1977 13.675166 3.5823979
-102.18281 13.693831 2.872057
-102.20134 13.710853 2.6358886
-102.19983 13.718658 2.3992701
-102.20552 13.729785 2.1625943
-102.19117 13.731677 1.9260278
-102.18403 13.73689 1.6894399
-101.98834 12.91731 19.395622
-101.91809 12.898483 19.024174
-102.21764 13.504167 5.9662008
-102.22452 13.515882 5.7273407
-102.21139 13.518518 5.4862261
-102.21442 13.528461 5.2477274
-102.21555 13.537527 5.0093513
-102.22384 13.549833 4.7720246
-102.20302 13.5489 4.5322156
-102.22567 13.567719 4.2966094
-102.18287 13.556746 4.0561371
-102.20175 13.57384 3.8205061
-102.19149 13.577654 3.5831614
-102.18843 13.584743 3.3464546
-102.1835 13.590969 3.1098421
-102.18578 13.600485 2.8735549
-102.18618 13.609144 2.6372237
-102.18471 13.616945 2.4008665
-102.18135 13.623886 2.1645017
-102.18521 13.634135 1.9280107
-102.18719 13.643529 1.6913735
-101.91309 12.791349 19.337452
-102.20825 13.430687 5.2468429
-102.2094 13.439742 5.0086398
-102.21771 13.452023 4.7714877
-102.21506 13.459338 4.5334973
-102.21958 13.469892 4.2964206
-102.20404 13.471354 4.0580673
-102.20479 13.480175 3.8212261
-102.19455 13.484012 3.5839679
-102.19152 13.491109 3.347348
-102.17751 13.493213 3.1105216
-102.18892 13.506858 2.8746226
-102.18935 13.515518 2.6383786
-102.18791 13.523323 2.4021089
-102.18459 13.530274 2.1658309
-102.1703 13.532224 1.9296981
-102.17232 13.541611 1.6933227
-102.18155 13.554296 1.456509
-102.18526 13.57296 0.98252958
-101.87641 12.681652 19.304039
-102.20709 13.319581 5.7230301
-102.19388 13.322252 5.4822702
-102.215 13.340295 5.2462935
-102.19793 13.341201 5.0061059
-102.20618 13.353452 4.7691355
-102.19435 13.356677 4.5305047
-102.18971 13.363114 4.2929616
-102.19228 13.372782 4.056263
-102.17474 13.373392 3.8184807
-102.19174 13.389548 3.583004
-102.18864 13.396648 3.3464799
-102.17455 13.398779 3.1097498
-102.18591 13.412396 2.873946
-102.16807 13.412814 2.6375458
-102.16656 13.420614 2.4015462
-102.16702 13.437794 1.9294052
-102.16899 13.447175 1.6931255
-101.87348 12.596543 19.326309
-102.18279 13.183023 6.9283228
-101.87219 12.503997 19.326571
-101.89687 12.413933 19.324301
-102.18688 13.025009 6.1918459
-102.19324 13.04541 5.7129803
-102.19189 13.062349 5.234807
-101.86285 12.303242 19.287897
-102.20403 12.981638 4.992528
-102.20455 13.008172 4.2793288
-102.19841 13.022964 3.8047137
-102.18787 12.984207 2.1472325
-102.18429 13.000051 1.6743422
-102.18423 13.008744 1.4376695
-101.8684 11.93812 19.278778
-101.89903 11.858848 19.296421
-101.867 11.389095 19.261101
-101.82175 11.394515 18.592798
-101.90891 11.315691 19.29402
-101.81667 11.302924 18.593435
-101.81048 11.211307 18.594522
-101.85655 11.119726 19.268587
-101.80367 11.122445 18.595291
-101.7813 10.618074 18.60673
-102.02941 10.431895 8.4477921
-102.02055 10.46048 7.474256
-102.02241 10.469072 7.2337933
-102.00378 10.47 6.9901819
-102.01082 10.480479 6.7521753
-102.03748 10.506098 6.2796559
-102.00026 10.323582 9.4337664
-102.00961 10.33508 9.1883545
-101.98955 10.335691 8.9360199
-102.00377 10.348925 8.6938524
-101.99766 10.354616 8.4473867
-102.01691 10.369659 8.2079535
-101.99745 10.370347 7.9602823
-102.01262 10.383835 7.7213316
-101.99818 10.386316 7.4767699
-102.0001 10.394839 7.2364774
-102.01846 10.409452 6.9999595
-101.99788 10.409568 6.7568426
-102.02153 10.426119 6.5222197
-102.00618 10.428128 6.2815514
-102.00737 10.436279 6.0442181
-102.00658 10.443679 5.8071179
-101.99454 10.446854 5.5690556
-101.99913 10.456226 5.3336921
-102.02973 10.475321 5.1015682
-102.01183 10.476255 4.8642855
-102.00129 10.479929 4.6283698
-102.01681 10.493362 4.3951397
-101.994 10.248361 9.6832876
-101.99646 10.257287 9.4349079
-102.00585 10.268729 9.1894951
-101.97672 10.265972 8.934742
-101.99097 10.279133 8.6926584
-101.97573 10.281409 8.4440308
-102.00416 10.299742 8.2069273
-101.96636 10.293629 7.9551888
-101.96315 10.300236 7.7125144
-101.9855 10.316266 7.4759946
-101.96899 10.31791 7.2321501
-101.97813 10.329013 6.9941564
-101.96678 10.332508 6.7530279
-101.96266 10.338658 6.5139809
-101.96582 10.347486 6.2767768
-101.95772 10.352116 6.0383992
-101.96622 10.362895 5.8030314
-101.96348 10.369479 5.5665278
-101.96809 10.378785 5.3314233
-101.9808 10.421317 4.1593909
-101.98709 10.172577 9.9292707
-102.00076 10.185619 9.6831102
-101.99415 10.191223 9.4320621
-102.00354 10.202641 9.1866484
-101.98349 10.203247 8.9343119
-101.97949 10.209692 8.6874838
-101.99167 10.222037 8.4456758
-101.99264 10.230243 8.2019205
-101.97316 10.230907 7.9544187
-101.97915 10.240899 7.7136474
-101.96468 10.243338 7.4693413
-101.97581 10.255175 7.2311215
-101.97572 10.262855 6.9913096
-101.9736 10.269769 6.7518272
-101.96949 10.27592 6.5126944
-101.97265 10.284739 6.2754035
-101.95526 10.285938 6.035553
-101.95445 10.293252 5.7988834
-101.95169 10.299822 5.5624661
-101.95628 10.309104 5.3274474
-101.99884 10.11937 9.6799297
-101.9922 10.125014 9.4288836
-102.00156 10.136453 9.1834698
-101.99059 10.140442 8.9335499
-101.98658 10.146934 8.6866379
-101.97129 10.149269 8.438014
-101.99053 10.164195 8.1987467
-101.9802 10.168279 7.9533219
-101.97697 10.174931 7.7104778
-101.96247 10.177419 7.4661741
-101.97358 10.189274 7.2279544
-101.9642 10.193587 6.9864125
-101.98057 10.207335 6.7503066
-101.97643 10.213531 6.5110893
-101.96101 10.215547 6.2707677
-101.95286 10.220216 6.032393
-101.97063 10.234426 5.7983236
-101.94923 10.234165 5.5593085
-101.97453 10.022334 10.427898
-101.98821 10.059855 9.4288683
-101.97939 10.064698 9.1784592
-101.97749 10.072021 8.9311228
-102.00089 10.088508 8.6912813
-101.98563 10.090907 8.4424887
-101.97739 10.095823 8.1965771
-101.97623 10.103289 7.9533105
-101.9638 10.106609 7.7084794
-101.97694 10.119239 7.4699688
-101.96038 10.120991 7.2261291
-101.97874 10.135489 6.9898658
-101.96735 10.139079 6.7486548
-101.95393 10.141896 6.5079656
-101.95705 10.150756 6.270762
-101.9675 10.162288 6.0351601
-101.94807 10.162831 5.7957196
-101.94528 10.169463 5.5593047
-101.95918 10.182222 5.3254137
-101.98481 9.9817486 9.9316587
-101.98946 9.9915085 9.6827488
-101.99196 10.000453 9.4342842
-101.9832 10.005289 9.1837893
-101.97225 10.009294 8.9339523
-101.97742 10.019099 8.689455
-101.97132 10.024794 8.4430733
-101.99065 10.039682 8.2037239
-101.96199 10.037116 7.9540629
-101.9588 10.043767 7.7113037
-101.96277 10.052997 7.4708905
-101.96471 10.061465 7.2307687
-101.97389 10.07255 6.9926891
-101.96255 10.076128 6.7514763
-101.95844 10.082324 6.5123439
-101.95234 10.087766 6.2735806
-101.96284 10.09926 6.0379786
-101.95277 10.10321 5.7998362
-101.96867 10.116658 5.565762
-101.95465 10.119128 5.328229
-101.98606 9.9392996 9.4379158
-101.98647 9.9473886 9.1899185
-101.98472 9.954669 8.9424105
-101.98083 9.9611435 8.6954117
-101.9565 9.960187 8.4444513
-101.97587 9.9750051 8.2051878
-101.97484 9.9824152 7.961834
-101.96252 9.9857063 7.7169118
-101.9758 9.9982491 7.4783173
-101.95934 9.99998 7.234385
-101.95933 10.007651 6.9945722
-101.95729 10.014566 6.7550898
-101.95325 10.020728 6.5159554
-101.96578 10.032908 6.2801399
-101.94846 10.034188 6.0401998
-101.93843 10.038104 5.8021412
-101.96371 10.054894 5.5693703
-101.95908 10.060753 5.332963
-101.97744 9.8688116 9.6886063
-101.98003 9.877718 9.4401417
-101.98958 9.8890896 9.1946459
-101.96049 9.8865366 8.9398031
-101.96574 9.8962975 8.6953049
-101.95975 9.9019728 8.4489212
-101.97917 9.9167871 8.2095757
-101.96899 9.9208937 7.9640598
-101.9567 9.9242067 7.7191367
-101.96078 9.9334049 7.4786382
-101.95358 9.9384995 7.2366099
-101.96285 9.9495325 6.9985318
-101.96085 9.9564648 6.7589631
-101.94757 9.9592772 6.5181808
-101.96014 9.9714518 6.2823668
-101.98006 9.9862881 6.0479836
-101.94215 9.9800816 5.8056688
-101.95815 9.9934635 5.5715976
-101.94421 9.9959335 5.3340602
-101.98153 9.8099384 9.6921062
-101.97505 9.8156424 9.4409733
-101.9846 9.8270493 9.1954794
-101.97378 9.8311214 8.9454708
-101.96992 9.837657 8.698473
-101.96394 9.8433924 8.4520054
-101.96503 9.8516331 8.208252
-101.95482 9.8557873 7.9628224
-101.97018 9.8691072 7.7239609
-101.97429 9.8783607 7.4832926
-101.95787 9.880188 7.239274
-101.9579 9.8879175 6.9993773
-101.94663 9.8915443 6.7581611
-101.9519 9.901124 6.5205908
-101.9552 9.9099703 6.283216
-101.9472 9.91471 6.0446649
-101.94653 9.9220839 5.8078237
-101.94389 9.9287271 5.5712337
-101.9673 9.9448137 5.3383055
-101.97181 9.7386456 9.9418058
-101.97659 9.748456 9.6928148
-101.97011 9.7542143 9.4416838
-101.97967 9.7656574 9.1961908
-101.97797 9.7730532 8.9486008
-101.96498 9.7763739 8.6991873
-101.959 9.7821627 8.4527206
-101.95089 9.7871571 8.2068062
-101.96829 9.8012629 7.9676957
-101.97446 9.8113203 7.7266731
-101.96935 9.8173056 7.4840145
-101.96217 9.8225212 7.2418175
-101.97148 9.8336382 7.0035715
-101.96024 9.8373384 6.7621841
-101.95625 9.8436232 6.5228806
-101.95025 9.8491621 6.2839441
-101.94225 9.8539562 6.0453949
-101.94157 9.8613758 5.8085546
-101.93893 9.8680658 5.5719662
-101.95301 9.8807917 5.3379097
-101.97051 9.6876793 9.694313
-101.96404 9.6934814 9.443182
-101.98273 9.7081966 9.2001944
-101.97193 9.7123861 8.9501028
-101.96811 9.7190218 8.703023
-101.96215 9.7248631 8.4564724
-101.96326 9.7331934 8.2126369
-101.98071 9.7473345 7.9733577
-101.98693 9.7574396 7.7321663
-101.95413 9.7535563 7.4836159
-101.94696 9.7588081 7.2415051
-101.947 9.7666187 7.0016112
-101.93574 9.7703505 6.7603965
-101.95963 9.7866783 6.5259566
-101.95364 9.7922659 6.2869349
-101.95498 9.8004637 6.0496902
-101.94501 9.8045721 5.8113742
-101.95173 9.8146725 5.5759182
-101.93781 9.8173151 5.3382959
-101.96176 9.6104107 10.197283
-101.96877 9.6210966 9.9477873
-101.97628 9.6400537 9.4500885
-101.97678 9.6483297 9.2019281
-101.966 9.6525621 8.9518366
-101.96219 9.659234 8.7047567
-101.96543 9.6683769 8.4604568
-101.95737 9.6734734 8.2143726
-101.96564 9.6843462 7.9730172
-101.95339 9.6878843 7.7279258
-101.96678 9.7005377 7.4891701
-101.95039 9.7025356 7.2450662
-101.95046 9.7103863 7.0050874
-101.93923 9.7141676 6.7637868
-101.93525 9.72052 6.5245705
-101.94788 9.7328033 6.2886782
-101.93992 9.7376862 6.0500431
-101.92995 9.7418289 5.8118134
-101.94602 9.7553034 5.5776644
-101.94145 9.7613525 5.3411741
-101.95928 9.5686836 9.6952124
-101.97154 9.5892735 9.2010975
-101.97904 9.6000061 8.9558439
-101.97527 9.6067181 8.7085953
-101.96017 9.6093817 8.4596281
-101.95211 9.614502 8.2135448
-101.96037 9.6253834 7.9721899
-101.98505 9.6420774 7.7350717
-101.95226 9.6383162 7.4864359
-101.95437 9.6469355 7.2460623
-101.95445 9.654809 7.0059981
-101.95251 9.6619387 6.7662625
-101.92995 9.661684 6.5237465
-101.9519 9.6772985 6.2893324
-101.93461 9.6788778 6.0492201
-101.93398 9.6863871 5.8122964
-101.9407 9.6965208 5.5768423
-101.93613 9.70259 5.3403525
-101.9631 9.5127888 9.6955853
-101.96575 9.5218964 9.4469595
-101.97537 9.5334253 9.2013025
-101.96457 9.5377235 8.951129
-101.96075 9.5444479 8.7039661
-101.95481 9.5503817 8.4573336
-101.95593 9.5587845 8.2134151
-101.9642 9.569685 7.9719748
-101.95194 9.5732908 7.7268004
-101.96533 9.5859604 7.4879589
-101.94892 9.5880337 7.243772
-101.95827 9.5992222 7.005444
-101.94703 9.603075 6.7639737
-101.94305 9.6094837 6.5245872
-101.94638 9.6184721 6.287045
-101.94773 9.6267366 6.0497165
-101.92842 9.627614 5.8100114
-101.93513 9.6377592 5.5745578
-101.9399 9.6471949 5.3392005
-101.96146 9.4625235 9.4433556
-101.96935 9.4816532 8.9499435
-101.97792 9.5008974 8.4604769
-101.93302 9.4931364 8.2054949
-101.95044 9.5073061 7.9663024
-101.96584 9.5207481 7.72719
-101.96072 9.5269175 7.4843655
-101.95354 9.5323277 7.242002
-101.95358 9.540267 7.0018544
-101.9516 9.5474663 6.7620354
-101.9569 9.557229 6.5241265
-101.93226 9.5563402 6.2819848
-101.93356 9.5646362 6.044744
-101.93288 9.5722122 5.8077354
-101.93957 9.5823965 5.5721955
-101.93495 9.5885382 5.3356228
-101.95577 9.3931179 9.6862154
-101.9587 9.4107342 9.189436
-101.97524 9.4247742 8.9465971
-101.96218 9.4284077 8.6969404
-101.95614 9.4344645 8.4502277
-101.95718 9.4429741 8.2062273
-101.95613 9.4507208 7.9626274
-101.953 9.4577055 7.71945
-101.96632 9.4704561 7.4805217
-101.94981 9.4726686 7.236258
-101.94049 9.4773884 6.99438
-101.93843 9.4846401 6.7546492
-101.93435 9.4911556 6.5152669
-101.93758 9.5002356 6.2777267
-101.92949 9.5052881 6.0390134
-101.93808 9.5162354 5.8033085
-101.92602 9.5198364 5.5652533
-101.94005 9.5326862 5.3310256
-101.94815 9.3232746 9.9271135
-101.96436 9.3457737 9.432004
-101.96467 9.3542566 9.1837654
-101.94965 9.3656473 8.6864491
-101.9435 9.3717604 8.439826
-101.97208 9.3900032 8.202383
-101.95854 9.4016476 7.7132835
-101.944 9.4046926 7.4685645
-101.9552 9.416749 7.2299252
-101.93652 9.4182749 6.9862366
-101.93436 9.4255877 6.7465086
-101.94883 9.4387331 6.5102439
-101.92401 9.4380093 6.2681193
-101.9345 9.4497166 6.0322661
-101.92433 9.4541111 5.7938776
-101.93088 9.4643974 5.5583382
-101.93547 9.4739809 5.3228965
-101.9621 9.295682 9.1733332
-101.96524 9.31357 8.6806726
-101.96822 9.3229589 8.436121
-101.95988 9.3283663 8.1897993
-101.95866 9.3362236 7.9461188
-101.9461 9.3400869 7.7008786
-101.94997 9.3496656 7.4600472
-101.93324 9.3520021 7.2158842
-101.94231 9.3633509 6.9775534
-101.94007 9.3707132 6.737741
-101.94513 9.3806162 6.4998326
-101.93887 9.3865204 6.260654
-101.9306 9.3916922 6.0218635
-101.91096 9.3928404 5.7821856
-101.92677 9.406455 5.5479393
-101.93127 9.4160738 5.3124971
-101.95825 9.2387819 9.1655064
-101.96415 9.2661047 8.4282951
-101.94652 9.2683258 8.1798258
-101.95444 9.2794123 7.9382968
-101.96032 9.2897587 7.6970205
-101.95489 9.2961321 7.454123
-101.94737 9.3017521 7.2116885
-101.93781 9.3066216 6.969738
-101.93549 9.314002 6.7299271
-101.93116 9.3206511 6.4904671
-101.94349 9.3331175 6.2543058
-101.93515 9.3383207 6.0154319
-101.94352 9.34937 5.7795496
-101.91248 9.3465462 5.5389266
-101.92627 9.3594694 5.3046889
-101.95716 9.2675753 6.7313046
-101.94351 9.2709913 6.490037
-101.9465 9.2801943 6.2522388
-101.95685 9.2919559 6.0160336
-101.93716 9.2931814 5.7760186
-101.92481 9.2969542 5.5378079
-101.92923 9.3065853 5.3022776
-101.9538 9.2778368 4.8334737
-101.96178 9.288681 4.5989475
-101.94901 9.2922306 4.3628793
-101.9437 9.2983837 4.1278586
-101.93645 9.3038425 3.8930464
-101.93668 9.311924 3.6589696
-101.9472 9.2706738 3.424139
-101.95686 9.2900696 2.9565537
-101.94937 9.2954254 2.722517
-101.94748 9.3107443 2.2548573
-101.76036 8.2104549 18.506409
-101.74413 8.1253281 18.51333
-101.74415 8.0918951 18.527538
-101.64294 8.0082254 19.118311
-101.70917 8.0509348 18.523949
-101.64746 7.9820147 19.141863
-101.69796 8.0193968 18.536627
-101.65948 7.9602385 19.169731
-101.67809 7.9870725 18.543013
-101.68899 7.9448686 19.206335
-101.66773 7.9585848 18.552597
-101.72937 7.9304013 19.245411
-101.66013 7.9284916 18.559277
-101.65372 7.8954134 18.564579
-101.72552 7.8653736 19.261398
-101.64773 7.8300261 18.582178
-101.72653 7.8273025 19.305275
-101.69889 7.0816894 18.466013
-101.69313 7.0501108 18.470636
-101.66859 7.0149951 18.466957
-101.66602 6.9885478 18.482748
-101.64649 6.958921 18.488384
-101.64262 6.9363594 18.503345
-101.6229 6.9095612 18.507507
-101.60437 6.8822618 18.510271
-101.61041 6.8623619 18.527773
-101.59262 6.8357368 18.529099
-101.59094 6.8143072 18.541229
