# .PCD v0.7 - Point Cloud Data file format
VERSION 0.7
FIELDS x y z
SIZE 4 4 4
TYPE F F F
COUNT 1 1 1
WIDTH 1560
HEIGHT 1
VIEWPOINT 0 0 0 1 0 0 0
POINTS 1560
DATA ascii
-85.506546 56.389805 6.4079494
-85.489441 56.39827 5.8919935
-85.797768 56.46056 5.9061866
-85.752983 56.405167 4.8698502
-86.111053 56.43314 6.4385843
-86.091072 56.422291 5.9197488
-86.67807 56.34193 5.9428411
-86.982628 56.36858 5.9599905
-87.47139 56.291836 11.743337
-87.381012 56.296944 9.1052952
-87.365067 56.309559 8.5827093
-87.34668 56.307819 8.0594807
-87.330917 56.321148 7.5386834
-87.314407 56.329964 7.0181618
-87.293762 56.31461 6.4964528
-87.277443 56.324226 5.9774408
-87.771042 56.263725 11.760419
-87.757385 56.289818 11.233526
-87.734215 56.2626 10.699737
-87.710258 56.230648 10.167186
-87.684418 56.28949 9.1225843
-87.663361 56.272964 8.5960913
-87.650223 56.300808 8.0755529
-87.631096 56.294735 7.5522957
-87.607719 56.264492 7.0279803
-87.59053 56.268951 6.5076861
-87.990334 56.291428 9.132122
-87.912415 56.359985 6.5205235
-87.880203 56.281597 5.9937782
-88.212616 56.322548 6.5154462
-88.194588 56.322754 5.993681
-88.508141 56.254307 6.5067053
-88.501289 56.313339 5.9888325
-88.827271 56.301548 6.5111189
-88.809113 56.30191 5.9881387
-89.478165 56.034653 17.742743
-89.123024 56.219852 6.5059977
-89.114693 56.269173 5.9863243
-89.792534 56.0448 17.76561
-89.652267 56.103374 13.39448
-89.560844 56.200798 10.198956
-89.530373 56.231758 9.142827
-89.494225 56.23468 8.0873327
-89.435196 56.214611 6.5092916
-89.415054 56.205357 5.9849534
-90.096497 56.006973 17.773121
-90.032486 56.066471 15.575904
-89.998665 56.085812 14.487252
-89.950584 56.037766 13.392966
-89.953011 56.136257 12.872066
-89.935867 56.143585 12.335051
-89.898697 56.144085 11.26335
-89.872482 56.10825 10.724428
-89.857735 56.125797 10.195042
-89.842033 56.138748 9.666069
-89.823334 56.137398 9.1363726
-89.807831 56.150894 8.6095362
-89.787254 56.140373 8.0810499
-89.769882 56.144756 7.55516
-90.404732 55.978359 17.77738
-90.257553 56.089268 12.868145
-90.228661 56.12822 11.799021
-90.215919 56.15517 11.267546
-90.191628 56.129166 10.729208
-90.172707 56.127468 10.196163
-90.150719 56.111431 9.6626139
-90.134102 56.119843 9.1335783
-90.116524 56.12368 8.6050406
-90.093765 56.103497 8.0750303
-90.062279 56.127274 7.0244942
-90.047218 56.142136 6.500423
-90.4599 56.158375 9.139245
-92.895508 56.03336 5.9605813
-93.21077 55.988533 5.9635115
-93.887833 55.813946 17.39481
-93.543495 55.950764 6.5059967
-93.530548 55.971668 5.9750004
-94.198837 55.774242 17.421423
-93.849121 55.9566 5.9902339
-94.514343 55.753777 17.451826
-94.442436 55.843414 14.671748
-94.384918 55.844482 13.015796
-94.368553 55.85416 12.469235
-94.342735 55.83065 11.918613
-94.331924 55.859352 11.378414
-94.317116 55.873924 10.837106
-94.295586 55.864799 10.293643
-94.272766 55.850998 9.7511063
-94.27317 55.918495 9.2200928
-94.245094 55.885921 8.6776714
-94.229355 55.896542 8.1414738
-94.212349 55.902607 7.6056786
-94.177284 55.910713 6.5361986
-94.782608 55.816811 15.249008
-94.766205 55.827114 14.694277
-94.700607 55.800648 13.030421
-94.695404 55.848362 12.490022
-94.675064 55.844093 11.94166
-94.658928 55.854061 11.397304
-94.630409 55.821342 10.847882
-94.611649 55.821918 10.305245
-94.597122 55.836895 9.7658796
-94.581299 55.847282 9.226963
-95.030182 55.859882 12.510989
-94.940773 55.815498 10.319037
-94.930283 55.907902 9.2470608
-94.896317 55.856754 8.7005568
-94.891998 55.905888 8.1666203
-94.877914 55.921879 7.629652
-94.856903 55.914219 7.0913
-94.828957 55.882858 6.5521274
-95.832474 55.718002 17.56529
-96.511711 55.696072 17.597908
-96.840378 55.649189 17.609827
-96.765053 55.729301 14.793412
-96.729019 55.680275 14.222475
-96.685822 55.67009 13.10608
-96.678711 55.709328 12.55883
-96.661011 55.715759 12.007009
-96.635735 55.698666 11.452949
-96.605179 55.725662 10.359139
-96.551498 55.740917 8.7239294
-96.527824 55.788143 7.6426992
-97.182983 55.637699 17.62842
-97.136642 55.622166 16.481644
-97.099365 55.632809 15.351216
-97.092262 55.672573 14.796776
-97.068222 55.66103 14.23302
-97.04332 55.707371 13.125373
-97.023964 55.7094 12.569921
-96.987656 55.659798 12.007393
-97.531372 55.631771 17.653412
-97.512039 55.636093 17.080595
-97.192215 55.762878 7.1023326
-97.168846 55.75174 6.5584941
-97.859512 55.567612 17.67001
-97.862259 55.636524 17.113171
-98.217171 55.584568 17.706329
-98.200958 55.598785 17.13394
-98.18309 55.608009 16.562603
-98.536583 55.489513 17.71484
-98.549675 55.586304 17.163408
-98.887352 55.543568 17.19099
-98.879517 55.580956 16.62455
-99.239105 55.483994 17.795626
-99.198883 55.491207 16.64175
-99.920692 55.421974 17.884432
-99.915627 55.465328 17.314337
-99.881279 55.430958 16.726473
-99.836288 55.480202 15.015343
-100.27915 55.497234 17.371458
-100.22049 55.399845 16.765947
-100.941 55.38599 17.430115
-100.92825 55.40728 16.852743
-101.60857 55.325359 16.9161
-81.331612 56.632114 11.4589
-81.325623 56.639404 11.117167
-81.315742 56.624363 10.771793
-81.308731 56.625484 10.431369
-81.301208 56.623554 10.091557
-81.296577 56.637951 9.7560654
-81.288048 56.629986 9.4173889
-81.28241 56.638428 9.0827456
-81.277969 56.653648 8.7500629
-81.43087 56.61182 11.093182
-81.427719 56.635101 10.756011
-81.418922 56.626457 10.413072
-81.411324 56.62439 10.072835
-81.406639 56.638638 9.736907
-81.396301 56.620834 9.3960619
-81.388893 56.6194 9.0594091
-81.384399 56.634434 8.7264585
-81.674652 56.365368 18.962553
-81.565849 56.60144 12.107662
-81.546906 56.622143 11.076424
-81.538376 56.61644 10.732482
-81.531059 56.617279 10.391294
-81.524956 56.624725 10.052634
-81.516594 56.619484 9.7126198
-81.507729 56.61121 9.3732767
-81.501808 56.619335 9.03794
-81.495384 56.6245 8.7029858
-81.471344 56.612587 7.6993713
-81.464638 56.615772 7.3675194
-81.786438 56.364574 18.963293
-81.663361 56.613998 11.410816
-81.651772 56.592129 11.061483
-81.644882 56.595943 10.719454
-81.639206 56.606335 10.380004
-81.629517 56.594391 10.037187
-81.628044 56.627747 9.7042894
-81.61731 56.609737 9.3627024
-81.60955 56.608086 9.0252848
-81.604782 56.62289 8.6915483
-81.596001 56.615303 8.3550959
-81.586708 56.604748 8.0192518
-81.580414 56.610752 7.6866517
-81.570107 56.594315 7.3519335
-81.568062 56.623837 7.0235567
-81.560257 56.621159 6.6918969
-81.550194 56.605793 6.3596745
-81.535583 56.60564 5.70017
-81.887184 56.361931 18.973192
-81.765244 56.592541 11.407384
-81.759079 56.599438 11.064278
-81.748848 56.584007 10.717582
-81.74514 56.604004 10.379773
-81.737373 56.601692 10.038431
-81.730835 56.60601 9.6995525
-81.723778 56.607323 9.3611736
-81.717964 56.615341 9.0249691
-81.708099 56.600964 8.6860275
-81.701241 56.603046 8.3507881
-81.693878 56.60218 8.0159855
-81.685989 56.598381 7.6816468
-81.679367 56.601421 7.3490119
-81.675774 56.621113 7.0189757
-81.664589 56.598804 6.6847968
-81.658203 56.602959 6.3542233
-81.986427 56.379959 18.987242
-81.887604 56.581207 12.445751
-81.875084 56.591347 11.750967
-81.867996 56.591698 11.404569
-81.858574 56.579319 11.056716
-81.852165 56.583027 10.713906
-81.845215 56.583664 10.371686
-81.837723 56.581245 10.030083
-81.831482 56.585445 9.6909389
-81.824699 56.586643 9.3522959
-81.815613 56.575138 9.0125399
-81.811348 56.589767 8.6781816
-81.804771 56.59174 8.3425903
-81.797676 56.590767 8.0074377
-81.790062 56.586857 7.6727481
-81.7855 56.599545 7.3409715
-81.775063 56.580025 7.0059919
-81.76947 56.586926 6.6748419
-81.756752 56.592117 6.0132332
-82.104805 56.405586 18.976967
-81.997253 56.56628 12.414992
-81.984512 56.575909 11.719696
-81.979095 56.585587 11.375278
-81.969536 56.572971 11.0271
-81.964813 56.586056 10.686009
-81.957741 56.586472 10.343364
-81.950127 56.583828 10.001338
-81.941978 56.578133 9.6599598
-81.936882 56.588764 9.3226938
-81.92765 56.57703 8.982522
-81.921494 56.581707 8.6461735
-81.913002 56.5737 8.3087788
-81.905785 56.57246 7.9733706
-81.898041 56.568279 7.6384287
-81.893387 56.580696 7.3063817
-81.888206 56.590229 6.9745083
-81.882507 56.596882 6.6428332
-81.874481 56.59087 6.3104424
-82.111755 56.575039 11.661322
-82.103882 56.574726 11.314346
-82.091812 56.552086 10.96382
-82.08828 56.574345 10.624596
-82.078735 56.564697 10.279749
-82.072281 56.571259 9.9394445
-82.068924 56.594139 9.6031952
-82.055916 56.565655 9.258605
-82.051476 56.582569 8.9231424
-82.041031 56.567417 8.5833111
-82.035522 56.57843 8.2485723
-82.025833 56.567043 7.9113917
-82.019257 56.572193 7.5773964
-82.012161 56.574429 7.2437253
-82.004532 56.573765 6.9104056
-81.996376 56.570198 6.5774627
-81.989525 56.573528 6.2458463
-82.259903 56.560116 12.27769
-82.25219 56.565556 11.92914
-82.243904 56.567841 11.581247
-82.236885 56.576569 11.236234
-82.225632 56.563 10.887551
-82.217491 56.565517 10.543828
-82.206955 56.555325 10.198771
-82.199547 56.56134 9.8582182
-82.193436 56.574009 9.5199175
-82.184937 56.574017 9.1802807
-82.175888 56.571022 8.8411865
-82.166298 56.565033 8.5026627
-82.158012 56.565788 8.1661549
-82.151039 56.57333 7.8314333
-82.141678 56.568207 7.495769
-82.13179 56.560146 7.1606088
-82.123215 56.558929 6.8270535
-82.117798 56.574371 6.4958563
-82.108162 56.567383 6.1629205
-82.379166 56.55978 11.849299
-82.371941 56.571056 11.503425
-82.362282 56.569645 11.155902
-82.352058 56.565105 10.809102
-82.343132 56.567062 10.465053
-82.335503 56.575588 10.123527
-82.327324 56.581081 9.7824659
-82.316719 56.573887 9.4401579
-82.303696 56.553967 9.0968857
-82.293854 56.550385 8.7576475
-82.287201 56.563232 8.4219542
-82.278137 56.563423 8.0851212
-82.270401 56.5704 7.7500567
-82.256516 56.545216 7.4116292
-82.249565 56.556087 7.0786119
-82.245804 56.583607 6.7478876
-82.232185 56.559395 6.4122095
-82.453735 56.583996 10.063956
-82.445114 56.589046 9.7224703
-82.430283 56.562073 9.3763084
-82.42054 56.561039 9.0361052
-82.414017 56.576401 8.6995611
-82.403168 56.569401 8.3603201
-82.391777 56.559418 8.0216875
-82.38549 56.575661 7.687571
-82.373001 56.559765 7.3499765
-82.363739 56.560429 7.0153117
-82.35582 56.567947 6.6820488
-82.34359 56.553028 6.3471136
-82.523407 56.621922 8.321455
-82.511734 56.611649 7.9819808
-82.505219 56.627598 7.6469846
-82.492432 56.611408 7.3085546
-82.48481 56.621517 6.9741364
-82.472839 56.609203 6.637877
-82.456512 56.574417 6.3003235
-82.449158 56.585583 5.9679456
-82.439346 56.584099 5.6349111
-82.427101 56.569942 5.301507
-82.420006 56.582306 4.9703593
-82.578819 56.611206 6.5950804
-82.564072 56.585888 6.2580657
-82.558365 56.606525 5.9259944
-82.550194 56.614525 5.5931082
-82.537636 56.600071 5.2590342
-82.530273 56.612125 4.9271827
-82.516632 56.591919 4.5938835
-82.506264 56.588459 4.2619376
-82.499168 56.601765 3.9308472
-82.701225 56.635937 6.8886113
-82.682762 56.593739 6.5484662
-82.673424 56.597401 6.2139583
-82.667389 56.617725 5.8813491
-82.651146 56.586273 5.5450068
-82.643997 56.600853 5.212729
-82.632446 56.592987 4.8793182
-82.620338 56.582249 4.5462675
-82.611534 56.588253 4.2143736
-82.60025 56.581604 3.8822443
-82.779495 56.582031 6.4698572
-82.769569 56.585384 6.1348124
-82.759079 56.585846 5.8000293
-82.749977 56.593204 5.4662523
-82.740311 56.597694 5.1326141
-82.730095 56.599316 4.7991409
-82.717369 56.588272 4.4654007
-82.709915 56.603771 4.1331611
-82.698029 56.596813 3.8002481
-82.807289 56.652214 5.8925862
-82.794327 56.642429 5.5567112
-82.7808 56.629742 5.221303
-82.770638 56.633728 4.8876147
-82.759918 56.634846 4.5540957
-82.748634 56.633099 4.2207727
-82.738739 56.63829 3.8880229
-82.728287 56.640625 3.5553448
-82.713364 56.620502 3.2224073
-82.705696 56.636749 2.8903062
-82.693558 56.630535 2.557996
-82.678909 56.611668 2.2259424
-82.922745 56.632446 6.1686044
-82.911766 56.63493 5.833005
-82.902199 56.644283 5.4984479
-82.8881 56.631207 5.1626439
-82.877388 56.634796 4.8285322
-82.866119 56.635513 4.4945946
-82.856255 56.643158 4.1612806
-82.83989 56.618553 3.8270075
-82.828896 56.620476 3.4940825
-82.817329 56.619545 3.1612592
-82.809128 56.635368 2.8287134
-82.794456 56.618935 2.4960079
-82.78315 56.619259 2.163456
-83.020607 56.614059 6.1293421
-83.011269 56.626038 5.7943392
-82.999359 56.625366 5.4586754
-82.988869 56.63158 5.1239853
-82.981789 56.654476 4.7906208
-82.972145 56.664734 4.4565854
-82.95594 56.642757 4.1213393
-82.945145 56.647278 3.7876475
-82.933777 56.648937 3.454035
-82.919853 56.637943 3.1203761
-82.911301 56.653492 2.7872145
-82.896233 56.636784 2.4539289
-82.882576 56.627026 2.1208887
-83.122612 56.603874 6.098351
-83.113129 56.615627 5.7629957
-83.099045 56.604965 5.4262381
-83.088402 56.610939 5.0912867
-83.042542 56.676052 3.4211891
-83.021721 56.689922 2.7530353
-83.002457 56.653374 2.4190495
-82.996574 56.68256 2.0849364
-83.232262 56.613537 6.0591855
-83.220589 56.615238 5.7224736
-83.212395 56.633564 5.3875222
-83.199547 56.629478 5.0512204
-83.138527 56.681477 3.0430965
-83.104118 56.688408 2.0394821
-83.33313 56.594147 6.0160255
-83.325066 56.615093 5.6807003
-83.310257 56.603882 5.3431234
-83.305092 56.638592 5.0092382
-83.441414 56.58527 5.95398
-83.421005 56.613804 5.2818537
-84.021416 56.276215 18.736752
-83.556175 56.596222 5.88445
-83.542328 56.596882 5.5466866
-83.529953 56.604393 5.209908
-84.157501 56.316162 18.702209
-83.666832 56.606098 5.824327
-83.650284 56.596622 5.4853029
-83.639435 56.613483 5.1487775
-84.26741 56.308308 18.686951
-83.766914 56.593834 5.7971473
-83.75219 56.593945 5.45855
-83.736855 56.591141 5.1202521
-84.377457 56.307816 18.704481
-83.86924 56.588322 5.7958574
-83.852211 56.578732 5.456079
-83.843086 56.605209 5.1194406
-84.473366 56.259933 18.708822
-83.982071 56.569099 6.1395278
-83.969818 56.581985 5.8007283
-83.952644 56.572491 5.4605207
-83.943436 56.599045 5.1234531
-84.571587 56.252407 18.721073
-84.062004 56.557499 5.796174
-84.051239 56.577202 5.4579659
-84.037674 56.58427 5.1190443
-84.667831 56.234745 18.731636
-84.501022 56.397408 14.207981
-84.172913 56.548859 6.13592
-84.158379 56.552044 5.7955036
-84.143204 56.552303 5.4553599
-84.136093 56.588596 5.1181698
-84.76239 56.20507 18.743628
-84.595444 56.302338 14.565853
-84.268608 56.542412 6.1410799
-84.25177 56.535965 5.799396
-84.240868 56.555756 5.4604106
-84.362114 56.535889 6.148139
-84.349655 56.548962 5.8076963
-84.334343 56.549389 5.4666023
-84.457253 56.547985 6.165935
-84.44046 56.541779 5.8232031
-84.431892 56.571507 5.4839306
-84.411598 56.549698 5.1411009
-84.541626 56.519234 6.1982126
-84.527275 56.522987 5.8560534
-84.514511 56.533524 5.514924
-84.63398 56.528141 6.2436237
-84.619987 56.532234 5.9008451
-84.603088 56.523674 5.5575614
-84.592262 56.541325 5.2167945
-84.720024 56.508888 6.2760835
-84.710915 56.532604 5.9346733
-84.694374 56.524277 5.5908461
-84.677177 56.512989 5.2474823
-84.815041 56.52866 6.3077388
-84.797173 56.51379 5.9621549
-84.785454 56.525063 5.6195292
-84.773064 56.533409 5.2770171
-84.904045 56.516846 6.3535051
-84.886482 56.502327 6.0074582
-84.875092 56.513935 5.6643963
-84.863029 56.52261 5.3214445
-84.948822 56.500793 5.382349
-86.406952 56.160709 18.737904
-86.306717 56.331272 6.9377103
-86.389534 56.339996 6.6181297
-86.402214 56.423065 6.273941
-86.391556 56.41647 5.9210811
-86.380127 56.406864 5.5686617
-86.487572 56.394485 6.2957187
-86.479584 56.397694 5.9434314
-86.473343 56.407551 5.5921617
-86.582283 56.395786 6.309237
-86.574341 56.399109 5.9564281
-86.56308 56.389786 5.6031275
-86.678658 56.397919 6.3115406
-86.657921 56.353115 5.9540071
-86.656784 56.382355 5.6036377
-86.662506 56.43758 5.2550368
-86.836899 56.24865 10.229316
-86.772346 56.380787 6.308713
-86.764259 56.384151 5.9550376
-86.760521 56.403782 5.6031294
-86.755989 56.420437 5.2511644
-86.869705 56.373299 6.3056698
-86.858971 56.367035 5.9507241
-86.850021 56.367382 5.5969658
-86.860893 56.441841 5.2488036
-86.961967 56.347298 6.2932558
-86.948524 56.331341 5.9372215
-86.952415 56.379753 5.5870237
-86.952919 56.415588 5.2355886
-87.179008 56.316727 10.959702
-87.135826 56.229412 10.209255
-87.059753 56.331284 6.2716112
-87.059105 56.363297 5.9193792
-87.047226 56.353836 5.5639329
-87.252472 56.261951 10.196725
-87.201874 56.395767 6.9676061
-87.168488 56.343761 6.2487178
-87.165001 56.36602 5.895041
-87.147598 56.337181 5.5376215
-87.364113 56.275204 10.180468
-87.295929 56.388428 6.5859413
-87.274544 56.346375 6.224936
-87.262901 56.339661 5.8682914
-87.496468 56.281582 10.895564
-87.472321 56.269382 10.157878
-87.401451 56.38121 6.5590253
-87.374397 56.31982 6.1958451
-87.375725 56.360977 5.8429766
-87.5858 56.282036 10.14108
-87.482941 56.321609 6.1715417
-87.478767 56.343391 5.8165317
-87.468437 56.34296 5.4600277
-87.590721 56.322235 6.155818
-87.583771 56.334312 5.7994862
-87.578682 56.352985 5.4439611
-87.707634 56.339672 6.1524138
-87.687126 56.303768 5.7914381
-87.687408 56.341599 5.4370537
-87.812103 56.298492 6.1438041
-87.805016 56.310528 5.7866015
-87.797089 56.319546 5.429502
-87.937996 56.324272 6.1330662
-88.053261 56.302605 6.1037621
-88.174919 56.289852 6.0709348
-88.166687 56.301601 5.7121778
-88.295395 56.276276 6.0423741
-88.283882 56.278355 5.6824322
-88.293861 56.354019 5.328136
-88.413147 56.262276 6.0236087
-88.406929 56.283436 5.6647453
-88.530632 56.247215 6.0141597
-88.679924 56.302929 6.3798356
-88.651596 56.250774 6.0126548
-88.802834 56.315845 6.3823118
-88.768623 56.244686 6.0127811
-88.756477 56.24675 5.6508594
-88.876198 56.20982 6.0130124
-88.875534 56.250103 5.6538081
-89.246857 56.047684 14.599438
-89.230553 56.039974 14.206719
-89.026123 56.284721 6.3874879
-88.991531 56.213749 6.0171022
-88.982185 56.225456 5.6550574
-89.50441 56.051853 18.64905
-89.175598 56.273876 7.4825492
-89.164131 56.2789 7.1163273
-89.126732 56.241577 6.3812928
-89.094406 56.22039 5.6514916
-89.606766 56.028347 18.654799
-89.270874 56.265018 7.1129451
-89.255562 56.257416 6.7456355
-89.227562 56.208641 6.3752241
-89.22509 56.242401 6.0135217
-89.212868 56.244553 5.6493397
-89.709221 56.012989 18.666637
-89.581017 56.059273 14.635179
-89.408699 56.23642 8.2156153
-89.402115 56.25713 7.8490849
-89.38868 56.255787 7.4803286
-89.380203 56.270298 7.1142354
-89.364883 56.262722 6.7463198
-89.33976 56.223499 6.3762197
-89.325523 56.219193 6.0105186
-89.310356 56.211807 5.6452508
-89.317871 56.277599 5.2856498
-89.821754 56.031979 18.696367
-89.69413 56.08062 14.657473
-89.528084 56.236393 8.5922527
-89.516556 56.241379 8.2221661
-89.501106 56.233757 7.8512568
-89.493607 56.2514 7.4844966
-89.479218 56.246983 7.1157131
-89.466858 56.248936 6.7484488
-89.444641 56.219273 6.378829
-89.424454 56.195984 6.0109591
-89.412239 56.198139 5.646081
-89.422821 56.273453 5.2866893
-89.909172 55.982166 18.693424
-89.796249 56.076305 14.667659
-89.603539 56.230515 7.8522096
-89.596062 56.248177 7.4849272
-89.581657 56.243778 7.1156254
-89.569283 56.245747 6.7478404
-89.538055 56.187607 6.3749781
-89.523788 56.183327 6.0084963
-89.514549 56.194996 5.6439185
-89.999039 55.953033 18.692419
-89.874733 56.010323 14.652989
-89.727341 56.221714 8.5894375
-89.715836 56.226692 8.2183981
-89.683937 56.208267 7.4753218
-89.678528 56.232227 7.1090865
-89.66317 56.224655 6.7398744
-89.637863 56.185471 6.368495
-89.623596 56.181145 6.0014925
-89.620369 56.211777 5.6378536
-89.628166 56.277458 5.2765627
-90.08535 55.92334 18.695049
-89.812485 56.224937 8.2181368
-89.800041 56.226761 7.847013
-89.792648 56.24437 7.4786816
-89.775253 56.230453 7.1072636
-89.77195 56.260807 6.7414951
-89.731552 56.174191 6.3647361
-89.72332 56.188839 5.9989338
-89.708107 56.181404 5.6317587
-89.832848 56.190697 6.3723073
-89.818642 56.186401 6.0041742
-89.803467 56.179012 5.6364756
-89.811516 56.244621 5.2743831
-89.937706 56.225136 6.3937879
-89.905396 56.164051 6.0198622
-89.890335 56.156776 5.6518092
-90.031372 56.230259 6.4245934
-90.002197 56.178925 6.0508432
-89.984253 56.162395 5.6813464
-90.082001 56.146442 6.0800347
-90.070351 56.149105 5.7117476
-90.155266 56.150719 6.0895414
-90.149796 56.172646 5.7220125
-90.146416 56.201004 5.3550792
-90.142677 56.223747 5.9815626
-90.134483 56.236301 5.6128039
-90.225304 56.200588 6.009552
-90.211021 56.194412 5.6389303
-90.338562 56.198006 6.7892609
-90.316284 56.205086 6.0465813
-90.305206 56.208694 5.6761098
-90.731834 55.956028 18.543991
-90.408791 56.219402 6.085609
-90.397888 56.223316 5.7144389
-90.787811 55.880795 18.567327
-90.476212 56.158703 6.1124268
-90.471802 56.181721 5.7428122
-90.466385 56.201668 5.3731198
-90.572937 56.193291 6.1459069
-90.565659 56.207066 5.7746429
-90.551102 56.198807 5.4020743
-90.663696 56.208519 6.1805339
-90.640915 56.175247 5.8046155
-90.629707 56.17667 5.4324794
-90.749222 56.204399 6.2145824
-90.73291 56.190304 5.8397112
-90.715576 56.173065 5.4654503
-90.833633 56.201195 6.2431426
-90.81115 56.168407 5.8661284
-90.80349 56.179737 5.4936557
-90.882416 56.12878 5.8820601
-90.881325 56.1591 5.5108514
-90.891907 56.22419 5.1419415
-90.985329 56.150696 6.2739778
-90.975906 56.15588 5.8995628
-90.971825 56.176846 5.5268507
-91.067871 56.149483 6.2904186
-91.052193 56.135899 5.9138551
-91.045074 56.147499 5.5400715
-91.436577 55.938728 18.517807
-91.138924 56.083771 6.6743612
-91.156471 56.167671 6.3063993
-91.131264 56.125896 5.926693
-91.12426 56.137585 5.5524735
-91.512711 55.925369 18.54019
-91.218109 56.074146 6.6839867
-91.245476 56.186359 6.3183026
-91.217079 56.135262 5.9370794
-91.210159 56.147022 5.5622506
-91.218277 56.202904 5.1907363
-91.581116 55.897152 18.549429
-91.309868 56.140247 6.317791
-91.294388 56.126869 5.9397392
-91.277847 56.110329 5.5622907
-91.295761 56.194511 5.1925201
-91.649963 55.870766 18.55444
-91.460815 56.025394 10.115751
-91.412407 56.170601 6.6986318
-91.401299 56.169811 6.3202114
-91.366463 56.09988 5.9364982
-91.372643 56.14933 5.5638719
-91.374527 56.186279 5.1900206
-91.714401 55.834129 18.56094
-91.534088 56.007633 10.12219
-91.486687 56.152973 6.7019358
-91.47242 56.142776 6.3222656
-91.447342 56.101131 5.9407291
-91.447166 56.131721 5.5661259
-91.455666 56.187527 5.1932011
-91.792397 55.830986 18.584351
-91.617424 56.016808 10.136759
-91.556557 56.152836 6.3307743
-91.534752 56.120689 5.9494395
-91.521645 56.113628 5.5712342
-91.533508 56.178886 5.1986022
-91.871162 55.820908 18.596861
-91.689835 55.989819 10.136918
-91.659584 56.152313 7.0910249
-91.649673 56.154789 6.7108421
-91.625626 56.116455 6.3274326
-91.610298 56.103142 5.9475536
-91.606949 56.124355 5.571178
-91.609055 56.161316 5.1960139
-91.787079 56.029312 10.139977
-91.715584 56.137348 6.3200393
-91.693588 56.105183 5.9378548
-91.686882 56.116917 5.5602307
-91.871284 56.031555 10.13455
-91.809952 56.140099 6.6900954
-91.788887 56.111088 6.3067446
-91.776588 56.107094 5.9267311
-91.763206 56.099937 5.5471478
-91.958618 56.043041 10.132419
-91.903275 56.139835 7.0631046
-91.865219 56.09436 6.2959065
-91.852791 56.090321 5.9155507
-91.849152 56.111359 5.5377703
-92.032234 56.016834 10.127493
-91.991936 56.126747 7.4405656
-91.979378 56.122906 7.0571694
-91.954262 56.115013 6.2928405
-91.931801 56.082775 5.9093952
-91.928062 56.103794 5.531178
-91.93644 56.159367 5.1554008
-92.031532 56.107113 6.2922277
-92.012276 56.084316 5.909153
-92.015099 56.124184 5.5318356
-92.086685 56.066784 5.9097605
-92.086182 56.09726 5.5313835
-92.163391 56.0588 5.9136496
-92.162872 56.089317 5.5348382
-92.171234 56.144943 5.1576614
-92.248734 56.079189 5.9196472
-92.244873 56.100365 5.5394306
-92.246574 56.137218 5.160398
-92.324387 56.070992 5.9276705
-92.320518 56.092243 5.5470214
-92.325577 56.138573 5.1681814
-92.396507 56.053295 5.9381566
-92.389275 56.065258 5.5564513
-92.466476 56.036732 5.9424448
-92.46257 56.058144 5.5611053
-92.481079 56.142193 5.1840816
-92.54599 56.049206 5.9436541
-92.531929 56.04248 5.5595708
-92.618439 56.043335 5.9412551
-92.607666 56.046009 5.5574503
-92.692635 56.047176 5.938767
-92.68515 56.05925 5.555151
-92.758942 56.032803 5.9352975
-92.744591 56.026115 5.549921
-92.831657 56.037445 5.9330053
-92.824028 56.049526 5.5485206
-92.896004 56.02375 5.92804
-92.888321 56.035809 5.5432067
-92.899918 56.10099 5.1621814
-92.970116 56.038383 5.9252357
-92.955528 56.0317 5.5383916
-93.033302 56.024963 5.923553
-93.0186 56.018307 5.536365
-93.433975 55.84082 18.489185
-93.098488 56.020081 5.9320312
-93.090591 56.032261 5.5458107
-93.504707 55.847897 18.521463
-93.16703 56.024307 5.9451084
-93.15229 56.017876 5.5569625
-93.553253 55.794514 18.526461
-93.266739 56.07869 6.3483644
-93.222214 55.991394 5.9517169
-93.217766 56.013126 5.5655079
-93.616859 55.777256 18.540073
-93.286667 55.987068 5.955688
-93.292458 56.036957 5.5711584
-93.678986 55.750469 18.55084
-93.365593 56.02002 5.9634428
-93.350586 56.013859 5.5739126
-93.344765 56.032581 5.1866903
-93.738525 55.72295 18.566069
-93.416893 55.977783 5.9692783
-93.412193 55.999779 5.5817766
-93.486519 55.992142 5.980545
-93.46804 55.976799 5.589612
-93.482979 56.051842 5.2054992
-93.552338 55.99736 5.9917083
-93.53743 55.991436 5.6009545
-93.538666 56.029087 5.2137585
-93.83326 55.848316 14.411887
-93.607925 55.97422 6.0040302
-93.603546 55.996426 5.6151385
-93.61187 56.052868 5.2286696
-93.874962 55.795261 14.424536
-93.723526 56.04575 6.8125644
-93.707756 56.037224 6.4187064
-93.666458 55.960037 6.0198216
-93.662216 55.982334 5.6305842
-93.663757 56.020153 5.2425294
-93.832344 55.996548 8.8016891
-93.803299 56.01989 7.6151505
-93.790047 56.017994 7.2200732
-93.779083 56.022141 6.8264751
-93.763443 56.013699 6.4323502
-93.73616 55.973969 6.036387
-93.721619 55.968327 5.6443992
-93.726791 56.015568 5.2566285
-93.894051 55.992401 8.8125896
-93.866798 55.986599 8.017025
-93.865295 56.015923 7.6247468
-93.852135 56.014084 7.2292333
-93.837769 56.008957 6.8342233
-93.832672 56.028545 6.4424148
-93.794991 55.960873 6.0434308
-93.780533 55.955265 5.6510921
-93.782326 55.993176 5.2623463
-93.959038 55.99736 8.8244467
-93.93541 56.001011 8.0290775
-93.910423 56.000725 7.2368803
-93.896118 55.995651 6.8415213
-93.887604 56.005951 6.4484749
-93.86042 55.966335 6.0516324
-93.842522 55.951439 5.6580539
-93.840904 55.980034 5.2682443
-94.020599 55.992279 8.839282
-94.011215 56.000515 8.4415779
-93.993614 55.986866 8.0418072
-93.985283 55.997761 7.646276
-93.975746 56.005383 7.2510433
-93.968498 56.019051 6.8571167
-93.953049 56.010818 6.4615932
-93.9189 55.952644 6.0626121
-93.908051 55.956512 5.6701159
-93.906509 55.985191 5.2797875
-94.219917 55.878777 14.562175
-94.082047 55.986488 8.8588915
-94.058723 55.990662 8.0617867
-94.039978 55.973824 7.6622744
-94.034019 55.990871 7.2678485
-94.023354 55.99535 6.8725958
-94.004471 55.977913 6.4759135
-93.973869 55.929188 6.0775466
-93.980614 55.979858 5.6883879
-93.968643 55.98064 5.2954702
-94.150307 55.967846 9.2842321
-94.129677 55.979073 8.4853926
-94.111153 55.995575 7.690836
-94.087776 55.966324 7.2903633
-94.073715 55.961655 6.8938642
-94.06897 55.981663 6.5005889
-94.041954 55.942471 6.1024866
-94.038315 55.965313 5.710566
-94.026443 55.966259 5.3172975
-94.43055 55.791363 18.492962
-94.192696 55.981758 8.5155764
-94.178902 55.977974 8.1157322
-94.163872 55.97086 7.716495
-94.161667 55.997616 7.3222017
-94.147713 55.993206 6.9249163
-94.132538 55.9855 6.5281582
-94.102097 55.93721 6.1286964
-94.098564 55.960247 5.7363491
-94.0868 55.961395 5.3426428
-94.489372 55.778904 18.527842
-94.236702 55.962448 8.1387968
-94.235817 55.992672 7.743875
-94.223152 55.991756 7.3456573
-94.202225 55.968922 6.9459476
-94.190636 55.970707 6.5498304
-94.160233 55.9226 6.1499987
-94.160309 55.955139 5.7580438
-94.141571 55.937786 5.3626099
-94.534683 55.733604 18.54302
-94.334557 55.957546 9.3604765
-94.31794 55.979259 8.5602179
-94.30426 55.975853 8.1594162
-94.28582 55.959816 7.7580495
-94.280235 55.977612 7.3618221
-94.252289 55.93631 6.9597669
-94.254837 55.975464 6.567111
-94.231499 55.946159 6.1683884
-94.221039 55.950859 5.7735405
-94.202324 55.93364 5.3776655
-94.395729 55.951614 9.3814726
-94.372139 55.955173 8.5776653
-94.365524 55.970467 8.1791191
-94.343575 55.945324 7.7761426
-94.334496 55.953983 7.3784876
-94.334778 55.987263 6.9841475
-94.31266 55.961441 6.584166
-94.289322 55.932297 6.1850867
-94.275352 55.927818 5.7891536
-94.267235 55.938744 5.3949647
-94.534081 55.779938 13.888862
-94.418861 55.97681 7.8045516
-94.402748 55.96714 7.4039416
-94.392471 55.972736 7.006
-94.377426 55.965736 6.607491
-94.350555 55.92749 6.2070489
-94.343674 55.94186 5.8121624
-94.332047 55.943657 5.4167132
-94.347481 56.016903 5.0261016
-94.463829 55.996418 7.0240502
-94.448776 55.98959 6.6248455
-94.411255 55.923569 6.2212076
-94.400841 55.928749 5.8251457
-94.389198 55.930672 5.4293489
-94.415291 56.032024 5.0401144
-94.543846 55.979088 7.825388
-94.512917 55.996548 6.6282187
-94.478859 55.939903 6.224895
-94.457764 55.917168 5.8259954
-94.446083 55.919117 5.4298525
-94.468636 56.011143 5.0396957
-94.574753 55.964523 7.0214148
-94.543175 55.947617 6.2223516
-94.52198 55.924896 5.822937
-94.645561 55.99091 7.0214286
-94.610222 55.964764 6.2201586
-94.588921 55.942066 5.8201432
-94.562836 55.906738 5.4202628
-94.58886 56.008041 5.0298586
-94.66053 55.935223 6.2136145
-94.635559 55.903194 5.8126945
-94.623604 55.905132 5.4153404
-94.649574 56.006413 5.0244842
-94.696564 55.901958 5.806005
-94.710472 56.005096 5.0169034
-96.71804 55.859055 7.5260711
-96.680733 55.833599 6.6917043
-96.656326 55.806488 6.2747622
-96.625862 55.797508 5.4475389
-96.619812 55.815739 5.0362778
-96.789375 55.854717 7.9488134
-96.780334 55.865589 7.5324421
-96.737595 55.859276 6.2836461
-96.696983 55.791786 5.8637462
-96.67524 55.803814 5.0383873
-96.810707 55.825455 7.101572
-96.810089 55.857101 6.6885448
-96.789421 55.839199 6.2712955
-96.747772 55.802387 5.4397178
-96.738014 55.811283 5.0269389
-97.175827 55.653286 18.344383
-96.892326 55.86964 7.0906696
-96.855492 55.846455 6.2554297
-96.907585 55.816414 6.2357635
-96.884949 55.79501 5.8186078
-96.861877 55.806736 4.9904919
-96.972267 55.823666 6.2225738
-96.926056 55.813816 4.9757566
-97.039856 55.839691 6.218996
-97.001923 55.781284 5.7978816
-96.988945 55.784119 5.3826275
-96.985886 55.811325 4.969285
-97.104134 55.845039 6.22683
-97.062401 55.777485 5.8044772
-97.035072 55.7799 4.9733958
-97.158562 55.831806 6.239697
-97.53138 55.60527 18.412411
-97.216797 55.827347 6.2583518
-97.170265 55.781502 5.4199491
-97.156265 55.781174 5.0035863
-97.588036 55.603592 18.450357
-97.284103 55.84045 6.2826805
-97.216606 55.776211 5.0249529
-97.640068 55.585331 18.475569
-97.336693 55.816792 6.2974749
-97.295509 55.749683 5.8733659
-97.387505 55.75642 6.7186279
-97.377991 55.766567 6.3000855
-97.745911 55.536339 18.497082
-97.806366 55.527931 18.516796
-97.481964 55.745922 5.8910408
-97.741341 55.735764 5.8779383
-97.747856 55.856373 4.6231155
-97.793045 55.733688 5.4586272
-97.812363 55.850784 4.6234961
-97.861649 55.807636 4.625618
-97.791359 55.885021 1.6829681
-97.927734 55.800724 4.632865
-97.933426 55.849705 4.2134151
-97.922371 55.858383 3.7921684
-97.913742 55.872898 3.3711886
-97.903702 55.884014 2.9501362
-97.871765 55.877579 2.1080709
-97.826965 55.804581 1.6883804
-98.0112 55.72757 5.9022312
-97.986908 55.775124 4.6380177
-97.988785 55.814919 4.2179384
-97.9739 55.814415 3.7962327
-97.965279 55.828972 3.3751667
-97.955246 55.840134 2.9540279
-97.936142 55.829422 2.5328014
-97.923302 55.833786 2.1117876
-98.105354 55.784706 5.9085884
-98.046387 55.74947 4.6371098
-98.040573 55.770821 4.2160239
-98.02182 55.761089 3.793947
-98.013184 55.775639 3.3728812
-98.003136 55.786793 2.9517426
-97.991669 55.794552 2.5305636
-97.974968 55.78968 2.1094403
-98.111877 55.7328 4.6298332
-98.087166 55.74435 3.7859759
-98.844742 55.551914 16.886684
-98.925034 55.547504 16.900988
-99.014275 55.553455 16.906965
-99.230309 55.533493 18.340336
-99.182961 55.540485 16.934629
-99.312248 55.522629 18.369087
-99.269112 55.539108 16.964727
-99.259026 55.55402 16.504553
-99.382454 55.487465 18.382627
-99.351135 55.530582 16.986069
-99.345024 55.554462 16.528158
-99.477394 55.496578 18.403301
-99.426949 55.496346 16.990488
-99.424728 55.52906 16.535091
-99.600945 55.500057 16.562525
-99.604965 55.546757 16.112173
-99.744591 55.455219 18.450918
-99.729439 55.535122 17.059507
-99.696327 55.498127 16.579803
-99.692657 55.527336 16.123497
-99.832779 55.434746 18.46479
-99.821793 55.523705 17.074974
-99.784798 55.478077 16.592005
-99.785126 55.516178 16.137957
-99.77597 55.532791 15.679182
-99.91848 55.404728 18.474504
-99.907753 55.493877 17.083681
-99.890335 55.492229 16.614202
-99.863335 55.468903 16.140629
-99.86602 55.511997 15.689475
-99.87101 55.560154 15.241172
-100.01743 55.398827 18.497215
-99.999199 55.471016 17.098946
-99.981827 55.469505 16.629049
-99.962715 55.463913 16.160418
-99.953705 55.480709 15.700883
-99.950905 55.511269 15.247216
-100.10992 55.482079 17.123735
-100.08472 55.463261 16.647556
-100.06171 55.449059 16.175655
-100.04879 55.45718 15.71302
-100.03417 55.461346 15.251393
-100.2319 55.509804 17.150425
-100.19876 55.473755 16.667801
-100.18359 55.477356 16.200512
-100.1548 55.450508 15.726569
-100.15204 55.481327 15.271892
-100.34389 55.492607 17.153717
-100.30647 55.447979 16.667852
-100.30692 55.48682 16.210863
-100.27388 55.451401 15.733588
-100.25499 55.447094 15.268201
-100.25433 55.483013 14.816153
-100.45764 55.474682 17.156532
-100.41589 55.42149 16.667433
-100.4161 55.460449 16.210024
-100.39867 55.460373 15.742715
-100.3795 55.456284 15.276582
-100.37061 55.47472 14.81893
-100.34803 55.462723 14.355016
-100.53779 55.42939 16.682589
-100.54192 55.47731 16.227097
-100.51235 55.451096 15.751187
-100.49303 55.44717 15.284472
-100.47198 55.439251 14.818972
-100.46127 55.453911 14.361734
-100.44486 55.455856 13.903032
-100.8119 55.475101 17.218409
-100.77388 55.431412 16.729996
-100.77019 55.462208 16.267733
-100.73658 55.427643 15.787978
-100.71327 55.415287 15.317581
-100.70033 55.425354 14.855827
-100.69376 55.449203 14.399657
-100.88493 55.377823 17.215036
-100.84692 55.373428 16.26758
-100.75487 55.479343 12.596813
-100.71907 55.476494 11.689534
-100.98509 55.381058 17.316351
-101.16096 55.40659 18.298847
-101.24246 55.388779 17.345501
-101.49789 55.342648 17.850431
-90.82486 56.209602 6.3045001
-96.140587 55.613995 18.124569
-99.426407 55.695774 2.7331662
-101.72011 55.441319 12.198657
-82.245522 56.349842 18.40303
-82.238075 56.363289 18.026072
-82.412407 56.33012 18.786219
-82.405655 56.347294 18.407839
-82.39473 56.342552 18.022997
-82.575035 56.329441 18.39212
-82.755112 56.326477 18.76218
-82.744164 56.325493 18.375309
-82.736191 56.33894 17.997055
-82.826965 56.357647 18.69171
-82.825073 56.401905 18.323557
-82.811363 56.388012 17.933802
-82.911926 56.298187 18.98576
-82.923935 56.408848 18.644188
-82.878525 56.347931 17.468252
-82.870819 56.362675 17.095795
-82.856735 56.34626 16.713949
-82.849594 56.363052 16.346878
-82.837967 56.357872 15.974077
-83.097603 56.32888 18.975843
-83.063042 56.378418 17.45541
-83.053131 56.38393 17.078716
-83.044464 56.395023 16.706484
-83.027359 56.365665 16.321848
-83.013435 56.351074 15.945322
-83.008568 56.379284 15.585941
-82.993301 56.357616 15.211675
-83.262741 56.385532 17.798922
-83.255028 56.40358 17.42421
-83.239464 56.438168 16.680779
-83.227692 56.436344 16.30533
-83.213242 56.421688 15.927772
-83.206024 56.440536 15.564137
-83.196152 56.446693 15.198129
-83.179657 56.421425 14.824058
-83.174423 56.448761 14.468822
-83.160568 56.435314 14.102771
-83.152039 56.446674 13.74608
-83.125069 56.421791 13.024529
-83.114624 56.423309 12.670329
-83.103539 56.421608 12.316909
-83.091835 56.416691 11.964298
-83.485031 56.355732 18.898355
-83.444206 56.393959 17.370153
-83.403915 56.429066 15.878887
-83.396141 56.447594 15.514744
-83.383644 56.444122 15.145196
-83.368439 56.427845 14.773743
-83.356598 56.426773 14.409324
-83.344093 56.422314 14.045868
-83.334984 56.433292 13.688843
-83.323189 56.43158 13.329876
-83.312775 56.436024 12.974349
-83.299683 56.427757 12.617111
-83.287979 56.425716 12.263206
-83.277687 56.429985 11.912411
-83.266754 56.431091 11.56229
-83.253159 56.419498 11.210749
-83.234306 56.434772 10.520177
-83.678055 56.340473 18.833805
-83.485298 56.487968 12.215792
-83.466713 56.511898 11.517262
-83.450233 56.490532 11.16247
-83.433121 56.465946 10.808758
-83.423683 56.476521 10.463894
-83.411545 56.474438 10.117634
-83.387482 56.470711 9.4287786
-83.373489 56.459465 9.0844755
-83.877045 56.343731 18.773752
-83.486153 56.483036 6.9799848
-83.678688 56.490158 7.5995493
-83.666641 56.492283 7.2607298
-83.653984 56.491474 6.9222741
-84.217262 56.331741 18.694174
-83.854424 56.555599 7.5665851
-83.829216 56.49931 7.2199759
-83.814247 56.488503 6.8798947
-84.366982 56.333366 18.285297
-84.353905 56.338524 17.899153
-84.344368 56.358143 17.521248
-84.139053 56.460964 11.322372
-84.102364 56.469486 10.274154
-84.064003 56.524372 8.8994131
-84.010773 56.512085 7.5281181
-83.989792 56.474915 7.1835966
-84.271576 56.467037 10.235765
-84.232216 56.520905 8.8589363
-84.151894 56.450787 7.1384697
-84.731628 56.223686 18.944555
-84.736908 56.307449 18.586315
-84.344452 56.495029 7.4213114
-84.32457 56.466923 7.0770593
-84.915169 56.214211 18.887739
-84.888969 56.300659 17.750044
-84.610092 56.439026 10.11022
-84.499001 56.44442 7.3507328
-84.489822 56.464279 7.0117354
-85.098198 56.225887 18.831818
-85.09819 56.290859 18.465031
-85.083672 56.298309 18.07645
-85.050003 56.229568 17.660433
-84.736801 56.498974 8.66185
-84.679077 56.43914 7.6208773
-84.663139 56.432465 7.2777958
-85.271805 56.284027 18.401136
-85.231949 56.257912 17.610252
-85.214279 56.316696 16.862585
-85.186386 56.334053 16.107893
-85.173561 56.346619 15.735135
-85.157608 56.346497 15.360165
-85.102638 56.315872 14.238851
-85.097649 56.3578 13.884686
-85.087204 56.377872 13.525415
-85.073647 56.385334 13.164127
-85.059341 56.38953 12.803576
-85.037209 56.362209 12.436634
-85.035568 56.416485 12.091713
-85.0065 56.42128 11.380014
-84.988503 56.409424 11.023183
-84.97451 56.413403 10.671191
-84.964523 56.433342 10.323557
-84.951462 56.440697 9.9744263
-84.935326 56.435429 9.6240835
-84.861526 56.493816 7.5565314
-84.831039 56.428768 7.2058425
-84.814041 56.418617 6.8628097
-85.461983 56.257717 18.746292
-85.404144 56.232353 17.561003
-85.390373 56.308701 16.819546
-85.348251 56.337811 15.690881
-85.27523 56.305992 14.193069
-85.265121 56.328976 13.833025
-85.251862 56.339367 13.470868
-85.235451 56.337109 13.10688
-85.215881 56.322144 12.741348
-85.197945 56.313255 12.379298
-85.186424 56.329399 12.025082
-85.171776 56.332939 11.669159
-85.137856 56.321014 10.957394
-85.646591 56.246304 18.710083
-85.636154 56.274502 18.326763
-85.620102 56.281036 17.937006
-85.591232 56.238583 17.530762
-85.587769 56.291977 17.164366
-85.571526 56.296482 16.781397
-85.522552 56.306705 15.645326
-85.500565 56.287651 15.263688
-85.453835 56.301918 14.155026
-85.43586 56.296776 13.786391
-85.417107 56.28825 13.418776
-85.407249 56.313824 13.062321
-85.384514 56.289276 12.69406
-85.373131 56.308403 12.338875
-85.353714 56.296082 11.977338
-85.825912 56.208851 18.656698
-85.817276 56.245708 18.276878
-85.802948 56.260975 17.890491
-85.771683 56.280487 17.120678
-85.754761 56.284771 16.737324
-85.73941 56.294567 16.358316
-85.715919 56.273319 15.970719
-85.701324 56.285133 15.597001
-85.676147 56.256618 15.212079
-85.627426 56.270042 14.102741
-85.611214 56.273941 13.736575
-85.594208 56.274502 13.371265
-85.583778 56.299831 13.01438
-85.562759 56.284443 12.648196
-85.500435 56.303268 11.220026
-86.010254 56.216171 18.625395
-85.986542 56.267918 17.858023
-85.96846 56.270275 17.46855
-85.821358 56.330769 14.081211
-85.807205 56.34391 13.716639
-85.787285 56.335087 13.34759
-85.766556 56.322891 12.9796
-85.750008 56.326096 12.617529
-85.725212 56.29784 12.249252
-85.707092 56.294483 11.889033
-85.685715 56.278458 11.527501
-86.156509 56.248924 17.840757
-86.140625 56.260254 17.454378
-85.86869 56.389923 11.175552
-85.850464 56.386547 10.818345
-85.821373 56.342052 10.454325
-85.809181 56.360813 10.104447
-85.796219 56.376537 9.75488
-85.779976 56.379688 9.4040127
-85.757935 56.36068 9.05058
-85.737663 56.348133 8.6995239
-85.702438 56.342632 8.0036173
-86.305504 56.217236 17.469572
-86.037247 56.379139 11.191488
-85.976883 56.350819 10.118626
-85.883842 56.391521 8.0220098
-85.866104 56.389339 7.6743789
-86.149071 56.345295 10.152776
-86.096359 56.41156 8.7545366
-86.010643 56.352917 7.352602
-86.321075 56.369442 10.193017
-86.175308 56.351219 7.3818488
-86.155876 56.343693 7.034122
-86.517189 56.314972 11.294601
-86.459724 56.299286 10.218624
-86.411415 56.377312 8.8177471
-86.61911 56.294785 10.254045
-86.574425 56.383492 8.8519068
-88.219902 56.031494 18.634962
-88.2201 56.085278 18.253836
-88.186241 56.083889 17.454962
-88.186157 56.135986 17.079067
-88.346992 56.042545 18.716368
-88.336754 56.061275 18.320028
-88.32827 56.08522 17.928137
-88.304459 56.060772 17.519947
-88.230675 56.124622 15.201021
-88.207474 56.14827 14.444963
-88.173927 56.186039 13.324473
-88.146683 56.194649 12.581066
-88.137428 56.21262 12.215041
-88.118492 56.19944 11.842992
-88.465317 56.019302 18.777596
-88.458626 56.047329 18.384275
-88.442253 56.044968 17.98119
-88.421898 56.02985 17.575977
-88.364754 56.182808 14.897885
-88.3274 56.204586 13.763803
-88.29277 56.233089 12.646839
-88.268715 56.248093 11.908693
-88.249374 56.23209 11.536438
-88.220871 56.276955 10.448122
-88.185936 56.210495 10.072227
-88.161835 56.178322 9.7048454
-88.588142 56.048931 18.458647
-88.572342 56.04715 18.054724
-88.493713 56.170925 14.959071
-88.455025 56.18483 13.820332
-88.363121 56.205124 11.219501
-88.321434 56.203968 10.124384
-88.292221 56.284264 8.693182
-88.712273 56.032879 18.524876
-88.702789 56.049412 18.127344
-88.579468 56.156055 13.873303
-88.543236 56.215298 12.387042
-88.534676 56.231255 12.01919
-88.51918 56.225399 11.647617
-88.505676 56.225605 11.27894
-88.453369 56.18824 10.173878
-88.423065 56.260414 8.7388563
-88.37178 56.223419 7.6582756
-88.834953 56.020878 18.581879
-88.826057 56.037807 18.183689
-88.699776 56.120949 13.914362
-88.662605 56.171928 12.4241
-88.648506 56.210388 11.690319
-88.635475 56.21088 11.321029
-88.599525 56.221207 10.222965
-88.600662 56.265259 9.866641
-88.527237 56.277439 7.702373
-88.960075 56.013264 18.626553
-88.948807 56.021591 18.224161
-88.946434 56.098457 17.449793
-88.846191 56.162193 13.964078
-88.761299 56.17968 11.346675
-88.717613 56.162285 10.241952
-88.703369 56.273571 8.8078022
-88.666695 56.275658 7.7271171
-89.084389 55.996838 18.665493
-89.079468 56.02317 18.269611
-89.058578 56.00135 17.857208
-89.057289 56.038109 17.47011
-88.969452 56.13023 13.99071
-88.850433 56.150513 10.267782
-88.87088 56.250938 9.9208651
-89.209656 55.972176 18.722206
-89.211121 56.01667 18.332867
-89.202507 56.03096 17.933578
-89.174774 55.988029 17.514948
-89.014221 56.228046 10.329385
-89.007523 56.244621 9.9657507
-89.336388 55.996971 18.405582
-89.328285 56.011833 18.005642
-89.14003 56.226604 10.021941
-89.1091 56.240204 8.9283743
-89.040543 56.174168 7.4729118
-89.451881 55.971245 18.473164
-89.453514 56.013195 18.083118
-89.392014 56.122768 14.951881
-89.363106 56.143581 13.803634
-89.28286 56.148663 11.171778
-89.2808 56.211292 10.44491
-89.256409 56.172592 10.069567
-89.242737 56.233986 8.9825182
-89.226799 56.220142 8.6164522
-89.198196 56.20195 7.8890924
-89.565041 55.949776 18.532011
-89.567421 55.992065 18.141413
-89.505127 56.086239 14.999823
-89.478088 56.107872 13.850281
-89.398857 56.105473 11.213348
-89.367897 56.111378 10.106616
-89.701523 55.971561 18.604433
-89.692284 55.978947 18.19886
-89.672623 55.955914 17.784147
-89.679337 56.009159 17.401148
-89.677055 56.069611 16.623123
-89.660896 56.089062 15.838519
-89.640228 56.061821 15.437356
-89.646355 56.112514 15.063321
-89.611382 56.108086 13.902967
-89.603745 56.118038 13.523186
-89.560387 56.182381 11.276571
-89.52758 56.180294 10.163701
-89.498901 56.220673 8.7029543
-89.444504 56.152702 7.6038074
-89.821983 55.95433 18.252169
-89.811768 55.958408 17.847145
-89.800041 55.991039 17.053669
-89.789291 55.992981 16.655087
-89.774239 55.982292 16.254511
-89.770454 56.003963 15.867305
-89.765526 56.022179 15.480777
-89.717613 56.043552 13.554474
-89.702774 56.032082 13.170465
-89.965088 55.922253 18.706045
-89.956261 55.930542 18.299334
-89.946182 55.935059 17.893738
-89.931679 55.959599 17.095858
-89.924171 55.970882 16.699965
-89.918617 55.987545 16.308113
-89.894547 55.983231 15.518048
-90.102791 55.944855 18.353952
-90.092911 55.949848 17.947456
-90.069405 55.948566 17.137953
-90.065239 55.969151 16.744593
-90.050415 55.959293 16.342676
-90.227333 55.939522 17.989595
-90.207413 55.947849 17.182043
-90.194 55.94199 16.778364
-90.185699 55.95034 16.382164
-90.369247 55.916065 18.431444
-90.362938 55.930546 18.027161
-90.349731 55.957298 17.224848
-90.336479 55.951809 16.820337
-90.321976 55.942612 16.417086
-90.511734 55.90736 18.462404
-90.502274 55.913307 18.054026
-90.482719 55.922806 17.244011
-90.485489 55.962109 16.85507
-90.467758 55.944317 16.447878
-90.455215 55.940716 16.048203
-90.659027 55.897991 18.490498
-90.659103 55.930725 18.091799
-90.621368 55.986923 16.090553
-90.568871 56.028973 13.749093
-90.524994 55.999073 12.589578
-90.516838 56.006817 12.211019
-90.805664 55.8876 18.521091
-90.799271 55.903015 18.114859
-90.744949 56.011372 14.939304
-90.717972 56.031265 13.7743
-90.653931 56.07008 11.110875
-90.643997 56.103348 10.3664
-90.635704 56.11063 9.9938774
-90.600845 56.10429 8.8779793
-90.614967 56.173626 8.5183449
-90.947044 55.870155 18.546379
-90.940643 55.88583 18.139576
-90.892853 56.014111 14.964964
-90.862473 56.025703 13.795168
-90.791443 56.047546 11.123136
-90.781448 56.081097 10.377637
-90.779831 56.107052 10.007953
-90.741386 56.091915 8.8885775
-91.091278 55.864838 18.566839
-91.036957 56.010464 14.979465
-90.999733 56.004391 13.802605
-90.93158 56.036129 11.128949
-90.914742 56.051361 10.37873
-90.919868 56.095875 10.011961
-90.901497 56.136784 8.8992786
-90.888626 56.131802 8.527277
-90.888245 56.16098 8.1608572
-90.873169 56.149799 7.7897625
-91.243019 55.901836 18.185436
-91.242668 55.967262 17.388041
-91.177727 55.988594 14.984351
-91.143387 55.991932 13.80852
-91.084435 56.05204 11.136512
-91.080963 56.104481 10.391611
-91.065598 56.093636 10.013606
-91.016083 56.051155 8.8861475
-91.026474 56.140469 8.1565781
-91.0112 56.129337 7.7849727
-91.39817 55.868767 18.610048
-91.391518 55.88517 18.201124
-91.328041 55.982655 14.998219
-91.30323 56.01384 13.827957
-91.229256 56.038864 11.141739
-91.202957 56.062386 10.013707
-91.540268 55.83535 18.615784
-91.543404 55.878239 18.216759
-91.521782 55.855938 17.794744
-91.542427 55.944534 17.416901
-91.491699 56.01347 15.019681
-91.445755 55.991188 13.831297
-91.383705 56.053909 11.149259
-91.376045 56.097706 10.399697
-91.363579 56.09642 10.022005
-91.684586 55.848652 18.212719
-91.686668 55.92384 17.415287
-91.634659 55.993164 15.015091
-91.594795 55.98917 13.830259
-91.55751 55.99049 12.663715
-91.510429 55.997295 11.131974
-91.493103 56.048866 10.00587
-91.444481 56.016533 8.8747625
-91.841141 55.830246 18.627306
-91.833939 55.847034 18.216667
-91.842697 55.939999 17.42441
-91.721924 55.934032 13.811824
-91.664108 56.014957 11.127695
-91.593628 56.025078 8.8639526
-91.986549 55.827332 18.637609
-91.982712 55.853001 18.229734
-91.95726 55.858089 17.403406
-91.890785 55.995613 13.83169
-91.829079 56.068684 11.136718
-91.785461 56.020668 10.365294
-91.779457 56.037766 9.9895506
-92.112549 55.812695 18.232817
-92.103142 55.894417 17.022676
-92.093872 55.905624 16.617655
-92.086739 55.922104 16.216587
-92.067856 55.908306 15.807573
-92.058067 55.917625 15.408429
-92.039993 55.905506 15.004667
-92.038078 55.9347 14.615518
-92.010399 55.897511 14.20872
-91.996719 55.929813 13.431595
-91.989761 55.945477 13.045142
-91.971008 55.930573 12.652533
-91.972145 55.966885 12.27403
-91.953156 55.984268 11.507516
-91.929466 55.956024 11.118514
-91.936401 56.006989 10.747161
-91.920914 55.999756 10.365146
-91.907768 55.998493 9.9855881
-91.914719 56.049339 9.6160765
-91.89566 56.032536 9.2358913
-91.893181 56.05875 8.8635578
-91.893082 56.091145 8.4925966
-91.877617 56.08342 8.1166878
