# .PCD v0.7 - Point Cloud Data file format
VERSION 0.7
FIELDS x y z
SIZE 4 4 4
TYPE F F F
COUNT 1 1 1
WIDTH 1559
HEIGHT 1
VIEWPOINT 0 0 0 1 0 0 0
POINTS 1559
DATA ascii
-100.54258 37.792133 18.397694
-100.63544 37.874523 18.083723
-100.69096 37.911835 17.716166
-100.72309 37.934387 17.430025
-100.811 38.404434 17.144657
-100.85182 38.653027 16.850641
-100.86817 38.705658 16.474243
-100.86498 38.753269 16.13483
-100.85461 38.755302 15.795419
-100.8498 38.746323 15.478391
-100.85081 38.723228 15.147378
-100.7652 38.292404 13.704774
-100.73074 38.265797 13.448376
-100.7071 38.322136 13.198843
-100.70103 38.473595 12.950514
-100.66254 38.594948 12.626941
-100.6133 38.697815 12.264448
-100.58587 38.759502 11.983942
-100.57504 38.763073 11.781719
-100.56596 38.728424 11.567341
-100.36168 38.012199 9.9884787
-100.58148 38.717541 2.3611772
-100.58573 38.68182 2.2312124
-100.56681 38.669781 2.0770695
-100.18993 36.549274 18.762077
-100.3272 36.943996 18.654604
-100.44818 37.319786 18.515348
-100.55614 37.484406 18.29681
-100.63007 37.558731 17.973063
-100.68623 37.579456 17.616539
-100.72285 37.701916 17.404442
-100.28236 36.775013 14.171836
-100.35862 36.886253 14.016932
-100.76 37.976334 13.608021
-100.73635 37.952351 13.403666
-100.7355 38.003677 13.18827
-100.41509 37.802631 9.9362068
-100.42532 37.780437 9.8065014
-100.60878 38.689701 2.3437829
-100.60885 38.668594 2.2204752
-100.60461 38.653946 2.096132
-100.11181 36.168427 18.823954
-100.21357 36.375378 18.70812
-100.33485 36.750847 18.616558
-100.45286 37.060596 18.460636
-100.54991 37.193714 18.229004
-100.63044 37.249874 17.866913
-100.66543 37.246082 17.55653
-100.71808 37.444092 17.394518
-100.33327 36.673836 14.177077
-100.38026 36.788834 14.022476
-100.58247 37.29142 13.783013
-100.71243 37.609955 13.560629
-100.72547 37.619625 13.34511
-100.74171 37.74696 13.18322
-100.45017 37.516151 9.9677477
-100.47572 37.542027 9.869422
-100.48238 37.528755 9.6674871
-100.533 37.543888 8.9027176
-100.62478 38.631107 2.2137237
-100.11418 35.94532 18.793926
-100.21412 36.205486 18.684063
-100.33564 36.585674 18.58956
-100.45148 36.847023 18.426258
-100.54529 36.929226 18.14542
-100.60179 36.94455 17.764816
-100.63259 36.92178 17.502493
-100.7084 37.242199 17.359648
-100.37923 36.544571 14.213264
-100.41774 36.643513 14.026547
-100.52798 37.00761 13.802549
-100.65172 37.264137 13.544409
-100.69846 37.306988 13.347464
-100.73633 37.469975 13.198063
-100.4976 37.245277 9.9477291
-100.50871 37.284893 9.8116131
-100.52221 37.276627 9.6090479
-100.53655 37.257191 9.0921841
-100.53799 37.386879 8.8829918
-100.10451 35.665325 18.757238
-100.22455 36.018448 18.65836
-100.34017 36.375774 18.542704
-100.44308 36.544949 18.351204
-100.52529 36.604794 18.046755
-100.57343 36.631847 17.69849
-100.61023 36.65464 17.400244
-100.67661 36.93919 17.286463
-100.42105 36.443714 14.234323
-100.44524 36.558624 14.035677
-100.52689 36.834534 13.793699
-100.61104 37.008053 13.573863
-100.65575 37.040718 13.343121
-100.71735 37.197346 13.147578
-100.51054 36.925655 9.9649229
-100.51917 37.049648 9.7830439
-100.53163 37.072674 9.580945
-100.54986 37.067814 9.3326368
-100.54673 37.062111 9.0958691
-100.55394 37.193325 8.9078321
-100.00395 35.226448 18.849913
-100.11719 35.492085 18.732676
-100.22707 35.826096 18.632599
-100.33638 36.154194 18.509623
-100.43356 36.272797 18.290426
-100.50833 36.333927 17.974403
-100.56741 36.345078 17.58707
-100.58276 36.328712 17.271368
-100.58975 36.280315 16.982821
-100.60343 36.200527 16.629337
-100.461 36.384109 14.247899
-100.48694 36.512318 14.029957
-100.52609 36.639019 13.827631
-100.58282 36.757603 13.585958
-100.63274 36.771603 13.296464
-100.69179 36.96386 13.094181
-100.51895 36.642418 10.040413
-100.5242 36.774662 9.7663221
-100.53326 36.800297 9.5330982
-100.53946 36.828892 9.3068533
-100.53097 36.819725 9.0458565
-100.55571 36.997112 8.881485
-100.01897 34.990578 18.832798
-100.1303 35.300354 18.707413
-100.2402 35.650555 18.598566
-100.34034 35.93359 18.464428
-100.44115 36.009228 18.208029
-100.5127 36.063759 17.895342
-100.55138 36.057896 17.471466
-100.56882 36.066017 17.110682
-100.57894 36.042946 16.819721
-100.60397 36.002632 16.477312
-100.59 35.926064 15.276503
-100.52843 36.012047 14.883328
-100.49094 36.129982 14.55145
-100.48774 36.233906 14.274339
-100.49868 36.314148 14.056691
-100.53628 36.371929 13.820301
-100.57085 36.205448 12.666951
-100.52125 36.10701 12.305054
-100.50378 36.091316 12.009333
-100.49101 36.097656 11.693613
-100.48309 36.087978 11.358176
-100.47505 36.102562 11.06369
-100.46957 36.127434 10.685085
-100.48312 36.216324 10.373152
-100.50313 36.36507 10.064048
-100.5113 36.415215 9.7729292
-100.51109 36.450779 9.5077305
-100.50297 36.424004 9.2051468
-100.48988 36.438427 8.9246435
-100.46985 36.341145 8.6059198
-100.43168 36.207672 8.2292109
-100.41454 36.155464 7.8867035
-100.41212 36.157757 7.5767503
-100.40933 36.153214 7.2578635
-100.41528 36.154457 6.9716458
-100.02971 34.734623 18.810869
-100.14235 35.085648 18.685495
-100.25098 35.459003 18.553015
-100.35262 35.655258 18.397026
-100.44543 35.738678 18.139738
-100.51518 35.776455 17.768963
-100.53342 35.750797 17.353136
-100.55269 35.795124 16.978937
-100.56444 35.789917 16.681829
-100.59928 35.836601 16.386049
-100.57094 35.780945 15.219274
-100.53851 35.857891 14.882072
-100.50726 35.940517 14.571114
-100.50729 36.003845 14.262471
-100.52148 36.030533 14.006496
-100.52882 35.913105 12.524096
-100.50968 35.921909 12.236234
-100.49056 35.934307 11.949903
-100.48312 35.942551 11.642129
-100.47966 35.935928 11.318189
-100.47777 35.947468 11.016394
-100.47334 35.94854 10.660446
-100.47849 36.013863 10.361007
-100.47794 36.05267 10.040044
-100.48282 36.085953 9.7317019
-100.47445 36.0826 9.4008808
-100.45958 36.069065 9.1054659
-100.45309 36.07045 8.8100576
-100.44017 36.049103 8.5089235
-100.42811 36.038212 8.1888952
-100.41453 36.014824 7.8492765
-100.41078 36.020988 7.5525122
-100.41276 36.051834 7.2641587
-100.41276 36.047649 6.9820833
-100.42203 36.039764 6.661901
-100.44102 36.058556 6.3696928
-100.48357 36.203873 5.3526955
-100.46665 36.206779 5.0154457
-100.44046 36.219357 4.7380714
-100.40686 36.175007 4.446167
-100.38765 36.136578 4.1432681
-100.37049 36.098961 3.8432233
-100.36515 36.095776 3.5611429
-100.36642 36.121677 3.2777178
-100.36085 36.134514 2.9771397
-100.36195 36.17263 2.6094074
-100.36121 36.19952 2.2811983
-100.36349 36.245228 1.9959157
-99.933449 34.3251 18.885698
-100.03802 34.524281 18.800322
-100.15821 34.886017 18.66223
-100.27133 35.228786 18.510946
-100.35799 35.373329 18.352354
-100.44931 35.422947 18.037687
-100.50736 35.33683 17.186594
-100.53354 35.471691 16.90062
-100.54192 35.522732 16.614023
-100.57033 35.575581 16.270538
-100.54214 35.561157 15.135557
-100.51988 35.588612 14.831594
-100.50915 35.613472 14.520482
-100.5169 35.703583 14.222407
-100.53175 35.704811 13.950184
-100.5071 35.658421 12.466886
-100.48833 35.696968 12.186288
-100.47586 35.711311 11.890184
-100.4711 35.713413 11.575979
-100.47157 35.739468 11.263569
-100.46594 35.73106 10.937942
-100.46537 35.746429 10.633138
-100.45944 35.747631 10.313945
-100.45387 35.742985 9.9949684
-100.45061 35.777466 9.6786118
-100.44231 35.753975 9.3587084
-100.43036 35.748978 9.0407667
-100.42046 35.762016 8.7446041
-100.4142 35.792511 8.4392929
-100.40913 35.804741 8.1225586
-100.40369 35.819176 7.812933
-100.40055 35.871017 7.2120924
-100.40302 35.857914 6.9134345
-100.41276 35.859978 6.6260886
-100.42979 35.845257 6.3426757
-100.42886 35.941925 5.0053
-100.40386 35.969124 4.6956968
-100.38316 35.966549 4.4016242
-100.36289 35.943058 4.1195469
-100.36523 35.954105 3.8375947
-100.36923 35.966301 3.5662241
-100.3738 35.98381 3.2676167
-100.37221 35.996391 2.9716947
-100.37163 36.019665 2.6281469
-100.36473 36.012993 2.3107333
-100.36087 36.026482 2.0272202
-99.944611 34.104839 18.887815
-100.04601 34.354614 18.785555
-100.18005 34.690804 18.627474
-100.28003 34.974304 18.474627
-100.36888 35.07896 18.27198
-100.45271 35.094334 17.925083
-100.51247 35.085732 17.144522
-100.50983 35.153431 16.810638
-100.30849 34.644672 16.139
-100.51716 35.164169 15.713966
-100.53278 35.241093 15.379878
-100.51943 35.265717 15.080456
-100.51109 35.298847 14.784227
-100.51079 35.337227 14.469415
-100.51926 35.338833 14.16466
-100.53461 35.348526 13.830887
-100.50556 35.302471 12.708981
-100.47961 35.313972 12.419297
-100.46178 35.354492 12.132035
-100.44781 35.353802 11.81754
-100.44864 35.390446 11.509107
-100.45229 35.412777 11.19616
-100.44633 35.429344 10.875564
-100.44723 35.46674 10.575932
-100.44356 35.462063 10.264443
-100.43996 35.451675 9.9461365
-100.43401 35.473515 9.6333532
-100.42846 35.505306 9.321908
-100.41229 35.478222 9.0086555
-100.41048 35.515877 8.7153158
-100.40228 35.518822 8.4072218
-100.39937 35.565628 8.1018391
-100.39333 35.582832 7.7922468
-100.39578 35.597965 7.4786949
-100.38817 35.597507 7.1737132
-100.39756 35.623611 6.8702426
-100.41177 35.646404 6.5946832
-100.428 35.658836 6.3252907
-100.44096 35.677921 5.9950213
-100.41838 35.737209 5.0011659
-100.39653 35.773575 4.6854372
-100.37306 35.76469 4.3633895
-100.36315 35.771954 4.1051574
-100.36558 35.784733 3.8447928
-100.37428 35.789818 3.5775473
-100.38017 35.816422 3.2828197
-100.37048 35.835499 2.3187587
-100.3635 35.840179 2.0412073
-99.966293 33.912247 18.893246
-100.08266 34.162331 18.756247
-100.19516 34.5508 18.613382
-100.29767 34.728642 18.428209
-100.38363 34.794109 18.176544
-100.45942 34.815529 17.813934
-100.48781 34.751171 17.373156
-100.50408 34.816402 17.075497
-100.49908 34.87426 16.715351
-100.42583 34.671398 16.188009
-100.50576 34.878708 16.005217
-100.51607 34.930092 15.659402
-100.5168 34.990265 15.354779
-100.52219 35.044842 15.038058
-100.52132 35.085262 14.739384
-100.51543 35.072083 14.409231
-100.52964 35.063805 14.081911
-100.53855 35.064426 13.733821
-100.50545 35.073513 12.677463
-100.47749 35.068443 12.359143
-100.46322 35.104374 12.107229
-100.45594 35.117416 11.781148
-100.45743 35.164047 11.468305
-100.45848 35.15519 11.154255
-100.45552 35.146149 10.844192
-100.45093 35.17915 10.530231
-100.43849 35.214649 10.2393
-100.4338 35.237499 9.9192877
-100.42139 35.201374 9.6024122
-100.41553 35.235996 9.300643
-100.40886 35.250511 8.9878616
-100.40635 35.245079 8.6749926
-100.40535 35.257015 8.3767757
-100.40481 35.283501 8.0776234
-100.39945 35.284325 7.7460046
-100.3952 35.282055 7.4430418
-100.39338 35.304283 7.143147
-100.39291 35.300701 6.8523812
-100.40563 35.366146 6.5816922
-100.42271 35.353359 6.3065233
-100.44048 35.375328 5.9938178
-100.38918 35.480198 4.6708016
-100.36342 35.461376 4.3787565
-100.36279 35.520412 4.100697
-100.3672 35.534855 3.8399644
-100.37974 35.576931 3.5713227
-100.36565 35.6096 2.0235999
-99.939796 33.59351 18.93428
-99.995544 33.738708 18.871574
-100.11339 34.007977 18.735968
-100.21902 34.341305 18.5763
-100.30974 34.473118 18.394182
-100.39868 34.523952 18.073313
-100.47583 34.553364 17.679773
-100.50462 34.572895 17.332199
-100.4959 34.677204 17.034105
-100.50414 34.718952 16.702179
-100.45815 34.652122 16.212746
-100.50781 34.759773 15.957294
-100.51587 34.783794 15.631576
-100.51379 34.845039 15.361918
-100.52638 34.896233 14.984509
-100.53 34.873447 14.661414
-100.55918 34.849072 13.685431
-100.53136 34.824505 12.945824
-100.50722 34.873711 12.630126
-100.47794 34.915413 12.34477
-100.4622 34.939533 12.065545
-100.4548 34.940567 11.742697
-100.4566 34.95871 11.417639
-100.45558 34.964989 11.115121
-100.45133 34.960823 10.802844
-100.44357 34.965759 10.485718
-100.43607 34.951248 10.169034
-100.42905 34.952419 9.871583
-100.4275 34.979309 9.5720415
-100.42185 34.984982 9.2529869
-100.41853 35.003582 8.9421186
-100.41823 35.00724 8.6601515
-100.41904 35.028149 8.3458548
-100.41769 35.047207 8.0376701
-100.41795 35.043797 7.7279224
-100.41352 35.045246 7.4133449
-100.4122 35.073586 7.1252952
-100.41328 35.073803 6.8466983
-100.42715 35.148689 6.5733423
-100.38248 35.194839 4.3902721
-100.38182 35.268551 4.1237731
-100.39025 35.263481 3.8485556
-100.39705 35.392937 3.5751255
-100.38137 35.296597 2.0194142
-99.978134 33.362053 18.905474
-100.14239 33.836414 18.716013
-100.42126 34.289448 17.990572
-100.48855 34.300598 17.56506
-100.51528 34.406143 17.317564
-100.52795 34.608196 17.06694
-100.53741 34.653805 16.752872
-100.5208 34.623348 16.282511
-100.56073 34.818691 14.984793
-100.56247 34.790955 14.63767
-100.52353 34.783775 12.635712
-100.49572 34.842758 12.339579
-100.47215 34.873463 12.047152
-100.46877 34.877331 11.719601
-100.4646 34.87492 11.38609
-100.46789 34.888107 11.079662
-100.46265 34.871117 10.770067
-100.45128 34.804981 10.412856
-100.44904 34.786934 10.11651
-100.44566 34.762012 9.8251791
-100.43903 34.747635 9.5342293
-100.44023 34.750755 9.2233505
-100.4394 34.775307 8.9223413
-100.44955 34.808983 8.6537056
-100.45397 34.834946 8.3365221
-100.45377 34.857399 7.9952612
-100.4377 34.88752 7.3865876
-100.44035 34.89822 7.1067944
-100.53645 34.248856 17.277666
-100.5499 34.749626 12.686298
-100.52068 34.799397 12.375269
-100.4976 34.855438 12.029556
-100.48926 34.850578 11.722209
-100.48752 34.858379 11.394338
-100.49113 34.873486 11.070321
-100.48348 34.829914 10.747423
-100.47411 34.672062 10.337808
-100.4668 34.593376 10.01136
-100.46909 34.560314 9.7441664
-100.46196 34.568108 9.4775066
-100.48286 34.735519 8.6124334
-100.4912 34.754242 8.3093681
-100.48052 34.812603 7.0860329
-100.4899 34.800972 6.7935438
-100.48927 34.802418 6.5162549
-100.45396 34.705791 4.6766033
-100.43964 34.759377 4.4085941
-100.43449 34.824192 4.1219554
-100.48852 34.252598 9.6604605
-100.51634 34.745625 7.08496
-100.51594 34.738953 6.7947044
-100.44907 34.742889 4.4143872
-100.44588 34.793228 4.129148
-99.702118 30.370018 18.676291
-99.777412 30.61183 18.618532
-99.593163 29.98176 18.767488
-99.679764 30.108803 18.636461
-99.76017 30.394728 18.57592
-99.903236 30.758417 18.479811
-99.973534 30.839842 18.34877
-99.609062 29.726046 18.739397
-99.700768 29.909307 18.624546
-99.776123 30.221201 18.535057
-99.876137 30.553671 18.436464
-99.944824 30.56988 18.255543
-100.02363 30.571459 17.988228
-99.624138 29.5341 18.699011
-99.722549 29.710693 18.597677
-99.796448 30.007391 18.508327
-99.863289 30.244066 18.391909
-99.940094 30.309053 18.15464
-100.01017 30.345842 17.901735
-100.09887 30.336147 17.571688
-100.15977 30.375761 17.299261
-99.582535 29.308914 18.763262
-99.631088 29.358736 18.664816
-99.748283 29.535448 18.568441
-99.828728 29.787401 18.47183
-99.897942 29.94865 18.337242
-99.96347 29.986755 18.07688
-100.03061 30.043911 17.784622
-100.07163 29.982981 17.407789
-100.13309 30.16048 17.196426
-100.04203 29.851255 16.900711
-99.564102 29.038219 18.721872
-99.659943 29.173651 18.608097
-99.798157 29.402054 18.51758
-99.871887 29.587994 18.423759
-99.936989 29.644272 18.258585
-100.01425 29.725294 17.985312
-100.09611 29.754807 17.331846
-100.1319 29.968214 17.144833
-100.04014 29.670927 16.890984
-99.851662 29.334253 13.545497
-99.547729 28.783356 18.669563
-99.681877 28.987444 18.558729
-99.827339 29.249552 18.474253
-99.912338 29.384298 18.355623
-99.98278 29.412966 18.162521
-100.08845 29.427814 17.522413
-100.11458 29.519445 17.274996
-100.14739 29.81776 17.149811
-100.06173 29.592363 16.918589
-99.827293 29.175859 13.677398
-99.903015 29.257351 13.541592
-99.909721 29.405384 13.437526
-99.952415 29.499887 13.162765
-99.508804 28.460665 18.615269
-99.680809 28.778576 18.526209
-99.846512 29.084269 18.438463
-99.943336 29.188015 18.270845
-100.01102 29.190269 18.057684
-100.11102 29.195574 17.460732
-100.12943 29.327662 17.257559
-100.16099 29.635435 17.151789
-100.11562 29.581554 16.958
-99.89978 29.083233 13.820957
-99.920181 29.119724 13.693903
-99.964912 29.188213 13.533659
-99.979172 29.264622 13.432914
-99.994293 29.299593 13.285435
-99.992889 29.377913 13.124958
-99.44677 28.110189 18.661448
-99.542633 28.260355 18.563814
-99.698135 28.634008 18.48494
-99.855545 28.888716 18.377974
-99.958443 28.97686 18.194096
-100.03175 28.984367 17.943024
-100.12413 28.935822 17.37752
-100.15205 29.161793 17.24054
-100.15167 29.49733 16.992569
-99.949509 29.060055 13.84088
-99.99073 29.075958 13.681903
-100.015 29.121496 13.548092
-100.03393 29.163385 13.421294
-100.04627 29.200626 13.294238
-100.05022 29.255579 13.141293
-99.485306 27.865559 18.640169
-99.574272 28.023399 18.546167
-99.713882 28.391132 18.425058
-99.863968 28.666512 18.314976
-99.958931 28.697989 18.115326
-100.02795 28.704355 17.849697
-100.08077 28.718336 17.581497
-100.12051 28.730984 17.340555
-100.15649 28.980438 17.236284
-99.987007 28.753904 14.117706
-100.0012 28.920574 13.850527
-100.02271 28.968752 13.699127
-100.04205 29.00263 13.549685
-100.07062 29.019867 13.392838
-100.07824 29.02577 13.2412
-100.09361 29.1171 13.100178
-99.514755 27.591991 18.626808
-99.63607 27.812149 18.521936
-99.735947 28.162237 18.403582
-99.866829 28.363703 18.238167
-99.955956 28.423807 18.02846
-100.01748 28.426048 17.770971
-100.07702 28.441153 17.47323
-100.11873 28.477301 17.231409
-100.15599 28.66692 17.108112
-100.03495 28.538609 14.174435
-100.03992 28.67355 13.927113
-100.04913 28.752581 13.717066
-100.0696 28.780056 13.541175
-100.08556 28.788689 13.350536
-100.09586 28.801834 13.152741
-100.11269 28.884251 12.989416
-99.478355 27.255585 18.747583
-99.555679 27.414898 18.631544
-99.668861 27.643133 18.51354
-99.778053 27.93162 18.367786
-99.87014 28.062836 18.185852
-99.956444 28.13483 17.957167
-100.02118 28.174332 17.690844
-100.05807 28.144703 17.373995
-100.10476 28.183411 17.112011
-100.11755 28.025232 16.052919
-100.10716 28.012482 15.722626
-100.08531 28.012676 15.438375
-100.05864 28.063011 14.848197
-100.04277 28.141003 14.49746
-100.03975 28.2565 14.193864
-100.026 28.197182 12.53929
-100.00036 28.144323 12.24643
-99.978966 28.117592 11.951995
-99.965179 28.12014 11.676115
-99.965538 28.144894 11.409155
-99.940971 28.128351 11.087043
-99.955185 28.156567 10.852873
-99.942413 28.14172 10.579255
-99.942451 28.139362 10.316304
-99.510361 27.06492 18.73657
-99.593269 27.202995 18.622005
-99.717873 27.479971 18.477736
-99.80542 27.697832 18.343241
-99.891815 27.826738 18.147099
-99.960594 27.862547 17.89081
-100.01698 27.894997 17.571741
-100.06004 27.902128 17.265144
-100.09211 27.929251 17.000402
-100.11192 27.881351 15.945573
-100.10226 27.878178 15.645809
-100.0836 27.890305 15.362335
-100.05559 27.934326 14.767618
-100.05356 27.962126 14.469893
-100.04963 28.007637 14.160718
-100.05071 28.050325 13.909546
-100.06352 28.09305 13.624088
-100.06245 28.088625 13.347298
-100.05648 28.086723 13.05358
-100.04127 28.050581 12.749077
-100.02455 28.025366 12.452971
-100.00523 28.002197 12.181049
-99.987976 27.990494 11.916184
-99.978134 28.005283 11.640494
-99.976402 28.031857 11.349302
-99.969231 28.035128 11.072628
-99.968956 28.033386 10.814789
-99.966164 28.041174 10.535995
-99.963631 28.033535 10.276597
-99.95771 28.035439 10.05907
-99.939201 28.02285 9.7703638
-99.919868 28.030422 9.4820318
-99.920822 28.054359 9.1826391
-99.916855 28.059235 8.8548098
-99.924973 28.087721 8.5556412
-99.935951 28.084497 8.2917566
-99.939026 28.077965 8.0826092
-99.939133 28.088209 7.8566957
-99.926537 28.092339 7.5952754
-99.914627 28.088352 7.3280129
-99.902649 28.081858 7.0534849
-99.904068 28.105381 6.7700152
-99.902901 28.112078 6.490931
-99.903923 28.135798 6.2476025
-99.914856 28.187555 5.9846663
-99.923218 28.219847 5.7321491
-99.932327 28.242479 5.5097098
-99.930054 28.255236 5.2618575
-99.924004 28.273581 5.0314231
-99.90596 28.270714 4.8406401
-99.866486 28.244894 4.5962768
-99.802925 28.147898 3.8826659
-99.538841 26.846436 18.706886
-99.630539 27.050697 18.603319
-99.750954 27.293802 18.452736
-99.833183 27.493475 18.309828
-99.90699 27.559275 18.102571
-99.975433 27.619005 17.807032
-100.02282 27.640907 17.473665
-100.06271 27.67948 17.172741
-100.08253 27.689915 16.878904
-100.09842 27.70364 15.859873
-100.08565 27.718161 15.55308
-100.07433 27.746607 15.298152
-100.05791 27.764235 14.700541
-100.04817 27.767841 14.398043
-100.04869 27.812204 14.119563
-100.03237 27.795074 13.838787
-100.04356 27.831842 13.574479
-100.03939 27.825441 13.270721
-100.03083 27.838585 12.970016
-100.02227 27.830809 12.678167
-100.00935 27.847456 12.393092
-100.00227 27.862974 12.139928
-99.989937 27.867903 11.864908
-99.983063 27.867117 11.575932
-99.98069 27.890863 11.29324
-99.970497 27.893997 11.017221
-99.96817 27.890333 10.757382
-99.970711 27.897591 10.492521
-99.967964 27.912363 10.229495
-99.95797 27.888863 9.9798317
-99.942612 27.889935 9.7305498
-99.927505 27.883902 9.4410143
-99.926399 27.888849 9.1262274
-99.924232 27.904547 8.8164053
-99.927727 27.928654 8.5293283
-99.933479 27.941792 8.2801352
-99.941193 27.958549 8.053894
-99.941597 27.972174 7.8228531
-99.929214 27.968019 7.5673409
-99.918724 27.966713 7.3065019
-99.913391 27.968922 7.0327768
-99.909805 27.980295 6.7457137
-99.90834 27.986633 6.4851651
-99.911621 28.018436 6.2247176
-99.915718 28.035591 5.9769912
-99.920937 28.057846 5.7200999
-99.921509 28.075644 5.4681458
-99.916962 28.091278 5.2398891
-99.9077 28.086575 5.0114126
-99.896713 28.095345 4.7930074
-99.86673 28.0924 4.5629463
-99.852928 28.064756 4.3198018
-99.836075 28.03775 4.0836029
-99.816826 28.005476 3.8410003
-99.489288 26.551828 18.778913
-99.564354 26.683445 18.688643
-99.666939 26.868219 18.576199
-99.766548 27.129181 18.453165
-99.846115 27.268181 18.280846
-99.929642 27.355707 18.038454
-99.984566 27.404219 17.738209
-100.01106 27.368 17.367466
-100.04417 27.399321 17.08709
-100.06631 27.427979 16.783783
-100.0752 27.496964 15.798461
-100.06371 27.495514 15.500941
-100.04982 27.528509 15.224696
-100.04125 27.564175 14.617582
-100.03386 27.561789 14.327111
-100.02302 27.565891 14.041471
-100.01656 27.577501 13.769062
-100.01895 27.591352 13.492196
-100.01905 27.604332 13.210898
-100.01324 27.628151 12.918086
-100.00685 27.653206 12.636986
-99.996948 27.658728 12.352026
-99.986702 27.678316 12.068703
-99.983543 27.682627 11.804551
-99.978226 27.687578 11.523949
-99.976662 27.712339 11.257057
-99.967239 27.71562 10.963646
-99.967308 27.725897 10.708256
-99.963417 27.731283 10.43368
-99.959732 27.722157 10.16128
-99.949707 27.720028 9.908144
-99.939377 27.713123 9.6687536
-99.930374 27.700775 9.3890905
-99.923119 27.710451 9.0826998
-99.919365 27.73982 8.80933
-99.923508 27.761381 8.5213633
-99.932465 27.790775 8.2626677
-99.935959 27.808006 8.0307007
-99.933716 27.820726 7.7818394
-99.924118 27.806501 7.5289121
-99.918427 27.808374 7.2608428
-99.912949 27.82568 7.0084076
-99.908073 27.833021 6.7337847
-99.90789 27.845547 6.4747906
-99.90715 27.853395 6.2220912
-99.905342 27.869869 5.9644361
-99.907898 27.896303 5.7072673
-99.904846 27.896547 5.4710464
-99.901634 27.899075 5.2185173
-99.888908 27.901951 4.9774437
-99.884247 27.902475 4.7608724
-99.871948 27.902895 4.5320954
-99.862457 27.885712 4.2984667
-99.849464 27.847689 4.0295634
-99.848572 27.829348 3.8054943
-99.486252 26.352827 18.74707
-99.571869 26.515223 18.674688
-99.687538 26.750481 18.566254
-99.781487 26.947271 18.429619
-99.86216 27.084412 18.252981
-99.931587 27.089359 17.962709
-99.982658 27.158157 17.645956
-100.01154 27.123852 17.275438
-100.03974 27.132917 16.981327
-100.0673 27.175739 16.714787
-100.06468 27.194164 15.714399
-100.06111 27.214294 15.425645
-100.0505 27.248415 15.159031
-100.03896 27.307846 14.584376
-100.01899 27.307438 14.252434
-100.01833 27.331963 13.989045
-100.00627 27.33585 13.722226
-99.998611 27.34712 13.438755
-99.998322 27.356043 13.156523
-99.998703 27.364399 12.870506
-99.990166 27.366571 12.585868
-99.984268 27.395039 12.303414
-99.975792 27.392899 12.034671
-99.977646 27.432663 11.7616
-99.9739 27.433035 11.477054
-99.966827 27.438398 11.198812
-99.959358 27.432783 10.925859
-99.95755 27.458088 10.663585
-99.948021 27.464052 10.379521
-99.948387 27.480352 10.121132
-99.945068 27.494852 9.8759365
-99.931519 27.476616 9.5987968
-99.920776 27.464693 9.3272486
-99.908737 27.468454 9.0536242
-99.905708 27.485352 8.7916794
-99.906647 27.501036 8.508728
-99.911324 27.538076 8.2587919
-99.913826 27.559317 8.0090885
-99.920753 27.600439 7.7581835
-99.911697 27.597345 7.4866199
-99.906303 27.597807 7.242661
-99.90538 27.614922 6.9880919
-99.902771 27.623055 6.7238994
-99.906044 27.657389 6.4748883
-99.906906 27.66704 6.2236004
-99.899643 27.667255 5.9615331
-99.887947 27.649704 5.6988034
-99.89061 27.676878 5.4444642
-99.895164 27.694468 5.2083163
-99.883339 27.690617 4.9612494
-99.884186 27.706867 4.7429543
-99.875351 27.686666 4.5056844
-99.877182 27.697058 4.2691541
-99.878677 27.692438 4.020895
-99.886337 27.664036 3.8011227
-99.491707 26.132845 18.722815
-99.580856 26.311623 18.640873
-99.698341 26.596287 18.544706
-99.785507 26.765947 18.418486
-99.870041 26.844398 18.199823
-99.939049 26.88648 17.91279
-99.982941 26.90251 17.542746
-100.01379 26.902319 17.194918
-100.04517 26.933336 16.931509
-100.06365 26.95475 16.644548
-100.07117 26.98085 16.313389
-100.07214 27.018255 15.670954
-100.06655 27.048723 15.384068
-100.05722 27.055895 15.104286
-100.0327 27.063437 14.509743
-100.01598 27.069408 14.189777
-100.00829 27.081543 13.930928
-99.991066 27.066278 13.657822
-99.994179 27.106209 13.385127
-99.992676 27.107534 13.090199
-99.994186 27.120808 12.811455
-99.988754 27.129599 12.537908
-99.986885 27.159349 12.262409
-99.981598 27.170591 11.981348
-99.975182 27.184381 11.713179
-99.972954 27.187374 11.434987
-99.965134 27.181021 11.159442
-99.963722 27.201973 10.897064
-99.958954 27.216473 10.630244
-99.951454 27.227909 10.359096
-99.941528 27.24383 10.094476
-99.936646 27.250422 9.8296175
-99.928726 27.25115 9.5708666
-99.916512 27.241974 9.2939739
-99.910034 27.245644 9.012064
-99.907745 27.255634 8.7623434
-99.909286 27.27549 8.5053272
-99.908272 27.288082 8.2400446
-99.905937 27.316126 7.9880776
-99.90242 27.330767 7.7285805
-99.900055 27.328442 7.4737058
-99.897636 27.343025 7.2156153
-99.894531 27.369165 6.9570127
-99.894066 27.375488 6.6967759
-99.892113 27.381544 6.4422474
-99.893089 27.399721 6.2067723
-99.888153 27.405441 5.9403238
-99.877327 27.401932 5.6772938
-99.874481 27.414425 5.4447651
-99.876251 27.43721 5.1945438
-99.880516 27.46315 4.9463081
-99.879471 27.472151 4.7230949
-99.874741 27.451668 4.4829607
-99.886124 27.455118 4.2340908
-99.894257 27.451538 3.9902215
-99.491005 25.913168 18.678913
-99.606094 26.152966 18.603212
-99.707344 26.41082 18.508972
-99.794121 26.575693 18.377598
-99.8722 26.645861 18.139051
-99.978195 26.611547 17.424017
-100.02155 26.680538 17.126305
-100.04834 26.725031 16.863417
-100.06657 26.792187 16.584415
-100.07162 26.831148 16.24843
-100.07726 26.892513 15.609752
-100.06951 26.891624 15.299362
-100.06323 26.890556 15.04269
-100.01879 26.842335 14.40171
-100.01532 26.863134 14.12607
-100.00407 26.869913 13.867604
-99.983711 26.831339 13.582808
-99.988159 26.857609 13.30772
-99.988495 26.86496 13.03031
-99.992828 26.903337 12.761893
-99.994614 26.922045 12.485948
-99.991562 26.958344 12.196259
-99.987419 26.966917 11.92681
-99.985054 26.980074 11.644238
-99.976158 26.991705 11.37952
-99.976639 27.017729 11.111548
-99.965141 27.015507 10.846789
-99.957329 26.99597 10.56797
-99.948227 27.008253 10.302379
-99.935844 27.00049 10.030853
-99.92778 27.00226 9.7795725
-99.918022 26.988268 9.5189476
-99.910309 26.975071 9.2265272
-99.909042 26.98868 8.9695978
-99.914009 27.015295 8.7311487
-99.91333 27.039803 8.4653282
-99.912903 27.067553 8.2178965
-99.906776 27.090906 7.9665923
-99.906189 27.105116 7.7000456
-99.906784 27.11174 7.4493055
-99.905495 27.118238 7.1902223
-99.902885 27.138077 6.9429111
-99.90271 27.145304 6.6935263
-99.897095 27.144314 6.4229074
-99.893936 27.14489 6.1843762
-99.88588 27.157949 5.9266691
-99.875221 27.145695 5.6790285
-99.868958 27.150877 5.4344845
-99.872185 27.183447 5.1806483
-99.868851 27.180504 4.934617
-99.87529 27.188992 4.6908741
-99.88485 27.195925 4.4646606
-99.896599 27.221518 4.2292209
-99.426933 25.60549 18.730129
-99.499916 25.74428 18.658178
-99.621094 26.014746 18.567135
-99.718567 26.233334 18.479757
-99.791885 26.338884 18.327213
-99.873573 26.366507 18.044645
-99.981819 26.402754 17.374723
-100.03867 26.55661 17.123653
-100.07859 26.646254 16.869404
-100.09627 26.705265 16.60117
-100.09796 26.766315 16.235468
-100.1055 26.827826 15.606353
-100.0994 26.814907 15.297007
-100.07502 26.795494 14.992497
-100.02415 26.704552 14.351969
-100.01164 26.677984 14.05967
-100.00376 26.667913 13.801726
-99.9935 26.668592 13.54601
-99.99218 26.673815 13.267109
-99.999321 26.692772 13.0029
-100.00229 26.731483 12.73314
-100.00305 26.781189 12.4535
-100.0019 26.833017 12.170019
-99.998161 26.860605 11.86785
-99.991859 26.87126 11.600463
-99.980896 26.863937 11.320656
-99.975533 26.879078 11.0495
-99.962212 26.861555 10.774383
-99.953667 26.839531 10.49519
-99.945313 26.819027 10.226133
-99.935104 26.796196 9.9510517
-99.927902 26.781912 9.7113619
-99.918877 26.78211 9.4624004
-99.911659 26.77302 9.193079
-99.914162 26.793364 8.9419746
-99.915443 26.815151 8.7047129
-99.915337 26.85523 8.4727783
-99.917564 26.917326 8.2097683
-99.913933 26.939449 7.9444079
-99.916557 26.961386 7.6781945
-99.914932 26.97508 7.4211249
-99.909904 26.982733 7.1651373
-99.907623 26.975611 6.9090257
-99.902222 26.979586 6.63555
-99.901146 26.978813 6.3951035
-99.890831 26.96965 6.143971
-99.884415 26.968096 5.8906655
-99.874382 26.950705 5.6307564
-99.86898 26.946775 5.4041176
-99.865662 26.955084 5.1592832
-99.869202 26.964025 4.904336
-99.871696 26.975462 4.6996984
-99.695541 26.809301 1.8425317
-99.436363 25.364418 18.701454
-99.520882 25.538254 18.615225
-99.630974 25.820297 18.526936
-99.719452 26.015709 18.434576
-99.79364 26.093761 18.250538
-99.877983 26.116266 17.945467
-99.987633 26.17576 17.307173
-100.05013 26.437647 17.117834
-100.10421 26.620371 16.911104
-100.12679 26.658823 16.651064
-100.15012 26.728859 16.339212
-100.14204 26.803389 15.637714
-100.13586 26.804235 15.329723
-100.12077 26.769726 15.025892
-100.02957 26.569929 14.268937
-100.01797 26.516512 14.004141
-100.01325 26.530104 13.779662
-100.00217 26.502029 13.505295
-100.01025 26.519468 13.229912
-100.01853 26.594227 12.999539
-100.02893 26.672602 12.757564
-100.02721 26.730265 12.482215
-100.0253 26.791166 12.188211
-100.01969 26.832708 11.893329
-100.01485 26.842834 11.628251
-100.00661 26.851099 11.341768
-99.994843 26.856403 11.055405
-99.984344 26.833351 10.763953
-99.97525 26.804726 10.491562
-99.951317 26.710995 10.168598
-99.944817 26.695826 9.9255238
-99.934433 26.654186 9.6815577
-99.920929 26.622435 9.4164114
-99.92115 26.614792 9.1702662
-99.927757 26.652115 8.9389248
-99.937943 26.69911 8.7173119
-99.941277 26.746778 8.4821587
-99.945702 26.811687 8.2183323
-99.933144 26.855143 7.9501414
-99.927101 26.878462 7.667244
-99.929604 26.896292 7.410964
-99.922844 26.888813 7.1468668
-99.918007 26.873192 6.8863764
-99.912819 26.861774 6.6169467
-99.902641 26.825855 6.3322926
-99.891548 26.777092 6.0854192
-99.879982 26.774855 5.8359561
-99.871948 26.733896 5.6091304
-99.866432 26.743093 5.3872414
-99.860825 26.713463 5.1390576
-99.863068 26.730242 4.9066944
-99.873138 26.777519 4.6893039
-99.890091 26.836691 4.2940836
-99.804352 26.920589 2.6318483
-99.77813 26.889044 2.4690599
-99.754494 26.847593 2.2608409
-99.72551 26.798445 2.062916
-99.383904 25.083933 18.752831
-99.44735 25.177904 18.684479
-99.542267 25.379629 18.588989
-99.643951 25.66354 18.48996
-99.727242 25.786896 18.371214
-99.79895 25.82729 18.163765
-99.879456 25.864374 17.844187
-99.992836 25.978743 17.286819
-100.05822 26.295074 17.123632
-100.17941 26.730286 16.428297
-100.18279 26.801071 15.692566
-100.18092 26.810917 15.426776
-100.16275 26.794882 15.131346
-100.01306 26.319857 14.149285
-100.01138 26.278448 13.908975
-100.00333 26.276871 13.687512
-100.0098 26.290018 13.440043
-100.01079 26.2964 13.193343
-100.02868 26.400499 12.988993
-100.05856 26.63518 12.803699
-100.0712 26.748056 12.565062
-100.06127 26.768463 12.268386
-100.05545 26.824675 11.964694
-100.04468 26.839239 11.672954
-100.04079 26.852171 11.393467
-100.02881 26.847881 11.104584
-100.01505 26.807159 10.795031
-99.99968 26.768761 10.506335
-99.952377 26.587454 10.09594
-99.941399 26.5347 9.8471088
-99.933914 26.487055 9.6047106
-99.92704 26.461309 9.3713741
-99.926018 26.446928 9.1482744
-99.932129 26.476917 8.9237156
-99.970177 26.582394 8.7214746
-99.99424 26.705154 8.4905148
-100.00464 26.74811 8.237236
-100.00409 26.796797 7.968523
-99.991875 26.832817 7.6843181
-99.970581 26.866194 7.4104424
-99.955116 26.873798 7.1532903
-99.956909 26.878305 6.8933311
-99.948341 26.850666 6.6137714
-99.935226 26.817888 6.3478208
-99.911659 26.741991 6.0735388
-99.89344 26.64798 5.8040977
-99.892418 26.643158 5.5828319
-99.883209 26.610132 5.3490272
-99.876457 26.600445 5.117485
-99.877068 26.615477 4.9070244
-99.87896 26.630703 4.7010851
-99.898293 26.749739 4.4955664
-99.907928 26.787563 4.2792387
-99.849922 26.939175 2.850198
-99.825203 26.897074 2.6454113
-99.788269 26.856291 2.4202557
-99.762589 26.816133 2.2464077
-99.386093 24.850895 18.725986
-99.459671 24.97636 18.653309
-99.556503 25.223925 18.56279
-99.651115 25.466192 18.455254
-99.723518 25.563442 18.323164
-99.804329 25.606785 18.071053
-99.885063 25.646112 17.755857
-99.922096 25.623306 17.450783
-99.99308 25.802433 17.283041
-100.06618 26.128214 17.117737
-99.971786 25.962469 14.189191
-99.999886 26.042164 14.032621
-99.998337 26.031267 13.84446
-99.997719 26.016483 13.611211
-100.01016 26.037901 13.374696
-100.01057 26.03355 13.16494
-100.03809 26.177959 12.969442
-99.904083 26.291809 9.9311447
-99.911896 26.285353 9.7289152
-99.913918 26.24556 9.5263577
-99.915642 26.223343 9.3189211
-99.924706 26.230637 9.1176062
-99.929871 26.257246 8.9236689
-99.987541 26.432648 8.7256031
-100.03888 26.713634 8.4991179
-99.89846 26.49217 5.9644794
-99.890472 26.439749 5.7323437
-99.881126 26.376213 5.5162773
-99.876656 26.366446 5.3165069
-99.873466 26.359644 5.124157
-99.87384 26.383577 4.9237809
-99.871033 26.392496 4.7366443
-99.915131 26.652853 4.5071139
-99.938828 26.817406 4.3018122
-99.946587 26.847925 4.0510473
-99.877563 26.916586 2.9284618
-99.840828 26.880854 2.6578007
-99.811127 26.844263 2.4229057
-99.761597 26.717508 2.0546935
-99.385841 24.673254 18.708157
-99.466537 24.814619 18.629244
-99.569473 25.078733 18.537401
-99.651268 25.274763 18.428717
-99.734192 25.369148 18.264458
-99.813652 25.35853 17.973648
-99.889549 25.386951 17.652302
-99.920815 25.388739 17.383177
-99.999535 25.627121 17.28812
-100.0897 26.074181 17.151239
-99.953758 25.632715 14.116438
-99.975372 25.727749 13.981593
-99.984856 25.758127 13.800383
-99.990494 25.759104 13.567442
-100.00953 25.769796 13.335629
-100.02145 25.805428 13.146547
-100.03891 25.975622 12.998005
-99.480011 25.013998 9.8259459
-99.864006 25.925777 9.4568176
-99.886597 25.93717 9.2706604
-99.904724 25.954742 9.096406
-99.912132 25.974627 8.9391909
-99.987396 26.177925 8.7439051
-99.871391 26.163956 5.8405867
-99.877693 26.135405 5.654943
-99.874138 26.144342 5.4680939
-99.867149 26.113708 5.301199
-99.866035 26.121021 5.108758
-99.867958 26.15452 4.9124694
-99.864548 26.166267 4.7537255
-99.947037 26.734148 4.3210864
-99.949188 26.898079 3.4672587
-99.390892 24.46113 18.688364
-99.481796 24.648424 18.603922
-99.575218 24.895311 18.509634
-99.662483 25.064127 18.380123
-99.744438 25.122009 18.172138
-99.819527 25.14617 17.907854
-99.883202 25.163643 17.577526
-99.917068 25.187973 17.348354
-99.995712 25.458229 17.270145
-99.914818 25.331844 14.219668
-99.953583 25.423685 14.10574
-99.969177 25.466047 13.955024
-99.978828 25.489771 13.754552
-99.98687 25.503893 13.51574
-100.00838 25.529016 13.291959
-100.02048 25.554672 13.134671
-100.04442 25.776104 13.016228
-99.518509 24.899815 9.8382988
-99.538345 24.933178 9.7278166
-99.6241 25.096157 9.5847321
-99.810135 25.57337 9.4253387
-99.849228 25.615332 9.2517481
-99.880798 25.635592 9.0909348
-99.909782 25.696417 8.9477663
-100.01137 26.019695 8.7563229
-99.846703 25.788507 5.7374249
-99.867714 25.842283 5.6054316
-99.862236 25.845394 5.4436975
-99.863586 25.859638 5.2830529
-99.860596 25.856415 5.1045361
-99.860687 25.876448 4.9456439
-99.852257 25.854639 4.7959456
-99.313286 24.127836 18.75358
-99.395012 24.241882 18.669523
-99.497803 24.485611 18.581247
-99.596344 24.735493 18.475571
-99.667923 24.828665 18.333866
-99.747864 24.885139 18.11113
-99.820183 24.904661 17.824102
-99.879494 24.911295 17.500429
-99.92009 25.006187 17.316458
-99.996552 25.335005 17.273041
-99.908096 25.051805 14.235044
-99.946152 25.173491 14.084283
-99.961052 25.216122 13.90795
-99.980438 25.257158 13.467421
-99.993034 25.291304 13.254119
-100.00783 25.353989 13.101854
-100.04774 25.571821 13.025845
-99.545448 24.721437 9.9056787
-99.572678 24.801529 9.7502584
-99.646149 24.934887 9.5929279
-99.74781 25.222626 9.4190264
-99.812447 25.322163 9.2442484
-99.852165 25.379732 9.0814152
-99.887077 25.439577 8.9573259
-100.1897 26.585724 7.2276201
-100.11284 26.605852 6.6129823
-99.821732 25.482748 5.7249608
-99.850716 25.561041 5.5725703
-99.85051 25.556641 5.4338813
-99.851357 25.566103 5.267005
-99.85096 25.582235 5.0993805
-99.851669 25.590244 4.9416733
-99.843971 25.548456 4.8017993
-99.317642 23.908802 18.724619
-99.410545 24.070509 18.645636
-99.510681 24.31283 18.559301
-99.608658 24.533216 18.431301
-99.67646 24.607788 18.288633
-99.758881 24.635086 18.025478
-99.823158 24.671812 17.73983
-99.871162 24.630426 17.414099
-99.917114 24.811699 17.267103
-99.990654 25.161097 17.248936
-99.905144 24.775135 14.253223
-99.923874 24.884262 14.068479
-99.942635 24.956999 13.886019
-99.95768 25.00489 13.39173
-99.957748 25.008541 13.192142
-99.984253 25.101257 13.063069
-99.591858 24.631691 9.9174232
-99.597389 24.678881 9.7517128
-99.661354 24.794266 9.5910997
-99.742989 25.030745 9.4088783
-99.790573 25.074583 9.2583246
-99.824883 25.123611 9.0895224
-99.866562 25.20274 8.9475842
-100.18653 25.780062 8.4078627
-100.28469 25.954082 8.1329746
-99.289192 24.263971 6.617619
-99.311958 24.285172 6.4836431
-99.316017 24.319136 6.3559508
-99.754906 25.160952 5.7745848
-99.809174 25.283731 5.5888724
-99.831459 25.331179 5.4145517
-99.835022 25.33415 5.2517014
-99.83049 25.339079 5.0879822
-99.835617 25.364382 4.9209161
-99.824287 25.30364 4.7776194
-99.273232 23.603891 18.786554
-99.329979 23.687063 18.697512
-99.426208 23.891529 18.61092
-99.529106 24.140621 18.516273
-99.615562 24.320366 18.394415
-99.691109 24.379503 18.21994
-99.768593 24.414474 17.954969
-99.828232 24.423798 17.642809
-99.868301 24.404604 17.319557
-99.907555 24.499063 17.130623
-99.892456 24.513256 14.250626
-99.909119 24.662418 14.064508
-99.920097 24.698805 13.334648
-99.914177 24.688847 13.114853
-99.942444 24.827389 12.964753
-99.657959 24.510744 10.161501
-99.66198 24.588537 9.9484091
-99.664665 24.62715 9.767375
-99.682121 24.699297 9.5901775
-99.727394 24.820744 9.4267998
-99.762573 24.846312 9.2603407
-99.795052 24.854044 9.0705318
-99.842926 24.958965 8.902709
-99.330765 24.184584 6.6153526
-99.344391 24.191689 6.4918675
-99.345879 24.212831 6.3571839
-99.403435 24.287195 6.202466
-99.691475 24.902666 5.8226929
-99.756538 25.017962 5.6230912
-99.778198 25.014456 5.4469728
-99.802528 25.065882 5.2416301
-99.807594 25.085611 5.0712519
-99.801674 25.067192 4.8941369
-99.787247 25.003036 4.719923
-99.271576 23.3846 18.761568
-99.339142 23.480509 18.667332
-99.442749 23.706825 18.579384
-99.541733 23.95479 18.483372
-99.623177 24.066536 18.350573
-99.702316 24.14403 18.149158
-99.781387 24.172224 17.85611
-99.860893 24.154835 17.2458
-99.866989 24.184349 14.440691
-99.859489 24.234789 14.204125
-99.853615 24.268021 13.973726
-99.837265 24.286959 13.170579
-99.84362 24.328897 12.950681
-99.814308 24.246756 12.683265
-99.784309 24.183769 12.388167
-99.7705 24.138901 12.103682
-99.753326 24.118183 11.829581
-99.751228 24.12767 11.584362
-99.736313 24.130861 11.288066
-99.733932 24.144653 11.021598
-99.723183 24.201027 10.744824
-99.700294 24.291162 10.45857
-99.687683 24.379524 10.191681
-99.684807 24.47657 9.9755621
-99.690643 24.538807 9.7889719
-99.702698 24.588234 9.600316
-99.720047 24.608126 9.4090643
-99.74482 24.622274 9.2162504
-99.770576 24.596956 8.9989662
-99.79583 24.601242 8.7899818
-99.349815 24.1038 6.6009955
-99.364136 24.109978 6.4838734
-99.366081 24.124836 6.3491898
-99.485374 24.31123 6.156786
-99.642418 24.627363 5.8671398
-99.697517 24.697765 5.6669097
-99.735809 24.767035 5.4642668
-99.764847 24.80588 5.2456255
-99.776031 24.828077 5.0474668
-99.766289 24.796312 4.8473186
-99.754227 24.734966 4.6640329
-99.273788 23.179308 18.739368
-99.350151 23.327919 18.655109
-99.467438 23.574331 18.553923
-99.550987 23.754475 18.449347
-99.631233 23.86109 18.308754
-99.707802 23.88813 18.062073
-99.783203 23.913925 17.759874
-99.816162 23.864227 17.389393
-99.858688 23.93047 17.137119
-99.857216 23.983829 14.410804
-99.834991 23.993364 14.160291
-99.821625 24.017365 13.910088
-99.809731 24.029572 13.669419
-99.808853 24.038359 13.383268
-99.804451 24.045942 13.110661
-99.793465 24.044209 12.821771
-99.782578 24.024714 12.564619
-99.767593 24.012201 12.300515
-99.766068 24.012415 12.056353
-99.75766 24.008602 11.785357
-99.750092 24.008417 11.517251
-99.749367 24.019165 11.259475
-99.74646 24.056229 11.012245
-99.73381 24.088453 10.736325
-99.72187 24.153128 10.456678
-99.708542 24.212536 10.20681
-99.704582 24.273483 9.9742289
-99.699303 24.302042 9.7673407
-99.702721 24.317158 9.553196
-99.71241 24.315395 9.3382397
-99.723366 24.289259 9.1139498
-99.734818 24.271267 8.8575926
-99.732887 24.208174 8.5947752
-99.725182 24.144539 8.3240891
-99.718155 24.118246 8.0868521
-99.697762 24.097515 7.7893128
-99.664986 24.114302 7.5193181
-99.613243 24.116146 7.2538552
-99.494461 24.039808 6.8881855
-99.379738 23.986958 6.6210051
-99.374977 24.006321 6.4720254
-99.391556 24.021084 6.3354702
-99.503693 24.170141 6.1589317
-99.572014 24.293997 5.9495893
-99.63031 24.373892 5.7231965
-99.672485 24.415834 5.489233
-99.699417 24.454142 5.2469764
-99.708633 24.445576 4.9886184
-99.705811 24.438057 4.7627831
-99.70919 24.42247 4.560205
-99.676147 24.290855 4.3286777
-99.665878 24.269829 4.1140757
-99.647926 24.230196 3.8851879
-99.632362 24.21143 3.6284075
-99.617844 24.220663 3.0613244
-99.221588 22.904629 18.786501
-99.294518 22.989277 18.712973
-99.376053 23.150803 18.619928
-99.475708 23.397408 18.522379
-99.561073 23.554981 18.419622
-99.640831 23.615576 18.243881
-99.715851 23.659653 17.985878
-99.808929 23.629416 17.30102
-99.849976 23.692007 17.065351
-99.838234 23.785019 14.349566
-99.812576 23.771441 14.093519
-99.800423 23.798225 13.852618
-99.791817 23.800335 13.598392
-99.783897 23.815313 13.314777
-99.78215 23.825874 13.047231
-99.770462 23.839489 12.768379
-99.767906 23.862211 12.50841
-99.761795 23.851269 12.243866
-99.752388 23.859417 11.996108
-99.749809 23.86376 11.738363
-99.749001 23.886406 11.491417
-99.743187 23.891291 11.227438
-99.74678 23.925781 10.977068
-99.736763 23.939955 10.722561
-99.726227 23.983727 10.444368
-99.72245 24.046089 10.195424
-99.71347 24.048567 9.9775209
-99.709999 24.077782 9.7481613
-99.707222 24.084482 9.5158377
-99.712738 24.054899 9.2572403
-99.71344 24.007374 9.004467
-99.713554 23.997129 8.7697258
-99.710449 23.988657 8.5162678
-99.706032 23.968153 8.2693739
-99.703285 23.956684 8.0357494
-99.694336 23.972095 7.7500405
-99.659149 23.971369 7.4920101
-99.606636 23.975552 7.2055144
-99.536362 23.949831 6.9118633
-99.478645 23.91041 6.6517668
-99.44857 23.912384 6.4719119
-99.473701 23.938295 6.3209333
-99.514374 24.039919 6.1600814
-99.55999 24.10014 5.9541378
-99.592255 24.11677 5.7396932
-99.624588 24.139547 5.4966073
-99.652817 24.149096 5.2058454
-99.667145 24.177662 4.966857
-99.668518 24.158464 4.7281094
-99.665283 24.148985 4.5140944
-99.666855 24.138264 4.3131547
-99.651108 24.115185 4.090529
-99.589172 24.0846 3.0831435
-99.626839 24.148071 2.6290562
-99.648582 24.177681 2.3968263
-99.671585 24.240406 2.1418791
-99.68483 24.290329 1.8868244
-99.225609 22.702953 18.77573
-99.292671 22.797857 18.700436
-99.387642 22.982637 18.603176
-99.48484 23.211159 18.50083
-99.570969 23.343237 18.378256
-99.64566 23.373669 18.17947
-99.720284 23.407871 17.902779
-99.804756 23.423538 17.237118
-99.835693 23.427019 16.966539
-99.821419 23.578545 14.295868
-99.796341 23.579039 14.039381
-99.783028 23.590498 13.795429
-99.770699 23.58853 13.535278
-99.767403 23.601322 13.255513
-99.757225 23.638887 12.713386
-99.753021 23.65757 12.455882
-99.752792 23.676929 12.193732
-99.739616 23.678497 11.92885
-99.736198 23.695135 11.688009
-99.73671 23.708967 11.43843
-99.735626 23.727303 11.190813
-99.732956 23.748692 10.93533
-99.728958 23.756262 10.691924
-99.726051 23.777634 10.445575
-99.717529 23.7924 10.179692
-99.712418 23.814747 9.930768
-99.707146 23.806721 9.6918659
-99.705612 23.816265 9.4548807
-99.707947 23.79825 9.1939201
-99.702431 23.78583 8.9578342
-99.697975 23.780516 8.712306
-99.701408 23.801773 8.4626932
-99.696564 23.808599 8.2282352
-99.692337 23.795099 7.9924521
-99.683006 23.812832 7.7309513
-99.656921 23.831625 7.4658508
-99.614334 23.836491 7.2012005
-99.571709 23.85358 6.934937
-99.543777 23.888111 6.7107263
-99.535286 23.892673 6.5267215
-99.523941 23.888029 6.3267384
-99.543129 23.92429 6.1541533
-99.568939 23.929338 5.9528751
-99.592453 23.92746 5.7234125
-99.620644 23.953678 5.4900503
-99.635818 23.919254 5.1949997
-99.644493 23.93014 4.9485559
-99.647072 23.938023 4.7093635
-99.644798 23.922651 4.4978194
-99.640594 23.923033 4.2762923
-99.613174 23.89526 4.0573955
-99.494995 23.701769 3.1036148
-99.576881 23.916664 2.8593371
-99.5961 23.953775 2.6643958
-99.233543 22.486542 18.740227
-99.302994 22.595987 18.669397
-99.398064 22.814121 18.582296
-99.495247 23.031483 18.468834
-99.578117 23.114483 18.331045
-99.652832 23.160517 18.114672
-99.722946 23.180004 17.786829
-99.756363 23.107891 17.404331
-99.795982 23.167795 17.138969
-99.828255 23.185577 16.892078
-99.805954 23.36297 14.241697
-99.775307 23.352562 13.972309
-99.770966 23.381235 13.741427
-99.753838 23.346848 13.473156
-99.748558 23.356798 13.203171
-99.736977 23.367012 12.650784
-99.73497 23.377264 12.392282
-99.734795 23.428352 12.144327
-99.729919 23.448332 11.895064
-99.721237 23.448256 11.631835
-99.715469 23.457558 11.369736
-99.721237 23.489069 11.139825
-99.71521 23.49733 10.893688
-99.717705 23.521414 10.649202
-99.717552 23.541946 10.409482
-99.717148 23.552158 10.141971
-99.710701 23.561056 9.904541
-99.696587 23.549637 9.6447601
-99.691498 23.547485 9.3903131
-99.691475 23.563459 9.1491232
-99.686607 23.561947 8.9103794
-99.682587 23.560221 8.6661205
-99.681107 23.573307 8.4316454
-99.680054 23.582819 8.1885328
-99.680595 23.597052 7.9540229
-99.674545 23.613848 7.7044735
-99.655464 23.638323 7.4366946
-99.625031 23.649944 7.178896
-99.59317 23.673475 6.9323854
-99.567688 23.707275 6.7103372
-99.558342 23.73653 6.5208607
-99.557938 23.74543 6.3259311
-99.571541 23.742771 6.1397328
-99.589584 23.75535 5.9210615
-99.604843 23.743973 5.6937423
-99.624344 23.713758 5.4348698
-99.633789 23.705225 5.1687016
-99.579979 23.546267 4.8866296
-99.619614 23.668907 4.6811914
-99.627335 23.725857 4.4593372
-99.613846 23.713953 4.2523851
-99.594368 23.699871 4.0303836
-99.50351 23.546526 3.1021268
-99.549019 23.699396 2.8778374
-99.563393 23.738321 2.6790082
-99.159988 22.217428 18.801985
-99.250946 22.293154 18.709995
-99.322472 22.411837 18.642065
-99.422005 22.668579 18.552645
-99.505791 22.828814 18.437555
-99.586761 22.908554 18.275293
-99.659393 22.915096 18.027365
-99.720627 22.932961 17.677498
-99.757538 22.889963 17.309849
-99.794838 22.962172 17.078484
-99.830986 22.988745 16.830908
-99.795631 23.123911 14.173521
-99.769135 23.119928 13.905336
-99.758568 23.124922 13.669109
-99.748672 23.132448 13.410211
-99.746872 23.132452 13.131134
-99.742989 23.115902 12.859089
-99.746269 23.173237 12.614192
-99.738327 23.164629 12.345079
