# .PCD v0.7 - Point Cloud Data file format
VERSION 0.7
FIELDS x y z
SIZE 4 4 4
TYPE F F F
COUNT 1 1 1
WIDTH 1558
HEIGHT 1
VIEWPOINT 0 0 0 1 0 0 0
POINTS 1558
DATA ascii
-90.562813 56.140182 7.7700949
-90.53669 56.148193 7.3985257
-90.518181 56.155724 7.0308523
-90.469238 56.184208 5.5756354
-90.664024 56.147667 7.0401301
-90.819214 56.132748 7.4075503
-90.803268 56.140148 7.0393953
-90.957436 56.125362 7.4025164
-91.49498 55.988213 13.489128
-91.488129 55.995441 13.102949
-91.168777 56.146645 5.5598202
-91.601967 56.003242 12.316547
-91.407951 56.094669 7.7583423
-91.933426 55.964619 13.482114
-91.878479 55.988586 12.299675
-91.886055 55.994812 11.925909
-91.731133 56.11718 5.5059109
-91.876335 56.10944 5.4992747
-92.042892 56.100616 5.4888949
-93.089584 56.005917 7.6331744
-93.233101 55.998299 7.6250868
-93.539993 56.0051 6.3069677
-93.518555 56.012981 5.9283133
-93.519424 56.019581 5.5539393
-93.654594 56.005405 5.9405437
-94.142303 55.846828 13.385954
-94.076958 55.871967 12.16901
-93.851852 55.974201 7.0969315
-93.795631 55.990852 6.3303361
-94.169456 55.873795 11.784294
-94.157211 55.895214 10.615307
-93.905373 55.991417 5.9643002
-94.224701 55.946369 7.5283585
-94.220741 55.95335 7.1474476
-94.20533 55.960983 6.7643232
-94.148819 55.98439 5.6182766
-94.31543 55.954689 6.7833433
-94.262642 55.977905 5.6367168
-94.401405 55.969883 5.6657252
-94.568771 55.939949 6.8417597
-94.512726 55.963428 5.6901054
-94.690392 55.933002 6.8622432
-94.637695 55.956326 5.7092533
-94.956184 55.911289 7.2753787
-94.940796 55.918995 6.8883967
-94.883965 55.942623 5.7307048
-94.895706 55.948742 5.350296
-95.090134 55.903564 7.3023043
-95.078331 55.911079 6.9151416
-95.043968 55.919876 6.524241
-95.213638 55.896305 7.3349667
-95.209145 55.903404 6.9486775
-95.17482 55.91222 6.5568657
-95.136185 55.93486 5.3993683
-95.607361 55.767807 13.372581
-95.311852 55.897438 6.971797
-95.451355 55.882671 7.3785348
-95.376732 55.914345 5.8220034
-95.614777 55.907978 5.4551439
-95.738464 55.900959 5.4737425
-96.518509 55.708027 13.963278
-96.130318 55.879543 5.4858842
-96.311775 55.849121 6.6464152
-96.484398 55.825981 7.423646
-96.458481 55.83445 7.0257311
-96.438782 55.842537 6.6303434
-97.518997 55.771225 7.3553834
-97.503662 55.779175 6.9543281
-97.467491 55.7883 6.5504994
-97.634804 55.764759 7.3666749
-97.627312 55.772266 6.9667096
-97.594971 55.781185 6.5629396
-97.765175 55.757336 7.3875346
-97.753838 55.765076 6.9860206
-97.721474 55.77401 6.5815372
-97.668732 55.805214 4.9848337
-97.90168 55.749615 7.4065528
-97.886406 55.757599 7.0034003
-97.857903 55.766323 6.598804
-97.805115 55.797588 4.99861
-97.933327 55.790497 5.0073915
-98.48217 55.658695 10.758464
-98.429451 55.762409 5.0778055
-98.446373 55.768597 4.6776848
-98.864632 55.621449 11.690913
-98.844177 55.644722 10.442478
-98.544113 55.762989 4.6957197
-98.531555 55.770813 4.2933388
-98.525688 55.778267 3.891422
-98.5103 55.786236 3.4894722
-98.422562 55.819443 1.8865072
-98.642868 55.764606 4.3036828
-98.620888 55.772945 3.9010551
-98.61779 55.780247 3.4991076
-98.597031 55.788506 3.0973222
-98.595139 55.795746 2.6952317
-98.579659 55.803715 2.2936292
-98.720634 55.781681 3.1049654
-98.702553 55.789799 2.7029452
-98.683044 55.797985 2.3013339
-84.601616 56.35614 13.770588
-84.978439 56.288239 16.446785
-84.952835 56.308338 15.392593
-85.600357 56.235115 17.54388
-85.867699 56.239513 16.481461
-86.179367 56.212788 17.037207
-86.783073 56.169697 17.624678
-86.758812 56.190037 16.553003
-87.05442 56.173653 16.575104
-86.971504 56.22612 13.87262
-87.347939 56.157406 16.595663
-87.326248 56.168423 16.041252
-87.311974 56.178757 15.502872
-87.253181 56.219967 13.360781
-97.521057 55.608147 16.533936
-81.479454 56.437057 18.726347
-81.47747 56.443668 18.359917
-81.473969 56.45042 17.990376
-81.589767 56.431313 18.713604
-81.588959 56.437805 18.350496
-81.58313 56.444817 17.973345
-81.708755 56.425064 18.70307
-81.705467 56.431828 18.332193
-81.699425 56.438854 17.954796
-81.81955 56.419136 18.699421
-81.817436 56.425774 18.331867
-81.810127 56.432941 17.950481
-81.918427 56.413754 18.701305
-81.915398 56.420513 18.329834
-81.913132 56.427155 17.962591
-82.013504 56.408577 18.703054
-82.013298 56.415062 18.338554
-82.007774 56.422077 17.960085
-82.129326 56.402584 18.687681
-82.125412 56.409473 18.311708
-82.118561 56.41663 17.929422
-82.262123 56.403149 18.25136
-82.257111 56.410084 17.876024
-82.415047 56.396103 18.182163
-82.401321 56.403893 17.785244
-82.559753 56.383072 18.475231
-82.553452 56.390099 18.098537
-82.542732 56.397541 17.712164
-82.684891 56.377335 18.417084
-82.676834 56.384525 18.036554
-82.661629 56.392395 17.639587
-82.645828 56.40654 16.891161
-82.800598 56.365379 18.737919
-82.802223 56.371609 18.38204
-82.792587 56.378956 17.99754
-82.770508 56.393803 17.228697
-82.763512 56.400764 16.857838
-82.751961 56.408131 16.478081
-82.915291 56.359688 18.708883
-82.912689 56.366348 18.341629
-82.882858 56.388329 17.194611
-82.87149 56.39571 16.813511
-83.005066 56.382118 17.172102
-82.990532 56.389797 16.783796
-82.979706 56.397079 16.406723
-83.061546 56.419731 14.881461
-83.193298 56.357292 17.996698
-83.184708 56.364475 17.618286
-83.164177 56.372776 17.213366
-83.104218 56.421776 14.636328
-83.071266 56.442959 13.54361
-83.041733 56.469612 12.132418
-83.035774 56.476112 11.784506
-83.025024 56.482979 11.430552
-83.302399 56.35928 17.552372
-83.288406 56.36692 17.164684
-83.223251 56.416294 14.582454
-83.187172 56.437702 13.486472
-83.161469 56.464005 12.083482
-83.425018 56.346359 17.906578
-83.408203 56.354301 17.510437
-83.404083 56.360985 17.146544
-83.333626 56.410816 14.554604
-83.302376 56.431805 13.467669
-83.266586 56.458942 12.0482
-83.539597 56.327473 18.621161
-83.542847 56.33353 18.270048
-83.532288 56.340912 17.886486
-83.515289 56.348869 17.490049
-83.439796 56.405483 14.531496
-83.409653 56.426384 13.446106
-83.379799 56.447029 12.374262
-83.365921 56.454182 12.013829
-83.362083 56.460503 11.669342
-83.351799 56.467323 11.31654
-83.65403 56.321671 18.599129
-83.652809 56.328175 18.236559
-83.645111 56.335281 17.859825
-83.626396 56.343399 17.459564
-83.554413 56.399723 14.506654
-83.522362 56.420803 13.416941
-83.493614 56.441376 12.345848
-83.4841 56.448185 11.99146
-83.474136 56.455006 11.637593
-83.457642 56.462315 11.276141
-83.42968 56.482441 10.227933
-83.77771 56.315403 18.575396
-83.776123 56.321934 18.212275
-83.742569 56.337807 17.420563
-83.668304 56.39423 14.469076
-83.638275 56.409023 13.727406
-83.601547 56.436314 12.302236
-83.547028 56.470631 10.535432
-83.537804 56.47731 10.187413
-83.919388 56.308521 18.531204
-83.907837 56.315987 18.145947
-83.894203 56.323612 17.758154
-83.87233 56.331963 17.354385
-83.795959 56.388351 14.411193
-83.761009 56.403507 13.663944
-83.731888 56.430111 12.254272
-84.054337 56.302563 18.455629
-84.048126 56.309486 18.084682
-84.038269 56.316723 17.707083
-84.010666 56.325577 17.292637
-83.900246 56.396854 13.614458
-83.856956 56.424564 12.185573
-84.187904 56.295986 18.41917
-84.176445 56.303394 18.036835
-84.140816 56.319275 17.250902
-84.062111 56.369537 14.659739
-84.021652 56.391224 13.561714
-83.972992 56.419334 12.126666
-83.923874 56.441151 11.047619
-83.910255 56.448162 10.694292
-83.908905 56.454239 10.355989
-84.29496 56.290604 18.396151
-84.245399 56.314095 17.224049
-84.166588 56.364326 14.635084
-84.117279 56.386723 13.523792
-84.070847 56.414616 12.094205
-84.069679 56.420727 11.753592
-84.051941 56.428112 11.391847
-84.005486 56.449585 10.323987
-84.400131 56.284805 18.402164
-84.391518 56.291943 18.026524
-84.379135 56.299397 17.644445
-84.351639 56.308193 17.23274
-84.270302 56.35865 14.638675
-84.220436 56.381092 13.526653
-84.183212 56.408268 12.109369
-84.509995 56.27832 18.432613
-84.496452 56.285923 18.045673
-84.482346 56.293541 17.659721
-84.45462 56.302357 17.247694
-84.340492 56.37389 13.566444
-84.280029 56.402966 12.113063
-84.610352 56.272617 18.448072
-84.598419 56.280079 18.064194
-84.582642 56.287857 17.674204
-84.554771 56.296688 17.261702
-84.489594 56.339706 15.037387
-84.471069 56.347427 14.659057
-84.456978 56.35474 14.290196
-84.445671 56.36179 13.927446
-84.430534 56.369133 13.56012
-84.424812 56.375683 13.208507
-84.413628 56.38266 12.849654
-84.401917 56.389656 12.491254
-84.384743 56.39706 12.126689
-84.372025 56.404087 11.769535
-84.353844 56.411514 11.406789
-84.335167 56.418945 11.045125
-84.321144 56.432011 10.351992
-84.709305 56.267017 18.462118
-84.651817 56.291271 17.271152
-84.648117 56.297878 16.910248
-84.632233 56.305546 16.526747
-84.752701 56.285431 17.292768
-84.749008 56.292046 16.931374
-84.731339 56.299877 16.544163
-84.82711 56.294292 16.566826
-84.812248 56.301846 16.186689
-84.988335 56.290825 16.270845
-85.05027 56.293289 15.943328
-86.36039 56.185951 17.996967
-86.347015 56.193867 17.59206
-86.338554 56.201309 17.198528
-86.450256 56.173317 18.434795
-86.439751 56.187817 17.650061
-86.420158 56.196228 17.235994
-86.334923 56.288063 12.32335
-86.34816 56.293484 11.977792
-86.3395 56.300503 11.608788
-86.334091 56.307266 11.244391
-86.30442 56.328384 10.145424
-86.522964 56.168812 18.467026
-86.527817 56.175217 18.091442
-86.520592 56.182636 17.695637
-86.50312 56.190884 17.284407
-86.440811 56.261852 13.476974
-86.431015 56.281929 12.37625
-86.436844 56.287914 12.021356
-86.426476 56.295071 11.649716
-86.411575 56.302528 11.275084
-86.392303 56.322941 10.184267
-86.602623 56.163616 18.516979
-86.604073 56.170334 18.13402
-86.599091 56.177578 17.741262
-86.514366 56.283134 12.054368
-86.489784 56.310455 10.590377
-86.465675 56.331139 9.4988928
-86.683121 56.158405 18.565182
-86.686867 56.164948 18.185228
-86.686073 56.171852 17.798672
-86.663383 56.18058 17.376312
-86.623848 56.256622 13.213809
-86.59639 56.278065 12.089844
-86.779617 56.159016 18.236618
-86.771355 56.16658 17.835779
-86.752663 56.17498 17.419586
-86.766182 56.18063 17.060278
-86.706841 56.245152 13.607047
-86.709717 56.25145 13.243551
-86.707993 56.25808 12.875365
-86.695724 56.265472 12.496371
-86.690697 56.272301 12.127081
-86.692947 56.278584 11.7665
-86.674713 56.286324 11.386156
-86.651817 56.307102 10.285587
-86.619942 56.35355 7.7665844
-86.864716 56.154133 18.252512
-86.86235 56.161198 17.861681
-86.84761 56.176067 17.069227
-86.765274 56.274693 11.765219
-86.962196 56.148529 18.270945
-86.955925 56.155937 17.872839
-86.937187 56.171146 17.073277
-86.938507 56.177807 16.694229
-86.923325 56.185787 16.290997
-87.061028 56.142979 18.282589
-87.056686 56.150227 17.887463
-87.04763 56.157837 17.48658
-87.03186 56.165955 17.077244
-87.035172 56.172455 16.701084
-87.021858 56.180286 16.300589
-87.017754 56.187328 15.91647
-87.162773 56.137226 18.296556
-87.156425 56.144653 17.897551
-87.145309 56.152439 17.492954
-87.136757 56.166748 16.713078
-87.12336 56.174591 16.31209
-87.115211 56.181965 15.921523
-87.257607 56.132229 18.289051
-87.263176 56.138653 17.910183
-87.239937 56.147457 17.485125
-87.233253 56.161617 16.708046
-87.223763 56.169144 16.312929
-87.219566 56.176208 15.927889
-87.370506 56.126068 18.292038
-87.357849 56.134029 17.882076
-87.346405 56.141842 17.476923
-87.339417 56.156033 16.698997
-87.333794 56.163254 16.30957
-87.325378 56.170658 15.918012
-87.482376 56.12022 18.280582
-87.47554 56.127693 17.880344
-87.461784 56.1357 17.47126
-87.451324 56.143391 17.070147
-87.456444 56.149769 16.69528
-87.440338 56.157837 16.289982
-87.431664 56.16526 15.898182
-87.590721 56.114681 18.262253
-87.585655 56.122005 17.865131
-87.573647 56.129868 17.459026
-87.567017 56.137241 17.063911
-87.565796 56.144138 16.679079
-87.551422 56.152065 16.276514
-87.544556 56.159348 15.887255
-87.534851 56.166821 15.496
-87.709167 56.108402 18.25507
-87.701813 56.115921 17.854013
-87.689499 56.123806 17.44743
-87.680527 56.131371 17.048626
-87.691582 56.137283 16.682016
-87.67691 56.145241 16.278564
-87.812012 56.096405 18.617525
-87.821877 56.102516 18.243176
-87.816414 56.109879 17.845058
-87.797615 56.118298 17.428194
-87.807289 56.124352 17.057814
-87.75312 56.175694 14.33112
-87.737808 56.183468 13.939873
-87.932907 56.096504 18.243446
-87.921082 56.104401 17.834795
-87.9021 56.112831 17.417709
-87.873833 56.162365 14.714098
-87.808723 56.213268 12.045407
-87.802605 56.226696 11.307878
-88.043747 56.090374 18.251011
-88.031868 56.098278 17.841949
-88.014908 56.106552 17.427725
-87.938675 56.205891 12.065023
-87.912811 56.2337 10.577418
-88.155998 56.08429 18.251751
-88.14827 56.091854 17.849131
-88.135437 56.099796 17.441023
-88.070747 56.172131 13.563991
-88.081825 56.177921 13.204108
-88.072578 56.185184 12.823199
-88.060402 56.192631 12.440925
-88.019089 56.228088 10.569627
-88.283806 56.077267 18.257782
-88.265091 56.085735 17.83791
-88.256279 56.093346 17.436157
-88.18499 56.166183 13.550953
-88.131516 56.222263 10.555234
-88.125694 56.22913 10.186363
-88.413902 56.07056 18.239109
-88.407707 56.077999 17.838923
-88.385414 56.0867 17.416878
-88.27121 56.214909 10.543742
-88.250984 56.242138 9.0717859
-88.56144 56.062687 18.232964
-88.550369 56.070522 17.825396
-88.525238 56.079441 17.399601
-88.696594 56.05571 18.214077
-88.687218 56.0634 17.809509
-88.665863 56.07201 17.389826
-88.626877 56.122475 14.666175
-88.566048 56.166668 12.362553
-88.567169 56.173149 11.994133
-88.546761 56.187641 11.23993
-88.53698 56.201332 10.498706
-88.520744 56.208916 10.121103
-88.828117 56.048634 18.211985
-88.81842 56.056351 17.806931
-88.796638 56.064987 17.386787
-88.672737 56.181026 11.228839
-88.657806 56.195072 10.483166
-88.636612 56.202984 10.102006
-88.599411 56.231277 8.6219873
-88.951805 56.04187 18.216051
-88.944221 56.049419 17.81389
-88.922203 56.058079 17.393274
-88.935555 56.0639 17.024769
-88.832664 56.132332 13.484012
-88.810677 56.160271 11.977337
-89.074257 56.034939 18.233316
-89.059853 56.043045 17.820675
-89.039978 56.051537 17.402958
-89.189941 56.02845 18.246332
-89.182388 56.036015 17.843184
-89.160172 56.044704 17.421593
-89.166969 56.051064 17.042662
-89.118729 56.095554 14.683869
-89.110481 56.102879 14.296463
-89.07756 56.118633 13.50943
-89.085533 56.124706 13.143041
-89.059441 56.139801 12.372396
-89.051041 56.14698 11.993551
-89.051224 56.153549 11.623062
-89.031883 56.161442 11.237488
-89.004921 56.176342 10.480403
-88.997322 56.183365 10.107922
-89.301163 56.022274 18.255177
-89.29129 56.030029 17.848482
-89.273575 56.038361 17.433167
-89.264229 56.04599 17.031954
-89.274925 56.052032 16.659153
-89.259216 56.060089 16.253172
-89.247292 56.067818 15.854308
-89.236847 56.075394 15.459291
-89.41935 56.015415 18.281488
-89.416473 56.022625 17.884037
-89.391739 56.031525 17.458164
-89.377739 56.039532 17.05002
-89.372192 56.046837 16.655357
-89.365807 56.05418 16.261335
-89.530342 56.009174 18.294762
-89.518227 56.017128 17.883615
-89.500496 56.025482 17.467232
-89.491249 56.033123 17.064943
-89.488182 56.040253 16.672741
-89.474815 56.048141 16.269148
-89.465286 56.055702 15.872499
-89.636337 56.003277 18.303839
-89.636086 56.010307 17.908762
-89.613678 56.019039 17.48513
-89.594475 56.03437 16.680157
-89.739632 55.997486 18.315411
-89.739494 56.004513 17.919914
-89.719444 56.013069 17.499086
-89.703201 56.021278 17.086245
-89.700356 56.028412 16.693117
-89.691856 56.03595 16.294535
-89.848724 55.991138 18.340561
-89.839157 55.99892 17.931227
-89.823875 56.007111 17.516497
-89.807648 56.015327 17.103157
-89.807304 56.022282 16.712574
-89.94841 55.985542 18.351807
-89.943695 55.992958 17.948645
-89.933243 56.000782 17.539759
-89.907387 56.009754 17.113171
-89.909546 56.016525 16.725208
-90.044739 55.980228 18.357668
-90.044952 55.987267 17.960665
-90.029732 55.995472 17.544785
-90.006279 56.004269 17.120924
-90.018288 56.0103 16.744612
-90.000244 56.018597 16.332275
-89.98127 56.026917 15.921448
-90.144867 55.974464 18.377298
-90.145218 55.981506 17.979626
-90.117889 55.990665 17.547062
-90.109055 55.998341 17.141695
-90.100822 56.012867 16.348581
-90.089226 56.020645 15.945706
-90.060844 56.03648 15.140414
-90.232918 55.969437 18.392159
-90.238297 55.976093 18.000729
-90.215889 55.984882 17.574076
-90.19738 55.993313 17.155558
-90.162338 56.044186 14.397079
-90.313889 55.964634 18.415863
-90.319511 55.971283 18.024202
-90.309486 55.979122 17.613325
-90.252518 56.038795 14.425915
-90.178886 56.084499 12.0761
-90.404472 55.965881 18.069672
-90.392212 55.973904 17.655087
-90.339577 56.03336 14.466914
-90.307335 56.056061 13.286493
-90.235779 56.107849 10.587673
-90.479469 55.968231 17.708887
-90.390015 56.050884 13.326049
-90.355515 56.073521 12.156322
-90.330215 56.101971 10.630999
-90.546005 55.964184 17.733946
-90.462463 56.046547 13.349653
-90.399178 56.10463 10.271261
-90.516266 55.953281 18.438725
-90.49408 55.97633 17.2082
-90.370537 56.094761 10.914325
-90.352493 56.102634 10.525764
-90.33564 56.130325 9.017519
-90.594368 55.948418 18.474689
-90.613922 55.954052 18.097637
-90.580093 55.970882 17.252895
-90.509468 56.045361 13.273274
-90.455994 56.089516 10.949179
-90.443138 56.097057 10.563599
-90.672356 55.964813 17.313614
-90.593079 56.040058 13.317241
-90.781303 55.943062 18.206688
-90.775337 55.950687 17.795433
-90.750664 55.959702 17.362888
-90.760429 55.966049 16.975555
-90.673584 56.034901 13.362353
-90.856796 55.938183 18.251528
-90.858749 55.945213 17.849627
-90.849571 55.953064 17.435406
-90.836845 55.96114 17.019161
-90.752571 56.029922 13.40214
-90.699463 56.094372 9.9339695
-90.935165 55.933064 18.30101
-90.932388 55.940475 17.892036
-90.923523 55.948315 17.4774
-90.905983 55.956772 17.054543
-90.813049 56.05349 11.890472
-90.777061 56.082878 10.34488
-90.781517 56.089302 9.9694586
-90.769508 56.103474 9.2078314
-91.004776 55.928608 18.339954
-90.993668 55.94384 17.515858
-90.971237 55.952675 17.086531
-90.915039 56.019615 13.487517
-90.907562 56.04747 11.941422
-90.869934 56.077045 10.390382
-90.869423 56.083809 10.010978
-91.081093 55.923649 18.386719
-91.094223 55.929859 17.996738
-91.085907 55.937695 17.580942
-91.053413 55.947311 17.138247
-91.007317 56.013672 13.54104
-90.990395 56.04224 11.983554
-90.937843 56.072838 10.420436
-90.953362 56.078568 10.050537
-91.16156 55.918442 18.434656
-91.167313 55.92524 18.034311
-91.164375 55.932674 17.624571
-91.137207 55.941902 17.187551
-91.11277 55.993019 14.383086
-91.101242 56.007698 13.591415
-91.087502 56.015553 13.190855
-91.056374 56.038239 12.008038
-91.030937 56.06707 10.461596
-91.246872 55.920254 18.072794
-91.239052 55.928074 17.656088
-91.212082 55.937302 17.218628
-91.152985 56.032307 12.047752
-91.104706 56.062717 10.482107
-91.317001 55.923313 17.686666
-91.285019 55.93293 17.242458
-91.256012 56.005352 13.251861
-91.231499 56.027676 12.069216
-91.199936 56.057034 10.511898
-91.399612 55.910931 18.132469
-91.375984 55.927185 17.288912
-91.328026 56.001122 13.270873
-91.324501 56.008274 12.878634
-91.309326 56.023071 12.091499
-91.310974 56.029816 11.706698
-91.29039 56.038021 11.307114
-91.276863 56.045731 10.914265
-91.284401 56.058823 10.153793
-91.240799 56.081886 8.9877052
-91.477776 55.906178 18.162037
-91.473175 55.913792 17.747124
-91.459686 55.922039 17.323721
-91.455597 55.929539 16.913879
-91.458374 55.936493 16.51368
-91.439888 55.952084 15.691968
-91.383453 56.00499 12.884092
-91.552071 55.901821 18.180895
-91.539444 55.91729 17.34816
-91.524994 55.925575 16.925663
-91.535797 55.931942 16.534168
-91.527184 55.939716 16.122383
-91.512253 55.947918 15.70604
-91.498932 55.955959 15.293794
-91.489891 55.96365 14.888046
-91.629898 55.89727 18.200171
-91.630791 55.904488 17.790838
-91.614876 55.912941 17.363317
-91.59787 55.921425 16.937366
-91.600914 55.928371 16.536669
-91.589722 55.936344 16.121927
-91.574844 55.944538 15.705584
-91.563248 55.959503 14.898067
-91.710785 55.89257 18.218449
-91.711853 55.899788 17.808531
-91.698692 55.908047 17.383551
-91.679153 55.916733 16.953901
-91.682373 55.923683 16.552612
-91.67662 55.931267 16.143024
-91.664528 55.939278 15.728717
-91.65406 55.947128 15.318331
-91.787888 55.888042 18.238503
-91.781212 55.895863 17.81848
-91.770805 55.903919 17.39637
-91.754021 55.912407 16.969421
-91.752098 55.919746 16.561806
-91.749146 55.927132 16.154837
-91.734497 55.935337 15.737403
-91.724136 55.943188 15.326765
-91.71109 55.958237 14.518931
-91.863525 55.883602 18.258121
-91.864899 55.890823 17.847294
-91.841331 55.899879 17.408916
-91.832596 55.907776 16.990829
-91.828125 55.915318 16.57976
-91.814598 55.923485 16.160891
-91.816071 55.930523 15.760095
-91.940208 55.879295 18.267004
-91.941628 55.88652 17.855841
-91.92868 55.894787 17.429617
-91.906616 55.903687 16.995686
-91.912865 55.910439 16.596178
-91.902016 55.918423 16.179594
-91.890114 55.926441 15.764195
-91.882538 55.934109 15.35542
-91.87394 55.941818 14.947564
-92.020378 55.874969 18.266342
-91.989212 55.899193 16.99708
-91.992599 55.913361 16.188745
-91.980629 55.921394 15.772681
-91.964897 55.929661 15.355138
-91.96434 55.936798 14.954707
-92.197571 55.865082 18.283363
-92.196182 55.87254 17.867493
-92.18293 55.880852 17.439886
-92.155067 55.890194 16.998545
-92.169342 55.896381 16.606569
-92.160927 55.904209 16.19136
-92.140594 55.912857 15.766061
-92.132767 55.920563 15.355947
-92.274643 55.860905 18.2838
-92.275879 55.868168 17.870867
-92.267921 55.876087 17.449148
-92.248039 55.884846 17.016401
-92.256889 55.891445 16.617777
-92.245689 55.899483 16.199127
-92.236137 55.907364 15.784434
-92.217316 55.915871 15.362721
-92.219307 55.922852 14.963448
-92.364998 55.855568 18.309038
-92.341988 55.87199 17.45426
-92.341034 55.879353 17.042433
-92.430428 55.852058 18.307323
-92.442528 55.858524 17.906397
-92.4291 55.866867 17.477394
-92.414536 55.875248 17.049788
-92.320786 55.974052 11.770473
-92.516228 55.846939 18.334278
-92.506775 55.862373 17.49371
-92.497665 55.870361 17.071735
-92.586952 55.84293 18.344597
-92.585732 55.857765 17.51285
-92.565643 55.866566 17.078287
-92.660362 55.838638 18.362633
-92.675415 55.844906 17.963667
-92.636337 55.862492 17.092312
-92.753021 55.83284 18.406847
-92.754433 55.840145 17.991034
-92.749245 55.847912 17.569532
-92.718086 55.857548 17.121704
-92.663765 55.954109 11.848557
-92.640167 55.969608 11.047617
-92.599083 56.006809 9.0774574
-92.811188 55.829716 18.405539
-92.829132 55.835789 18.008951
-92.818405 55.843967 17.580822
-92.792686 55.85321 17.138792
-92.670448 56.002819 9.0847454
-92.888176 55.825268 18.421621
-92.900642 55.831757 18.018152
-92.898201 55.839329 17.59901
-92.875198 55.848377 17.159433
-92.957382 55.821445 18.425848
-92.975395 55.827526 18.028498
-92.972916 55.83511 17.60894
-92.935898 55.845196 17.153845
-93.033813 55.817078 18.438982
-93.057404 55.822754 18.047495
-93.052101 55.830559 17.62417
-93.014938 55.840656 17.16851
-93.102936 55.813213 18.446194
-93.121185 55.826702 17.630703
-93.086693 55.836613 17.177748
-93.197861 55.814861 18.064001
-93.192467 55.822685 17.639931
-93.160675 55.832397 17.189592
-93.226974 55.828728 17.194315
-93.170059 55.919056 12.280313
-93.136505 55.956326 10.283319
-93.192436 55.946434 10.670163
-93.394875 55.811356 17.661182
-93.472168 55.799133 18.113985
-93.469475 55.806786 17.691357
-93.434479 55.816757 17.236298
-93.35511 55.915909 11.893693
-93.536789 55.795193 18.139153
-93.536995 55.802635 17.719212
-93.501984 55.812618 17.263639
-93.607986 55.79084 18.167339
-93.6054 55.7985 17.743725
-93.578911 55.807873 17.296694
-93.591103 55.814384 16.892813
-93.669556 55.787327 18.177681
-93.669754 55.794785 17.756922
-93.651688 55.803547 17.318609
-93.60408 55.872482 13.581018
-93.592003 55.880459 13.168461
-93.711975 55.800152 17.32604
-93.712616 55.80751 16.909685
-93.663261 55.869175 13.58697
-93.651047 55.877163 13.174247
-93.711533 55.873669 13.186691
-93.70401 55.881317 12.778838
-93.704178 55.888432 12.377634
-93.691605 55.89637 11.968908
-93.692589 55.903393 11.570224
-93.677902 55.911423 11.162848
-93.665878 55.926292 10.361982
-93.653908 55.934078 9.9599009
-93.638611 55.949055 9.1631174
-93.874809 55.774956 18.248899
-93.86261 55.790813 17.392893
-93.851509 55.80645 16.546249
-93.930229 55.771603 18.269026
-93.922028 55.779713 17.837151
-93.915489 55.787663 17.409334
-93.890518 55.796906 16.964811
-93.893166 55.804115 16.550776
-93.880249 55.812405 16.123211
-93.988617 55.767967 18.295904
-93.986328 55.775654 17.869823
-93.971344 55.784233 17.43236
-93.949379 55.793266 16.990429
-93.952225 55.800472 16.575981
-93.939468 55.808762 16.147995
-93.928436 55.816887 15.723889
-94.043335 55.764538 18.322296
-94.044106 55.772011 17.898996
-94.020638 55.781216 17.452034
-94.010384 55.789413 17.02169
-94.01342 55.796616 16.60675
-94.000832 55.804905 16.178257
-94.101563 55.760891 18.350241
-94.111176 55.767727 17.93586
-94.096565 55.776306 17.497303
-94.063362 55.786175 17.04249
-94.066589 55.793373 16.627306
-94.05706 55.801453 16.201332
-94.0522 55.809166 15.781765
-94.037445 55.817539 15.355094
-94.157898 55.75753 18.367786
-94.167679 55.764366 17.953077
-94.153175 55.772942 17.514185
-94.128754 55.782188 17.067863
-94.123421 55.790012 16.643513
-94.119843 55.797676 16.222757
-94.103447 55.806213 15.791911
-94.103401 55.81356 15.378116
-94.211746 55.754372 18.381668
-94.227432 55.76078 17.972937
-94.224617 55.768517 17.54574
-94.185768 55.77882 17.083939
-94.192184 55.785809 16.6707
-94.182899 55.793892 16.243719
-94.17244 55.802021 15.817756
-94.160812 55.810192 15.392847
-94.26577 55.751125 18.39995
-94.290283 55.756893 18.000319
-94.267258 55.766109 17.551418
-94.24588 55.77515 17.107363
-94.243668 55.782768 16.685127
-94.234451 55.790848 16.257977
-94.235779 55.798153 15.842625
-94.349838 55.753155 18.029402
-94.338539 55.761528 17.592203
-94.311447 55.770996 17.141489
-94.321045 55.777782 16.730137
-94.30027 55.786705 16.290936
-94.290009 55.794834 15.864214
-94.281494 55.802807 15.441157
-94.407547 55.749397 18.065331
-94.408043 55.756924 17.639858
-94.375259 55.766819 17.182463
-94.373337 55.774441 16.759071
-94.355614 55.78315 16.32239
-94.348419 55.791077 15.89803
-94.456413 55.753788 17.669147
-94.423706 55.76368 17.21155
-94.418991 55.771507 16.78513
-94.418976 55.778965 16.365091
-94.515984 55.749954 17.703411
-94.492126 55.75922 17.254251
-94.496346 55.766422 16.835802
-94.484718 55.774723 16.403681
-94.474831 55.78286 15.975441
-94.589233 55.737648 18.173489
-94.581329 55.745815 17.737499
-94.560463 55.754875 17.290709
-94.561859 55.762295 16.868723
-94.547348 55.770809 16.433216
-94.537537 55.778954 16.004473
-94.523575 55.78735 15.574143
-94.646942 55.734047 18.200357
-94.650818 55.741367 17.776236
-94.621185 55.751076 17.31987
-94.616745 55.758915 16.89171
-94.614067 55.766598 16.467148
-94.595444 55.775375 16.029671
-94.602242 55.782326 15.617421
-94.578255 55.791393 15.179765
-94.704567 55.730373 18.231686
-94.699684 55.738335 17.79809
-94.684761 55.746986 17.356466
-94.662132 55.771095 16.067486
-94.666039 55.778259 15.652035
-94.671791 55.785275 15.239365
-94.765175 55.726624 18.258272
-94.77504 55.733524 17.839542
-94.745415 55.743244 17.382225
-94.809669 55.739475 17.398718
-94.817169 55.746494 16.980705
-94.760941 55.817066 13.177127
-94.882538 55.742771 16.991234
-94.825928 55.813446 13.183093
-94.937241 55.732246 17.417328
-94.941711 55.739494 16.995497
-95.005783 55.713066 18.288708
-95.009651 55.720425 17.862438
-94.98999 55.737015 16.988012
-95.071571 55.709343 18.297829
-95.078384 55.716499 17.8741
-95.069145 55.724781 17.435762
-95.067596 55.732475 17.007154
-95.006264 55.803635 13.186249
-95.135338 55.705753 18.305914
-95.139214 55.713127 17.878628
-95.126984 55.721634 17.436914
-95.119469 55.729755 17.002207
-95.032669 55.824497 11.930625
-95.193748 55.702484 18.311964
-95.197731 55.709862 17.884251
-95.182594 55.718582 17.439161
-95.175163 55.726711 17.004116
-95.126091 55.775036 14.43185
-95.250771 55.699219 18.322086
-95.251915 55.706814 17.890909
-95.236877 55.715534 17.445484
-95.241539 55.722809 17.021601
-95.310013 55.703472 17.902157
-95.301048 55.711765 17.462233
-95.287834 55.720325 17.020514
-97.054306 55.60099 18.359324
-97.08094 55.60701 17.939152
-97.059189 55.616425 17.475037
-96.966805 55.722359 11.790176
-97.12146 55.597229 18.366552
-97.132393 55.60437 17.930975
-97.126305 55.612686 17.481077
-97.115715 55.621281 17.029305
-97.037491 55.688267 13.494875
-97.208534 55.600243 17.931459
-97.18325 55.609913 17.463758
-97.194504 55.616982 17.031412
-97.104607 55.684807 13.485293
-97.250252 55.590664 18.343874
-97.270164 55.597172 17.916605
-97.263527 55.605534 17.465956
-97.242874 55.614834 17.0051
-97.208542 55.663654 14.359841
-97.327797 55.586292 18.35379
-97.511108 55.583294 17.964197
-97.504524 55.591679 17.511879
-97.487015 55.600788 17.052141
-97.452942 55.649788 14.396235
-97.572372 55.579281 18.003481
-97.562897 55.587887 17.547626
-97.529716 55.598103 17.073383
-97.497169 55.647038 14.41646
-97.61969 55.576214 18.032091
-97.620033 55.584141 17.584591
-97.583893 55.594574 17.107029
-97.666389 55.573345 18.051355
-97.67009 55.581039 17.606564
-97.643669 55.590805 17.137093
-97.731979 55.569366 18.075527
-97.732582 55.577293 17.627281
-97.696602 55.58773 17.148941
-97.797058 55.565521 18.093817
-97.794487 55.573677 17.642199
-97.858566 55.569824 17.664053
-97.835396 55.579388 17.195942
-97.802917 55.62862 14.522082
-97.927841 55.565678 17.686512
-97.997505 55.553745 18.146364
-97.982033 55.562832 17.681763
-97.958687 55.572418 17.212992
-98.062912 55.550285 18.141804
-98.056839 55.558716 17.68557
-98.029999 55.56855 17.21353
-98.014954 55.616711 14.546787
-98.141121 55.545811 18.15567
-98.141319 55.553806 17.704588
-98.098076 55.564789 17.217896
-98.205795 55.542122 18.166332
-98.178726 55.560001 17.241812
-98.280197 55.537632 18.192474
-98.273911 55.546101 17.734661
-98.246719 55.555981 17.261051
-98.129715 55.680161 10.623476
-98.415794 55.537575 17.782511
-98.466888 55.526794 18.234091
-98.476997 55.534138 17.789701
-98.443298 55.544491 17.309177
-98.450638 55.551964 16.866037
-98.456627 55.559505 16.423035
-98.451431 55.567783 15.972608
-98.428429 55.577229 15.510662
-98.420486 55.585621 15.062131
-98.401299 55.59473 14.60756
-98.388557 55.611153 13.721451
-98.40036 55.625893 12.855375
-98.384422 55.63464 12.411139
-98.54464 55.522369 18.24645
-98.548225 55.530174 17.795734
-98.527542 55.539635 17.325935
-98.515228 55.54847 16.865841
-98.52449 55.555794 16.42519
-98.506111 55.564972 15.964305
-98.48632 55.5742 15.504812
-98.471725 55.583038 15.051475
-98.465668 55.591274 14.606098
-98.43264 55.647633 11.532555
-98.611473 55.518791 18.244276
-98.618294 55.526379 17.796165
-98.597504 55.535851 17.326038
-98.578545 55.545147 16.860218
-98.571304 55.553596 16.406328
-98.692337 55.514278 18.251961
-98.695862 55.522106 17.800392
-98.678268 55.531364 17.332552
-98.662521 55.540451 16.868845
-98.658531 55.548691 16.416891
-98.639946 55.557888 15.955514
-98.771149 55.509766 18.266075
-98.774712 55.517601 17.813915
-98.760422 55.526642 17.34827
-98.72818 55.536869 16.870434
-98.744034 55.543762 16.433872
-98.705444 55.562237 15.511003
-98.842216 55.505615 18.283194
-98.842628 55.51368 17.827755
-98.815231 55.523632 17.350668
-98.775787 55.566082 15.079985
-98.902428 55.50211 18.297188
-98.926094 55.508564 17.861612
-98.898842 55.518524 17.383762
-98.873009 55.53632 16.460018
-98.986015 55.497257 18.315929
-99.003174 55.504173 17.874046
-98.97258 55.51437 17.393005
-98.960052 55.531273 16.479027
-99.07505 55.492306 18.323439
-99.072281 55.500618 17.863802
-99.061432 55.509449 17.399342
-99.150902 55.488224 18.322308
-99.17131 55.49493 17.882408
-99.157059 55.504009 17.414343
-99.254807 55.490013 17.904943
-99.237244 55.499332 17.433601
-99.333939 55.485279 17.930462
-99.323174 55.494137 17.464245
-99.429459 55.479507 17.964325
-99.408752 55.489071 17.488943
-99.779213 55.467789 17.558775
-99.875526 55.454056 18.038706
-99.973045 55.448456 18.057093
-99.966148 55.457123 17.589878
-100.07912 55.442223 18.08494
-100.06548 55.451366 17.611425
-100.17181 55.437 18.096642
-100.1685 55.445442 17.631113
-100.28867 55.430233 18.121689
-100.27156 55.439636 17.644232
-100.39497 55.424503 18.120432
-100.39489 55.432747 17.656502
-100.50657 55.418446 18.121571
-100.51669 55.425995 17.665524
-100.73318 55.405609 18.15416
-100.74338 55.413174 17.696936
-100.85301 55.39864 18.181545
-100.83875 55.407887 17.70421
-100.97018 55.391785 18.210604
-100.95586 55.401047 17.732622
-101.17361 55.387337 17.841288
-82.002052 56.476597 14.907
-81.954422 56.506905 13.345127
-81.935806 56.51717 12.823621
-81.912918 56.527733 12.29833
-82.319115 56.487602 13.320987
-82.300018 56.497902 12.79907
-82.282959 56.508018 12.28129
-82.680923 56.468414 13.299304
-82.668205 56.478226 12.785368
-82.649452 56.488476 12.265247
-83.193352 56.356777 18.025669
-83.024521 56.468143 12.267546
-83.000542 56.47876 11.742706
-82.983017 56.488876 11.226272
-83.322105 56.488541 10.212162
-83.30233 56.498764 9.6964006
-83.658417 56.488091 9.2126904
-84.019203 56.468094 9.2395315
-83.964729 56.498394 7.6991444
-84.326263 56.478401 7.7233915
-84.771774 56.408119 10.324376
-84.677475 56.459042 7.7437835
-85.179123 56.357849 11.914553
-85.133202 56.378956 10.865877
-85.111702 56.389366 10.344946
-85.474068 56.369011 10.387256
-85.446327 56.379829 9.8624592
-87.232162 56.263088 10.996315
-87.130463 56.315056 8.3791962
-87.118858 56.32486 7.8623862
-87.100189 56.335087 7.3431993
-87.092873 56.344627 6.8282228
-87.653465 56.193546 13.629367
-87.627777 56.213631 12.576263
-87.602951 56.224449 12.042624
-87.583496 56.234879 11.51445
-87.554665 56.245899 10.981681
-87.545937 56.255585 10.46284
-87.921631 56.225822 10.994371
-87.896011 56.236629 10.463749
-87.852661 56.25766 9.4113894
-88.805046 56.0541 17.974472
-89.49469 56.01564 18.039248
-89.710831 56.090313 13.174862
-89.682358 56.110786 12.108541
-89.651978 56.122032 11.567652
-89.632545 56.132542 11.034992
-89.621635 56.142487 10.508067
-89.599991 56.153095 9.9766493
-89.586884 56.163147 9.4503555
-89.570267 56.173405 8.9232864
-89.552559 56.183712 8.3966351
-90.055252 56.081123 12.643066
-90.035599 56.091721 12.10611
-90.007431 56.102837 11.565784
-89.995354 56.112892 11.036147
-90.312897 56.11446 9.9804134
-90.268501 56.145 8.395546
-90.670555 56.113274 8.957509
-91.392166 56.073505 8.9984694
-91.812561 56.021854 10.626613
-92.260773 55.949039 13.362062
-92.249069 55.959278 12.821072
-92.224983 55.970287 12.274515
-92.199577 55.981342 11.729151
-92.186722 55.991581 11.191691
-92.169792 56.002056 10.653401
-92.606659 55.939384 12.851983
-92.588394 55.959503 11.774487
-92.550682 55.980766 10.691868
-94.096832 55.885227 11.3617
-94.096001 55.894829 10.823461
-94.071808 55.915379 9.7397623
-94.0606 55.925579 9.1994257
-94.585083 55.789825 15.247318
-94.511871 55.8428 12.48673
-94.486572 55.853981 11.934061
-94.46904 55.864647 11.386654
-94.43882 55.88562 10.297644
-94.859573 55.843185 11.405538
-94.868706 55.852219 10.868928
-96.431519 55.756569 11.494212
-96.425224 55.766651 10.9457
-100.79015 55.404831 18.024353
-100.70631 55.461182 15.106081
-100.69971 55.47171 14.533173
-101.10517 55.449749 14.534577
-101.50842 55.427849 14.539371
-83.669838 56.348656 17.031246
-83.646912 56.357029 16.629522
-83.866882 56.332764 17.325867
-83.831238 56.354778 16.194668
-84.049118 56.323647 17.28409
-83.961334 56.380993 14.32172
-84.116081 56.373428 14.276251
-84.294701 56.357647 14.620811
-84.514824 56.313725 16.423998
-85.992142 56.220837 17.154217
-86.018776 56.285973 13.40443
-86.303963 56.217438 16.395576
-88.616829 56.075298 17.353952
-88.733772 56.068054 17.405729
-90.847954 55.954174 17.377703
-91.868347 55.918728 16.265106
-94.217506 55.777622 17.054676
-94.212624 55.799599 15.831761
-94.20295 55.807415 15.420922
-94.162102 55.81731 14.988011
-94.156494 55.824776 14.584789
-96.051682 55.675842 17.198376
-96.540298 55.669884 16.045235
-96.511742 55.686546 15.193822
-96.513977 55.701038 14.370766
-98.575478 55.586372 14.547519
-98.971916 55.524399 16.830219
-83.608658 56.466507 10.580038
-83.882828 56.461033 10.052956
-83.848976 56.481346 9.0119505
-83.83593 56.491169 8.4984474
-84.472313 56.428986 10.061698
-84.389183 56.479626 7.4627357
-84.375282 56.489529 6.9473677
-84.858459 56.361164 12.704985
-84.786934 56.402538 10.59263
-84.771477 56.412624 10.071564
-84.685638 56.463535 7.4657307
-85.305496 56.251244 17.533739
-85.270607 56.27243 16.4468
-85.252632 56.283028 15.904843
-85.234322 56.293621 15.363954
-85.579742 56.246059 16.990257
-85.56308 56.256565 16.449306
-85.546051 56.267075 15.909209
-85.875153 56.229889 17.000803
-85.684387 56.344646 11.118665
-85.867249 56.399452 7.4746218
-85.85009 56.409618 6.9544115
-86.485634 56.186348 17.593122
-86.467819 56.197037 17.045254
-86.210197 56.352898 9.0518322
-86.169296 56.382759 7.4946046
-86.762306 56.180679 17.069244
-86.511414 56.33622 9.0733109
-87.076759 56.153439 17.645414
-87.054955 56.164528 17.087252
-86.83847 56.299694 10.13407
-87.369377 56.137234 17.666643
-87.354385 56.147717 17.121906
-87.102715 56.303726 9.101717
-87.092041 56.313522 8.5825672
-87.074181 56.323803 8.0579948
-87.040344 56.344189 7.0128598
-87.667 56.120583 17.697573
-87.651062 56.131165 17.150032
-87.627525 56.14238 16.590168
-87.614052 56.152672 16.051498
-87.597679 56.163185 15.509287
-87.58078 56.17371 14.968007
-87.563354 56.184246 14.427703
-87.548927 56.194504 13.893781
-87.96553 56.104084 17.717234
-87.950966 56.114555 17.17165
-87.929726 56.125576 16.615784
-87.900238 56.146381 15.53371
-87.884651 56.156811 14.993788
-87.861198 56.167854 14.443423
-88.265015 56.087692 17.727926
-88.253151 56.097942 17.186604
-88.238152 56.108437 16.6413
-88.571938 56.070873 17.73999
-88.557632 56.081352 17.193386
-88.541397 56.091961 16.645359
-88.876427 56.054337 17.7435
-88.858139 56.065163 17.189573
-88.841919 56.075771 16.641376
-89.183205 56.037563 17.753592
-89.456093 56.042221 16.659788
-89.7621 56.025494 16.669401
-92.849854 56.067432 4.899086
-94.812485 55.728653 17.999737
-94.540237 55.918289 8.1484613
-94.521294 55.928844 7.6117387
-95.459236 55.692806 18.048208
-95.772087 55.675709 18.057825
-96.106972 55.657333 18.072433
-96.440239 55.63908 18.085102
-96.768913 55.621063 18.09824
-96.642639 55.707417 13.619428
-97.10952 55.602291 18.117767
-96.983086 55.688797 13.63077
-97.097466 55.827484 5.4710455
-97.785118 55.780533 6.0202055
-98.435822 55.764301 4.9517188
-98.364044 55.816296 2.2420044
-82.960342 56.511848 10.001552
-82.951782 56.518421 9.6575727
-83.070473 56.512867 9.6086397
-83.049576 56.526241 8.9189882
-83.040672 56.532795 8.5769863
-83.02697 56.539673 8.2313938
-83.021599 56.545956 7.8938584
-83.008507 56.552761 7.5505486
-83.175941 56.507759 9.5750122
-83.141388 56.533951 8.20506
-83.238487 56.523396 8.5037613
-83.394722 56.491009 9.8517408
-83.388092 56.497448 9.5093298
-83.371971 56.510502 8.8232117
-83.356453 56.517536 8.4743452
-83.348045 56.524055 8.13276
-83.333145 56.531006 7.7866254
-83.320847 56.537766 7.4435287
-83.766434 56.32922 17.831507
-83.502098 56.48592 9.8111639
-83.474968 56.505714 8.7789869
-83.460442 56.512672 8.4314203
-83.450058 56.519325 8.0884104
-83.437706 56.526096 7.7445602
-83.424911 56.532887 7.4012313
-83.62323 56.480358 9.7554922
-83.581421 56.507103 8.3763885
-83.742111 56.475166 9.6854877
-83.695503 56.502216 8.3040915
-83.823547 56.490166 8.5926504
-83.806694 56.497265 8.2440662
-83.798882 56.503735 7.9034863
-83.785858 56.510551 7.5593939
-84.288048 56.297577 18.024305
-84.275795 56.305023 17.642384
-83.925064 56.485134 8.5666628
-83.909508 56.492146 8.2191219
-83.896698 56.498959 7.8746147
-83.885017 56.50568 7.5315466
-84.071251 56.452675 9.9495659
-84.223846 56.468849 8.5734997
-84.216133 56.475342 8.2312965
-84.517189 56.364605 13.550932
-84.501465 56.37196 13.184674
-84.491913 56.378796 12.828882
-84.475159 56.386177 12.464178
-84.340118 56.456253 8.9287405
-84.321243 56.463531 8.5762386
-84.306877 56.470482 8.2285204
-84.295349 56.47723 7.8836532
-84.283325 56.484001 7.5389495
-84.608803 56.359581 13.554834
-84.487946 56.417259 10.674402
-84.473091 56.424343 10.32071
-84.392014 56.465897 8.2273903
-84.380409 56.472645 7.8826995
-84.364967 56.479637 7.5359788
-86.574234 56.186466 17.316395
-86.422585 56.327774 9.8197756
-86.507965 56.322536 9.8546324
-86.764023 56.153481 18.595964
-86.852791 56.148266 18.619112
-86.837807 56.170101 17.435139
-86.946259 56.143002 18.630934
-86.935158 56.164524 17.452595
-86.79921 56.292953 10.633277
-86.798958 56.299328 10.275079
-86.790001 56.306286 9.9103775
-86.778381 56.313408 9.5448437
-86.778221 56.319733 9.1888971
-86.995392 56.202438 15.133521
-86.987122 56.209709 14.749388
-86.976128 56.217152 14.363586
-87.142639 56.13203 18.650383
-87.131432 56.160404 17.086519
-87.104324 56.189522 15.5291
-87.094696 56.196938 15.140722
-87.084351 56.204376 14.753448
-87.243347 56.126526 18.653732
-87.231941 56.154938 17.088196
-87.186378 56.198822 14.75536
-87.177223 56.206135 14.371365
-87.348213 56.121037 18.643267
-87.336197 56.149506 17.076372
-87.298111 56.18618 15.126851
-87.287445 56.193649 14.738841
-87.464127 56.114834 18.639387
-87.568443 56.109638 18.614332
-87.494965 56.189838 14.32098
-87.693077 56.102821 18.618387
-87.614799 56.26355 9.8042994
-87.612236 56.270103 9.4429865
-87.600418 56.277256 9.0760994
-87.587921 56.284435 8.709981
-87.585457 56.290943 8.3508196
-87.914604 56.091087 18.604294
-87.727966 56.257565 9.7966709
-88.018929 56.085487 18.601774
-88.143753 56.078342 18.623823
-88.271614 56.071308 18.630465
-88.399765 56.064762 18.608694
-88.534431 56.057945 18.582464
-88.682999 56.049862 18.584877
-88.336403 56.284729 6.4127097
-88.814636 56.04277 18.583326
-88.45517 56.278629 6.3944373
-88.93602 56.036182 18.584364
-89.053749 56.029621 18.595291
-89.171471 56.022953 18.612196
-89.284813 56.016598 18.624756
-89.395836 56.010296 18.641338
-89.174286 56.167637 10.454623
-89.051315 56.239948 6.7566609
-89.154053 56.234486 6.751296
-89.29525 56.207375 7.8479719
-89.287109 56.214317 7.4818058
-89.797897 56.072514 13.912012
-89.618515 56.183212 8.2238359
-89.705994 56.185131 7.849194
-89.863907 56.196163 6.7466784
-89.956497 56.19083 6.7650476
-90.140617 56.179718 6.8299117
-90.128288 56.186966 6.459147
-90.198669 56.182991 6.4685655
-90.421669 56.171116 6.4578495
-90.919991 56.147614 6.2633786
-90.978432 56.164112 5.1558719
-91.330666 56.117672 6.6982975
-91.421814 56.106014 7.0772243
-91.508247 56.094513 7.4616466
-91.499458 56.101727 7.0820217
-91.570366 56.104485 6.7108364
-91.729919 56.096024 6.7010808
-94.057861 55.757381 18.680943
-94.016121 55.841999 14.042354
-94.07962 55.838158 14.06513
-94.373627 55.819683 14.210022
-94.506378 55.96846 5.4260349
-94.983772 55.708107 18.634979
-94.681404 55.959305 5.408236
-95.038475 55.705166 18.634005
-95.096649 55.701904 18.640549
-95.141518 55.699516 18.638306
-96.929581 55.602013 18.681751
-97.002808 55.597797 18.695934
-97.076027 55.593861 18.694645
-97.122208 55.591892 18.664743
-97.180725 55.588867 18.656893
-97.245399 55.585186 18.667208
-97.302269 55.581818 18.683498
-97.368393 55.577557 18.722046
-97.639015 55.560768 18.843044
-97.436295 55.787071 6.7148733
-97.50219 55.790771 6.3055849
-97.558838 55.787804 6.3000765
-97.901054 55.545731 18.891577
-97.620407 55.78466 6.2895427
-97.68309 55.773937 6.7025466
-97.686028 55.78117 6.2861919
-97.754723 55.769989 6.706593
-98.189247 55.528694 18.97312
-98.242516 55.525673 18.980885
-98.055931 55.84309 1.6716267
-98.037338 55.851555 1.2515635
-98.116486 55.840054 1.6582474
-98.762375 55.503849 18.626131
-98.342453 55.827858 1.6565573
-98.333855 55.835835 1.2336054
-98.842293 55.499233 18.642454
-98.415367 55.823971 1.6534352
-98.48362 55.828056 1.2152307
-99.013191 55.48975 18.655933
-99.092842 55.485077 18.676397
-98.671005 55.803017 2.0547025
-99.167969 55.480602 18.699617
-98.802322 55.758041 4.1875849
-99.249397 55.47578 18.723001
-98.886497 55.753376 4.1939378
-99.333069 55.471039 18.735041
-99.436279 55.464931 18.76453
-99.509232 55.460934 18.767435
-99.894035 55.438633 18.851107
-100.09531 55.427155 18.884197
-100.22536 55.419754 18.9049
-100.33674 55.413689 18.907005
-100.45787 55.406803 18.925716
-100.56555 55.400635 18.94503
-82.104942 56.414505 18.090548
-81.824112 56.578194 9.7268591
-82.898399 56.530132 9.1604538
-82.879265 56.540253 8.6488295
-82.858131 56.550484 8.1369381
-83.209671 56.540344 7.6368389
-83.189705 56.55048 7.1268482
-83.150787 56.570648 6.1096406
-83.496155 56.560635 5.6211319
-84.210442 56.521259 5.6624303
-84.180618 56.531956 5.1509075
-84.57019 56.501419 5.6837583
-84.536606 56.512348 5.1705236
-84.960892 56.461681 6.7314591
-84.940285 56.471889 6.2194204
-84.917221 56.482227 5.707376
-85.289429 56.452492 6.2481236
-85.257332 56.463371 5.7331443
-85.242233 56.473236 5.2234635
-85.222801 56.483349 4.7130361
-86.969582 56.379108 5.2617836
-87.314598 56.360611 5.2522793
-87.817696 56.250759 9.9065237
-84.087425 56.388004 13.542704
-84.422951 56.370953 13.480659
-85.042519 56.288708 16.225117
-85.031525 56.295887 15.854177
-85.01815 56.303234 15.481058
-85.000557 56.310898 15.103217
-85.989357 56.357819 9.4476309
-86.366356 56.253662 14.165254
-86.363251 56.317654 10.57056
-88.630081 56.115852 15.02939
-88.827049 56.062767 17.419199
-88.753021 56.108391 15.075008
-88.880829 56.107433 14.739715
-89.004814 56.100227 14.76767
-89.144829 56.091557 14.829432
-89.123146 56.112892 13.693881
-89.048668 56.169842 10.713139
-89.269958 56.083691 14.891081
-89.084457 56.218822 7.8455443
-89.584343 56.022438 17.383125
-89.693344 56.022808 17.030111
-89.673737 56.037952 16.236937
-89.641136 56.067314 14.682528
-89.487625 56.194645 7.9787369
-91.618126 56.043762 9.9851723
-91.992783 55.955585 13.810031
-91.944359 55.9925 11.878295
-92.237206 55.969845 12.262135
-92.64711 55.856449 17.399944
-92.551056 55.925732 13.790358
-92.694702 55.917965 13.790202
-92.681633 55.925667 13.396053
-92.673691 55.933002 13.007154
-92.836975 55.917007 13.410468
-92.816429 55.925198 13.011976
-92.813637 55.932178 12.627161
-92.806602 55.939423 12.240714
-92.881409 55.969669 10.309106
-92.870979 55.977009 9.9275866
-92.872246 55.983604 9.5520916
-93.039291 55.96109 10.311182
-93.312317 55.946644 10.292996
-93.454887 55.938774 10.301768
-94.29631 55.901382 9.8440924
-94.278717 55.909271 9.4533844
-94.270226 55.91658 9.0674438
-94.267448 55.923534 8.684329
-94.253212 55.931164 8.2980127
-94.230942 55.939251 7.9103274
-94.487175 55.813755 14.197893
-94.436722 55.879463 10.650697
-94.428505 55.886829 10.260964
-94.415657 55.894459 9.8702927
-94.393303 55.909458 9.0937071
-94.373466 55.91745 8.7039165
-94.366249 55.924664 8.3195534
-94.354416 55.932144 7.9344907
-94.334526 55.940079 7.54808
-94.316917 55.947861 7.1634235
-94.2911 55.983025 5.2616868
-94.732864 55.718399 18.819845
-94.602501 55.80685 14.235295
-94.548813 55.879719 10.294822
-94.536079 55.887356 9.9035397
-94.520889 55.901939 9.1283121
-94.504585 55.909737 8.7389278
-94.494034 55.917168 8.3525858
-94.482315 55.924652 7.9667358
-94.462471 55.932598 7.5795274
-94.441475 55.940594 7.1932201
-94.429718 55.948032 6.8101497
-94.738747 55.791508 14.684417
-94.646866 55.887703 9.5463905
-94.642242 55.894817 9.1597528
-94.625977 55.902622 8.7697535
-94.622467 55.909641 8.3850422
-94.603836 55.917553 7.9963417
-94.590988 55.925098 7.610404
-94.573486 55.932903 7.2241583
-94.863472 55.784138 14.719388
-94.761566 55.881107 9.5683613
-94.767464 55.887592 9.1851864
-94.747673 55.895618 8.7932796
-94.733681 55.903278 8.4045982
-94.714989 55.911198 8.0155439
-94.712646 55.918133 7.6321054
-94.688087 55.926361 7.2435198
-94.894577 55.873566 9.5878735
-94.882919 55.88113 9.1973543
-94.877098 55.888325 8.8098583
-94.855988 55.89642 8.418149
-94.840714 55.904148 8.0295248
-94.834816 55.911304 7.6444454
-94.820686 55.91893 7.2578411
-94.805367 55.926613 6.8718162
-94.99868 55.881454 8.8263645
-94.991638 55.888721 8.438549
-94.965675 55.897095 8.0458527
-94.956223 55.904476 7.6591301
-94.906509 55.927769 6.4985657
-95.284752 55.905842 6.5811863
-95.37735 55.907482 6.2066317
-95.521156 55.892651 6.6037531
-95.518211 55.899666 6.2175813
-95.499512 55.907574 5.8292398
-95.961464 55.652184 18.805794
-95.631439 55.893333 6.2291555
