# .PCD v0.7 - Point Cloud Data file format
VERSION 0.7
FIELDS x y z
SIZE 4 4 4
TYPE F F F
COUNT 1 1 1
WIDTH 942
HEIGHT 1
VIEWPOINT 0 0 0 1 0 0 0
POINTS 942
DATA ascii
-99.399651 18.280254 18.228788
-98.762398 18.318316 18.76742
-99.252663 18.288511 18.420835
-99.255989 18.290512 18.132441
-99.257011 18.29266 17.845036
-99.2435 18.295843 17.547876
-99.20295 18.300972 17.230806
-99.277443 18.297699 17.015312
-99.257141 18.301308 16.7215
-99.247009 18.304153 16.439329
-99.207497 18.311167 15.868714
-99.203415 18.313507 15.6001
-99.19091 18.316433 15.327681
-99.18911 18.318571 15.065854
-99.185356 18.320829 14.804917
-99.458229 18.278463 17.957451
-99.426926 18.282963 17.642588
-99.405388 18.28672 17.340143
-99.449806 18.285652 17.096872
-99.442467 18.288332 16.812204
-99.432884 18.291151 16.528687
-99.394386 18.298119 15.955357
-99.384476 18.300894 15.680509
-99.372452 18.303799 15.406791
-99.358315 18.306835 15.134235
-99.367905 18.308147 14.881411
-99.343231 18.311901 14.606405
-99.32946 18.314854 14.341766
-99.313675 18.317928 14.078255
-99.295929 18.321127 13.815898
-99.295952 18.323038 13.567456
-99.294189 18.325064 13.319754
-99.277351 18.328146 13.064643
-99.258636 18.331343 12.81064
-99.251419 18.333708 12.565622
-99.242439 18.336184 12.321443
-99.218254 18.33972 12.070598
-99.212486 18.34194 11.832015
-99.105385 18.370323 9.0690088
-99.092484 18.374569 8.6288376
-99.094818 18.377735 8.1979189
-98.815361 18.445883 1.7558949
-98.82724 18.446669 1.5519118
-98.809204 18.449423 1.3494858
-98.789902 18.452259 1.1473227
-99.467278 18.316849 12.897898
-99.460648 18.319189 12.651195
-99.442055 18.324202 12.160311
-99.42334 18.327353 11.912495
-99.416428 18.329655 11.672953
-99.407829 18.332066 11.434179
-99.404373 18.334101 11.199636
-99.378723 18.337681 10.955667
-99.371948 18.339924 10.72269
-99.363571 18.342268 10.490406
-99.367409 18.34375 10.265059
-99.335068 18.347742 10.024981
-99.328827 18.349905 9.7979336
-99.328011 18.351683 9.5743608
-99.297768 18.35549 9.3401461
-99.293877 18.35746 9.1178598
-99.281494 18.36001 8.8934689
-99.288681 18.361198 8.6773443
-99.287399 18.362967 8.4589872
-99.263527 18.366282 8.2339573
-99.120857 18.397171 5.4515343
-99.112953 18.3993 5.2432742
-99.118111 18.400543 5.0374603
-99.100388 18.403326 4.8286877
-99.088531 18.40571 4.6213264
-99.075363 18.408176 4.4143267
-99.082497 18.409279 4.2098632
-99.059509 18.412397 4.0027394
-99.064056 18.413671 3.798382
-99.052895 18.415993 3.5930099
-99.040443 18.418398 3.3879046
-99.041122 18.419928 3.18365
-99.026093 18.422501 2.9789507
-99.024193 18.424198 2.7747846
-99.028229 18.425505 2.5706215
-99.023766 18.427374 2.3663447
-99.847977 18.250832 18.19282
-99.842949 18.253448 17.896425
-99.835541 18.256214 17.601212
-99.845085 18.259905 17.0403
-99.849739 18.261726 16.763742
-99.83316 18.265066 16.472994
-99.807877 18.269009 16.178658
-99.793083 18.272169 15.895591
-99.776276 18.277506 15.347428
-99.357285 18.376421 6.1120362
-99.335136 18.382767 5.4788518
-99.327446 18.384893 5.2688565
-99.311203 18.387594 5.0581031
-99.315277 18.388922 4.8507938
-99.296356 18.391792 4.6407976
-99.305023 18.392807 4.4345646
-99.28344 18.395849 4.2253036
-100.04698 18.241272 17.722818
-99.968094 18.264114 15.436277
-99.979996 18.265312 15.178587
-99.957184 18.26898 14.898688
-99.945374 18.271839 14.629136
-99.931496 18.274828 14.360688
-99.922218 18.277468 14.097698
-99.917633 18.279758 13.839958
-99.911133 18.282167 13.583095
-99.902733 18.284697 13.327132
-99.899178 18.286865 13.076105
-99.654724 18.341398 8.1001759
-99.650452 18.345051 7.6628489
-99.649734 18.346771 7.4457479
-99.640427 18.349073 7.2270255
-99.615311 18.352448 7.0051131
-99.617493 18.353952 6.791091
-99.618286 18.355547 6.5772586
-99.603279 18.358212 6.3604612
-99.59407 18.360476 6.1457324
-100.2542 18.22439 18.132189
-100.27903 18.266359 12.471883
-100.17711 18.291855 10.039118
-100.17094 18.29406 9.8059139
-100.14898 18.29735 9.5677719
-100.15379 18.298777 9.3413725
-100.14284 18.301283 9.1100769
-100.13031 18.30389 8.8794584
-100.12334 18.306105 8.6519756
-100.12202 18.307922 8.4273977
-100.10483 18.310823 8.1986761
-100.10047 18.312836 7.9750829
-100.08742 18.315435 7.7498245
-100.06564 18.318624 7.5231776
-100.04234 18.321909 7.2973452
-100.04649 18.323311 7.079721
-100.03471 18.325794 6.8587489
-100.03599 18.327381 6.6416488
-100.02858 18.329556 6.4231648
-100.00519 18.332808 6.2020736
-100.00948 18.334179 5.98739
-99.997795 18.336626 5.770134
-99.991997 18.338671 5.5545626
-99.977501 18.341299 5.3381262
-99.954285 18.344509 5.1211009
-99.966232 18.345346 4.909646
-99.947556 18.348242 4.6944356
-99.949455 18.349752 4.4821744
-99.935333 18.352335 4.2684984
-99.927177 18.354513 4.0558443
-99.910316 18.357271 3.8428757
-99.899429 18.359627 3.6307874
-99.894516 18.36158 3.4193342
-99.895584 18.363136 3.208271
-99.887962 18.365269 2.9969585
-99.878998 18.367491 2.7857842
-99.861343 18.370285 2.5747421
-99.857018 18.372196 2.3639145
-99.836678 18.375166 2.1534035
-100.65366 18.205246 17.182669
-100.6914 18.204723 16.925884
-100.6883 18.207136 16.639559
-100.6503 18.212038 16.329954
-100.64253 18.214741 16.046141
-100.63254 18.217581 15.763438
-100.60709 18.221506 15.472611
-100.62581 18.22225 15.215178
-100.59595 18.22645 14.926813
-100.59728 18.228401 14.662008
-100.57646 18.231916 14.385033
-100.57373 18.234121 14.122089
-100.50011 18.252985 12.306891
-100.49583 18.25518 12.058729
-100.4967 18.257002 11.814829
-100.47492 18.260399 11.561206
-100.46527 18.262934 11.315413
-100.43281 18.267046 11.060601
-100.43369 18.268818 10.823083
-100.42584 18.271189 10.582979
-100.41632 18.273664 10.343587
-100.4122 18.275753 10.107874
-100.21626 18.321941 5.7977161
-100.20329 18.324486 5.579174
-100.19622 18.326624 5.3622451
-100.18774 18.328856 5.1456203
-100.19255 18.330189 4.9312763
-100.18862 18.332108 4.7160292
-100.16859 18.335104 4.4993486
-100.16187 18.337202 4.2846527
-100.14642 18.339884 4.0695381
-100.13693 18.342163 3.8553734
-100.12607 18.34453 3.6414554
-100.11383 18.346987 3.4278004
-100.11495 18.348553 3.2149935
-100.09998 18.351189 3.00174
-100.09099 18.353424 2.7889085
-100.08065 18.355747 2.576231
-100.07629 18.357674 2.3636587
-100.07059 18.35969 2.1510987
-100.91881 18.181976 17.923132
-100.9127 18.189167 17.042549
-100.90379 18.192015 16.749544
-100.89255 18.195007 16.457729
-100.85924 18.199564 16.152771
-100.86969 18.200953 15.882521
-100.84491 18.204851 15.589767
-100.84444 18.206985 15.316723
-100.82181 18.210686 15.031127
-100.83052 18.212128 14.768929
-100.80354 18.216097 14.485745
-100.78789 18.21924 14.2125
-100.78374 18.221546 13.948749
-100.76398 18.224943 13.677698
-100.74899 18.227985 13.411877
-100.75261 18.229694 13.158923
-100.7544 18.23152 12.906602
-100.74049 18.234438 12.647408
-100.73162 18.236988 12.392906
-100.72785 18.239162 12.142878
-100.72926 18.240963 11.897101
-100.69389 18.245329 11.634719
-100.69168 18.247356 11.39056
-100.68071 18.249985 11.143765
-100.66798 18.252724 10.897799
-100.57581 18.273544 8.9878101
-100.56947 18.275745 8.7567806
-100.55431 18.278543 8.5239344
-100.55208 18.280445 8.29636
-100.54829 18.282446 8.0691948
-100.50665 18.287033 7.8319573
-100.51431 18.288235 7.6101255
-100.52052 18.289532 7.3884192
-100.42931 18.309301 5.6065083
-100.41501 18.311945 5.3866072
-100.42138 18.313189 5.170383
-100.41158 18.315519 4.9521699
-100.31764 18.338381 2.7925005
-100.99383 18.209002 13.770714
-100.97935 18.212023 13.503058
-100.98355 18.213707 13.248262
-100.97897 18.216 12.990249
-100.9725 18.21841 12.733047
-100.9432 18.222412 12.465631
-100.93986 18.224571 12.21398
-100.92769 18.227339 11.959533
-100.94883 18.227758 11.723196
-100.91895 18.231739 11.463476
-100.91545 18.233862 11.218148
-100.89602 18.237083 10.967092
-100.88189 18.239922 10.720154
-100.85173 18.243862 10.468031
-100.87694 18.243944 10.240681
-100.84328 18.248102 9.9903612
-100.83657 18.25038 9.7524185
-100.8138 18.253757 9.5097122
-100.80376 18.256247 9.2732038
-100.81377 18.257341 9.0449314
-100.79326 18.260532 8.8070803
-100.79286 18.262331 8.5771675
-100.77638 18.265226 8.3431015
-100.75829 18.268223 8.1097813
-100.68322 18.285446 6.5197167
-100.67975 18.289093 6.0764217
-100.66846 18.291555 5.8538103
-100.66307 18.293615 5.6328769
-100.64145 18.296764 5.4099183
-100.65537 18.297514 5.1929407
-100.63084 18.30085 4.9708605
-100.61969 18.303282 4.7512469
-100.54603 18.321575 3.0101945
-100.52958 18.324333 2.7936795
-100.50427 18.327675 2.5774701
-100.52955 18.327667 2.3613243
-100.50888 18.3307 2.145407
-101.34366 18.163443 16.675966
-101.33131 18.166527 16.38187
-101.30585 18.176939 15.249573
-101.28887 18.180248 14.965866
-101.28328 18.18273 14.692047
-101.26877 18.185825 14.414946
-101.23841 18.190027 14.130666
-101.22647 18.192902 13.860133
-101.24008 18.193953 13.606665
-101.21722 18.197569 13.33401
-101.22008 18.199352 13.077992
-101.21408 18.201746 12.818858
-100.88869 18.276796 5.8758988
-100.86919 18.281527 5.4297047
-100.86839 18.283281 5.2087741
-100.86244 18.287077 4.7673569
-100.78139 18.304304 3.2282882
-100.76624 18.306993 3.0097218
-100.76457 18.308783 2.7916815
-100.75402 18.311161 2.5736008
-100.7495 18.313141 2.3556237
-101.61327 18.137753 17.692402
-101.60193 18.14311 17.094383
-101.61253 18.144587 16.811691
-101.60094 18.147636 16.515385
-101.58697 18.150837 16.22031
-101.55721 18.155144 15.917236
-101.54522 18.158155 15.629434
-101.53774 18.160824 15.347282
-101.52807 18.163631 15.066182
-101.52987 18.165604 14.794802
-101.4791 18.173353 14.225327
-101.48837 18.174744 13.965139
-101.48185 18.177238 13.697507
-101.46635 18.180349 13.426862
-101.4558 18.183096 13.161153
-101.45025 18.185474 12.900166
-101.44276 18.187975 12.640005
-101.42205 18.193336 12.122264
-101.41593 18.1957 11.868169
-101.25295 18.231148 8.6687469
-101.24415 18.233545 8.4333096
-101.23372 18.236046 8.1984415
-101.22171 18.238646 7.9641623
-101.2081 18.241348 7.7304926
-101.19286 18.244154 7.4974518
-101.18346 18.246552 7.2668982
-101.18729 18.248045 7.0403481
-101.16738 18.251146 6.8089662
-101.15335 18.253841 6.5798717
-101.15262 18.255627 6.3543196
-101.15038 18.257511 6.128994
-101.79729 18.142721 15.4653
-101.7746 18.146475 15.173302
-101.79072 18.147448 14.908598
-101.77045 18.15099 14.623172
-101.74794 18.154669 14.339034
-101.74403 18.157013 14.06846
-101.71023 18.161453 13.782756
-101.71609 18.163073 13.522117
-101.68691 18.171143 12.725546
-101.6921 18.172758 12.471486
-101.65995 18.176975 12.200392
-101.65424 18.179327 11.944421
-101.62524 18.183292 11.679149
-101.63005 18.184881 11.431503
-101.61158 18.188082 11.174769
-101.59124 18.191401 10.919029
-101.58347 18.193832 10.670354
-101.55946 18.197378 10.416512
-101.56262 18.199028 10.175155
-101.54229 18.202295 9.9259024
-101.52018 18.205673 9.677597
-101.52551 18.207146 9.440671
-101.49264 18.211243 9.1914663
-101.49464 18.212929 8.9556141
-101.48767 18.215221 8.7177687
-101.45699 18.219135 8.4736738
-101.48358 18.219112 8.2480927
-101.45699 18.222727 8.0075846
-101.4509 18.224928 7.7740517
-101.42842 18.228243 7.5371251
-101.4414 18.229132 7.3102055
-101.4306 18.231638 7.0780077
-101.38848 18.236263 6.8396568
-101.41172 18.236441 6.6167469
-101.38879 18.23975 6.3845615
-101.38666 18.241642 6.15734
-101.3681 18.24464 5.9277177
-101.3779 18.245718 5.703639
-101.19154 18.285646 2.1236982
-101.74468 18.192209 9.4948931
-101.68635 18.208975 7.820437
-101.67143 18.211788 7.5835562
-101.6549 18.214705 7.3473172
-101.65167 18.216705 7.1152449
-101.63194 18.219824 6.8801765
-101.63304 18.221521 6.6505508
-101.61015 18.224838 6.4166446
-101.60815 18.226736 6.1877003
-101.59713 18.229239 5.9576745
-101.59208 18.231333 5.7293134
-101.57798 18.234032 5.5000796
-101.55485 18.237335 5.2702503
-101.56026 18.238712 5.0449796
-101.54913 18.241199 4.817914
-101.55157 18.242773 4.5927982
-101.56005 18.24394 4.3684134
-101.5143 18.248735 4.1394954
-101.5198 18.250095 3.9154565
-101.49366 18.253569 3.6894984
-101.50375 18.254623 3.4659793
-101.47466 18.258284 3.2408195
-101.4818 18.259535 3.0172613
-101.45729 18.262884 2.7930732
-101.43886 18.265829 2.5694053
-101.43404 18.26787 2.3459432
-101.41269 18.271004 2.1228085
-101.75072 18.232939 4.1569781
-101.74117 18.235319 3.9299438
-101.7377 18.237295 3.7036054
-101.72517 18.23987 3.4769843
-101.71867 18.242043 3.2509196
-101.71829 18.243807 3.0251667
-101.67098 18.248686 2.7987423
-101.67519 18.250143 2.5734723
-101.67033 18.252201 2.3480933
-101.64886 18.255358 2.1230397
-100.14076 18.363884 1.003348
-99.276978 18.284941 18.675104
-99.301804 18.283369 18.665672
-99.535255 18.268944 18.53067
-99.505585 18.270914 18.530258
-99.678864 18.270031 17.155123
-99.846786 18.251255 18.148182
-99.827385 18.25498 17.831615
-99.853828 18.255381 17.552164
-99.808075 18.260948 17.223112
-99.830139 18.266075 16.367931
-99.837448 18.26775 16.087725
-99.806686 18.27212 15.785187
-99.787659 18.275627 15.493361
-99.787773 18.277754 15.21629
-99.778366 18.28054 14.935721
-99.766624 18.28347 14.656238
-99.954216 18.263935 15.578846
-99.708305 18.321121 10.27131
-99.696968 18.323765 10.025563
-99.676048 18.327061 9.7778072
-99.653244 18.330471 9.5310011
-99.667374 18.331329 9.2981682
-99.643799 18.336588 8.818387
-100.00739 18.270872 14.221636
-100.01161 18.272642 13.955519
-100.00632 18.275068 13.686117
-99.998848 18.277632 13.417618
-99.981766 18.280855 13.146209
-99.969955 18.283689 12.879675
-99.963531 18.286135 12.6178
-99.962555 18.288183 12.360368
-99.929359 18.292467 12.089588
-99.924278 18.294773 11.833926
-99.902008 18.298265 11.572322
-99.892921 18.300823 11.318366
-99.874229 18.304037 11.062031
-99.876526 18.30578 10.816
-99.853912 18.30924 10.561434
-99.837036 18.312288 10.310847
-99.841393 18.313858 10.069721
-99.607292 18.36385 5.5941472
-99.601112 18.365997 5.3685541
-99.585365 18.368784 5.1421981
-99.583984 18.370602 4.9182744
-99.560509 18.375616 4.4693217
-99.562401 18.377205 4.246809
-99.546722 18.379967 4.0230837
-99.550713 18.383123 3.5791054
-99.530357 18.38619 3.3561997
-99.524025 18.391733 2.6910796
-99.500198 18.400105 1.8095672
-100.30158 18.248163 14.63947
-100.27222 18.252346 14.349172
-100.2774 18.25407 14.08075
-100.273 18.256456 13.809034
-100.25896 18.259502 13.534288
-100.15639 18.284555 11.164497
-100.14409 18.287334 10.909774
-100.1298 18.290237 10.655897
-100.12128 18.292727 10.405829
-100.10312 18.295874 10.153633
-100.1063 18.297535 9.9106684
-100.06878 18.301992 9.6547022
-100.07606 18.303352 9.4156542
-100.05815 18.306437 9.1693602
-100.0462 18.309101 8.9263382
-100.04814 18.310802 8.6887064
-100.00904 18.31531 8.4401207
-100.02316 18.316162 8.2080364
-99.988312 18.320354 7.9634538
-99.999031 18.321428 7.7320433
-99.984337 18.324228 7.4949694
-99.959999 18.327675 7.2566991
-99.949783 18.330154 7.0227661
-99.937874 18.332743 6.7893434
-99.924286 18.335438 6.5564485
-99.916977 18.3377 6.3255954
-99.923973 18.338991 6.0979519
-99.905403 18.342005 5.8664098
-99.893166 18.344585 5.6367059
-99.879288 18.347271 5.4074502
-99.871788 18.349522 5.1797237
-99.830627 18.354031 4.9484081
-99.851944 18.35434 4.7252216
-99.831589 18.357441 4.4976802
-99.83371 18.359032 4.2728205
-99.818184 18.361803 4.0467401
-99.809105 18.36414 3.8215985
-99.82254 18.364971 3.5980592
-99.802261 18.36805 3.3727934
-99.788452 18.370695 3.148258
-99.781097 18.37291 2.9242079
-99.756104 18.376291 2.7000871
-99.77774 18.376579 2.4765704
-99.733559 18.381229 2.2530897
-99.703873 18.384912 2.03018
-100.51881 18.205944 18.251472
-100.5134 18.208696 17.940601
-100.54048 18.209095 17.656013
-100.50151 18.214209 17.327494
-100.52355 18.214928 17.044624
-100.54321 18.215801 16.762316
-100.51035 18.220402 16.447649
-100.42535 18.241659 14.419507
-100.42365 18.243883 14.145653
-100.18396 18.299715 8.9600172
-100.17828 18.30195 8.7188482
-100.1787 18.303759 8.4804831
-100.13793 18.308376 8.2316084
-100.14271 18.309872 7.9965625
-100.12202 18.313099 7.7557473
-100.12334 18.314816 7.5214939
-100.09915 18.318262 7.2820239
-100.08116 18.32128 7.0451374
-100.09328 18.322245 6.8155961
-100.07189 18.32548 6.5797434
-100.05676 18.328283 6.3461027
-100.03996 18.33119 6.1130266
-100.04546 18.332586 5.8844976
-100.03334 18.335169 5.6535821
-100.01156 18.338398 5.4219656
-100.01218 18.340111 5.1941724
-99.987099 18.34355 4.9635921
-99.984482 18.345474 4.736351
-99.956154 18.349119 4.5068784
-99.95031 18.351252 4.2802601
-99.942871 18.353489 4.0538487
-99.941872 18.355293 3.828202
-99.923203 18.358276 3.6017179
-99.93512 18.359217 3.37713
-99.921326 18.36187 3.1514606
-99.897888 18.36516 2.9258945
-99.888985 18.367481 2.7010217
-99.886536 18.369375 2.4763198
-99.866417 18.372438 2.2517555
-99.860817 18.374538 2.0272386
-99.773239 18.382051 1.8052018
-100.66704 18.197824 18.030909
-100.6525 18.201221 17.71489
-100.64931 18.203781 17.410147
-100.62214 18.208033 17.091959
-100.67081 18.206842 16.828018
-100.67429 18.208864 16.535814
-100.64642 18.213097 16.226017
-100.64485 18.215435 15.936007
-100.61173 18.219994 15.62909
-100.61248 18.222126 15.345801
-100.59621 18.225447 15.054774
-100.58486 18.228399 14.769227
-100.56641 18.236046 13.935398
-100.47292 18.256857 12.038304
-100.48259 18.258165 11.785342
-100.45966 18.26173 11.519738
-100.42693 18.265961 11.25207
-100.42292 18.268183 10.998133
-100.42468 18.269995 10.74789
-100.39355 18.274071 10.486425
-100.22241 18.308128 7.537528
-100.22022 18.31189 7.0683885
-100.20862 18.314474 6.832644
-100.21127 18.316086 6.6005845
-100.20427 18.318348 6.3672309
-100.19558 18.320719 6.1342673
-100.16922 18.324278 5.8990712
-100.1652 18.326321 5.6683521
-100.15151 18.329012 5.436758
-100.15224 18.330729 5.2077508
-100.15938 18.332012 4.9798532
-100.1247 18.3361 4.747498
-100.11251 18.338673 4.5184112
-100.09869 18.341351 4.2896872
-100.0913 18.343594 4.0619698
-100.08231 18.345942 3.8344772
-100.07172 18.348394 3.6072259
-100.05147 18.351488 3.379869
-100.06992 18.352003 3.1543522
-100.04648 18.355305 2.9274786
-100.04562 18.357103 2.7014008
-100.01093 18.361143 2.4752376
-100.03108 18.361549 2.2492721
-100.00129 18.365261 2.0237467
-99.889397 18.374388 1.8012303
-100.78633 18.189425 18.095451
-100.77929 18.192295 17.783466
-100.79081 18.193811 17.487535
-100.72851 18.200586 17.143833
-100.79911 18.19784 16.893398
-100.78868 18.200863 16.590704
-100.77564 18.20405 16.28924
-100.7455 18.208429 15.979937
-100.75638 18.209873 15.699086
-100.72105 18.214575 15.392567
-100.72715 18.21632 15.113628
-100.73096 18.21821 14.835455
-100.71028 18.221813 14.545597
-100.70205 18.22452 14.265197
-100.69151 18.227371 13.985807
-100.65621 18.231945 13.695697
-100.64104 18.235085 13.418654
-100.63113 18.237837 13.146467
-100.66442 18.237553 12.897311
-100.63513 18.241634 12.619395
-100.66445 18.241606 12.370941
-100.62321 18.24649 12.091646
-100.52253 18.263315 10.77348
-100.5226 18.265242 10.523017
-100.52853 18.26675 10.27596
-100.51704 18.269455 10.023769
-100.50362 18.272282 9.7723398
-100.49612 18.274691 9.5242996
-100.47105 18.278296 9.2718611
-100.4598 18.280941 9.0252895
-100.44672 18.283703 8.7793999
-100.43178 18.286581 8.534214
-100.16833 18.350727 2.4738872
-100.14007 18.354349 2.2469535
-100.15057 18.355404 2.0197625
-100.03041 18.365086 1.7961923
-100.93222 18.181459 17.874882
-100.93021 18.18396 17.567715
-100.88982 18.18918 17.23737
-100.92535 18.188951 16.961569
-100.93703 18.190411 16.671919
-100.90285 18.195114 16.355253
-100.89496 18.197924 16.058519
-100.87724 18.201408 15.758448
-100.87894 18.203497 15.47289
-100.87093 18.206255 15.183902
-100.8531 18.209686 14.891749
-100.84765 18.212225 14.609179
-100.83986 18.214911 14.327586
-100.81483 18.218792 14.038998
-100.80238 18.221769 13.759604
-100.78011 18.225418 13.477434
-100.77819 18.227623 13.207795
-100.78925 18.228905 12.946308
-100.76028 18.232975 12.667334
-100.77477 18.233992 12.410789
-100.74904 18.237801 12.137459
-100.7288 18.241213 11.868708
-100.7218 18.243689 11.607584
-100.68963 18.2479 11.337686
-100.68624 18.250097 11.08151
-100.68087 18.252422 10.826002
-100.68132 18.254333 10.574122
-100.59193 18.273802 8.8157883
-100.58517 18.276133 8.5715914
-100.56864 18.279121 8.3257685
-100.54238 18.282764 8.0785942
-100.53017 18.28544 7.8363709
-100.50024 18.289314 7.5909171
-100.52431 18.289503 7.3593001
-100.43211 18.310181 5.4684162
-100.40891 18.313526 5.2337976
-100.40823 18.315351 5.0027537
-100.31149 18.339476 2.7035949
-100.30907 18.341394 2.4752269
-100.29696 18.343956 2.246927
-100.1629 18.356325 1.7941053
-101.0415 18.171377 18.244101
-101.02256 18.179827 17.310184
-101.01487 18.193985 15.538733
-101.00734 18.19672 15.248567
-100.98257 18.200653 14.950991
-100.97758 18.203169 14.667311
-100.98513 18.204784 14.392764
-100.96803 18.20812 14.106896
-100.96358 18.210548 13.830061
-100.92676 18.215231 13.538761
-100.93285 18.216887 13.271589
-100.92923 18.21921 13.001367
-100.90826 18.222729 12.724769
-100.9003 18.225325 12.456371
-100.88256 18.228588 12.18541
-100.87801 18.230917 11.922212
-100.8637 18.233912 11.6565
-100.85504 18.236502 11.394922
-100.82108 18.240831 11.124838
-100.83158 18.242067 10.874207
-100.80905 18.245579 10.612183
-100.80008 18.24814 10.35691
-100.76569 18.252443 10.094059
-100.76062 18.254711 9.8432159
-100.78507 18.25494 9.6033945
-100.76842 18.257988 9.3509426
-100.73405 18.262241 9.0944462
-100.74519 18.263363 8.8532286
-100.73075 18.266228 8.6054077
-100.63913 18.281744 7.3793578
-100.63776 18.283669 7.1413374
-100.63467 18.285704 6.903646
-100.58977 18.290569 6.6584048
-100.58319 18.292828 6.4218583
-100.60706 18.293022 6.1913261
-100.57298 18.297129 5.9512644
-100.56937 18.299173 5.7170811
-100.48927 18.317049 4.0857363
-100.48855 18.318871 3.8553832
-100.48621 18.320801 3.6250956
-100.45792 18.324455 3.3937979
-100.46041 18.326059 3.1642344
-100.45317 18.32831 2.9344249
-100.46051 18.329592 2.7049577
-100.31178 18.346493 1.7902299
-100.9444 18.236301 10.652612
-100.93574 18.238852 10.396169
-100.9016 18.243147 10.132146
-100.90469 18.244864 9.8828115
-100.89802 18.247242 9.6313162
-100.88157 18.250284 9.3779354
-100.87901 18.252363 9.1302414
-100.87458 18.25456 8.8830538
-100.85247 18.257961 8.6318645
-100.8364 18.260937 8.3837414
-100.82645 18.263487 8.1384506
-100.80671 18.266695 7.8917418
-100.81709 18.267843 7.6535029
-100.77773 18.272369 7.4043589
-100.7766 18.274288 7.1651349
-100.78973 18.275232 6.9295688
-100.68787 18.293024 5.4962025
-100.67297 18.295828 5.2604733
-100.69675 18.296028 5.0300908
-100.67041 18.299593 4.7940168
-100.67473 18.301094 4.561831
-100.65311 18.304333 4.3275189
-100.64603 18.306593 4.0950098
-100.55853 18.324875 2.4746685
-100.56265 18.326378 2.2441289
-100.56516 18.32799 2.0134289
-101.31422 18.154524 18.086746
-101.31381 18.156942 17.77632
-101.31071 18.159531 17.466999
-101.26891 18.164858 17.134909
-101.33263 18.162638 16.875349
-101.30714 18.166756 16.559917
-101.32267 18.167936 16.273342
-101.26639 18.178656 15.36587
-101.27215 18.180454 15.083037
-101.26812 18.182926 14.79682
-101.22437 18.188179 14.49117
-101.2305 18.189899 14.215304
-100.87045 18.27532 6.2242322
-100.86077 18.2778 5.9858832
-100.84937 18.280388 5.7479548
-100.85241 18.281998 5.5127587
-100.75966 18.30262 3.6336002
-100.734 18.307907 3.1680284
-100.73495 18.309633 2.9360504
-100.70177 18.313622 2.7036278
-100.71169 18.316536 2.2401042
-100.58517 18.328463 1.7798965
-101.47513 18.154989 16.642763
-101.46201 18.158218 16.336515
-101.28706 18.200748 12.320918
-101.28563 18.204922 11.791635
-101.25465 18.209091 11.516871
-101.2526 18.211237 11.255804
-101.25632 18.212975 10.998409
-101.21897 18.217541 10.726852
-101.20301 18.220613 10.46522
-101.19286 18.223274 10.207249
-101.18076 18.226059 9.9500265
-101.16435 18.232979 9.1928053
-101.61764 18.135599 17.934288
-101.59402 18.139679 17.607815
-101.55303 18.14497 17.273373
-101.60338 18.143726 17.001999
-101.6224 18.144701 16.712091
-101.60239 18.14843 16.400059
-101.60909 18.150242 16.107328
-101.56167 18.155869 15.784685
-101.57069 18.157476 15.498511
-101.54014 18.161863 15.191899
-101.54431 18.163776 14.907622
-101.49756 18.173588 14.036181
-101.46959 18.177691 13.744233
-101.45438 18.180878 13.461186
-101.46739 18.182076 13.193937
-101.46299 18.184479 12.91998
-101.45641 18.187019 12.646853
-101.46304 18.188625 12.381441
-101.42899 18.19305 12.099846
-101.42393 18.197472 11.569527
-101.40662 18.200687 11.300771
-101.25398 18.23457 8.2158222
-101.22667 18.238323 7.9634466
-101.22156 18.240555 7.7177706
-101.22265 18.242359 7.4743814
-101.20587 18.245369 7.2278013
-101.21146 18.246857 6.9868684
-101.17496 18.251188 6.7382317
-101.177 18.252905 6.4980879
-101.15305 18.256372 6.2539454
-101.13542 18.259405 6.0118642
-101.14034 18.260912 5.7740626
-101.13544 18.263077 5.5352106
-100.95612 18.302235 1.9948491
-101.76415 18.125326 18.007956
-101.74818 18.12887 17.685125
-101.74381 18.131563 17.373281
-101.72221 18.13546 17.053198
-101.77079 18.13434 16.780859
-101.76588 18.137011 16.476683
-101.75835 18.139843 16.173613
-101.72607 18.144411 15.85851
-101.72073 18.147045 15.562296
-101.71291 18.149839 15.26713
-101.68764 18.153843 14.964732
-101.67483 18.156946 14.67191
-101.65204 18.160734 14.376232
-101.67216 18.161489 14.10537
-101.65977 18.164513 13.819566
-101.61269 18.172068 13.243843
-101.60859 18.174459 12.96867
-101.6023 18.176989 12.694322
-101.59382 18.179659 12.420826
-101.56769 18.18354 12.141517
-101.58586 18.18433 11.88302
-101.56315 18.187946 11.608891
-101.54606 18.191158 11.338981
-101.5112 18.195585 11.064019
-101.51338 18.197435 10.805056
-101.51356 18.199415 10.546623
-101.50389 18.202065 10.285976
-101.47643 18.205927 10.020713
-101.48647 18.207197 9.7695341
-101.45498 18.211313 9.5060797
-101.44532 18.213919 9.2510557
-101.41779 18.217739 8.9920139
-101.41223 18.220041 8.7407713
-101.41278 18.22192 8.49224
-101.39548 18.22501 8.2399254
-101.3763 18.22822 7.9883623
-101.21254 18.268932 4.1123075
-101.19567 18.271881 3.8746161
-101.18527 18.274395 3.6377831
-101.18134 18.276476 3.4015646
-101.17572 18.278667 3.165447
-101.15211 18.282053 2.9290805
-101.15943 18.283382 2.6935852
-101.14063 18.286444 2.4578681
-101.1283 18.289076 2.22242
-101.1143 18.291815 1.9871625
-101.77842 18.1563 13.865417
-101.78687 18.157854 13.590971
-101.77016 18.161156 13.306114
-101.72678 18.172565 12.198235
-101.72206 18.174955 11.92855
-101.72301 18.176941 11.662806
-101.69064 18.181223 11.385292
-101.67956 18.184015 11.118131
-101.6664 18.186939 10.851805
-101.64328 18.190538 10.583491
-101.64175 18.192636 10.324521
-101.6066 18.197037 10.055404
-101.59312 18.199934 9.7953424
-101.58559 18.202412 9.5385799
-101.56818 18.205557 9.2800312
-101.56474 18.207733 9.0270004
-101.55141 18.210579 8.7722263
-101.5522 18.212452 8.5225058
-101.53507 18.21554 8.2689972
-101.52409 18.218199 8.01824
-101.51124 18.220978 7.7680845
-101.49654 18.223875 7.5185494
-101.49612 18.225792 7.2731457
-101.47776 18.228924 7.0247431
-101.47375 18.231073 6.7801681
-101.45986 18.233887 6.5344648
-101.44417 18.236814 6.2893119
-101.42669 18.239857 6.0447288
-101.43993 18.240822 5.805645
-101.41893 18.244091 5.5619144
-101.40429 18.246927 5.3198667
-101.37978 18.25042 5.0773253
-101.38611 18.251837 4.8389726
-101.3744 18.254461 4.5990233
-101.38548 18.255556 4.3615503
-101.37037 18.258402 4.1220722
-101.33499 18.264427 3.6443152
-101.33108 18.266516 3.4067895
-101.32635 18.270485 2.932241
-101.74547 18.189491 9.8408098
-101.7383 18.191956 9.582696
-101.70524 18.196186 9.317934
-101.71008 18.197805 9.0660601
-101.68926 18.205038 8.3063116
-101.67856 18.207689 8.0541859
-101.67402 18.209915 7.8045764
-101.66763 18.212257 7.5554137
-101.64326 18.215815 7.3032255
-101.63319 18.218393 7.0551901
-101.61321 18.221636 6.8060884
-101.62384 18.222799 6.5636392
-101.60835 18.225725 6.3170156
-101.5748 18.229864 6.0683293
-101.58825 18.230825 5.82795
-101.57554 18.233547 5.5840578
-101.56106 18.236382 5.3406196
-101.55298 18.238781 5.0986223
-101.52682 18.24239 4.8551793
-101.52342 18.244467 4.6148057
-101.5183 18.246658 4.3746133
-101.50327 18.249506 4.1340003
-101.47834 18.253014 3.8932464
-101.48441 18.254448 3.654865
-101.44785 18.25872 3.4145927
-101.48325 18.258204 3.1775682
-101.46783 18.261065 2.9386792
-101.42616 18.265665 2.6998065
-101.44008 18.266577 2.4618604
-101.43592 18.268688 2.2237165
-101.40553 18.272532 1.9860797
-102.15373 18.105028 17.292879
-102.16571 18.111238 16.384027
-102.16457 18.113632 16.082964
-102.15343 18.116716 15.778585
-102.13222 18.120491 15.471158
-102.13843 18.122309 15.181734
-102.11209 18.126404 14.876777
-102.11343 18.128531 14.589251
-102.00653 18.181456 8.6394272
-101.75155 18.242147 2.9545846
-101.74273 18.244589 2.7136569
-101.72398 18.247686 2.472868
-101.71992 18.249809 2.2322791
-101.68953 18.253672 1.9921855
-102.48051 18.086744 16.856562
-102.47575 18.089443 16.54726
-102.13023 18.175011 8.4123993
-102.27055 18.165487 8.4419241
-102.26076 18.168118 8.1847553
-102.26524 18.169767 7.9320202
-102.25238 18.174536 7.4238658
-102.01677 18.228277 2.4747212
-102.00446 18.230965 2.2316754
-101.9904 18.233767 1.9888192
-102.46896 18.152054 8.4796371
-102.4519 18.161076 7.4554114
-102.44289 18.163637 7.2004938
