# .PCD v0.7 - Point Cloud Data file format
VERSION 0.7
FIELDS x y z
SIZE 4 4 4
TYPE F F F
COUNT 1 1 1
WIDTH 1558
HEIGHT 1
VIEWPOINT 0 0 0 1 0 0 0
POINTS 1558
DATA ascii
-99.482857 22.776192 5.7687426
-99.428246 22.442043 9.4796505
-99.47052 22.646118 6.2321477
-99.471725 22.631516 5.9990568
-99.473274 22.622719 5.7679815
-99.476082 22.634605 5.5409927
-99.476974 22.615278 5.3098459
-99.479126 22.616682 5.0824757
-99.481186 22.61657 4.8554325
-99.483604 22.622395 4.6295433
-99.485466 22.619265 4.4031205
-99.489075 22.644497 4.1796169
-99.49028 22.630905 3.9530759
-99.493248 22.645721 3.7289667
-99.495193 22.644102 3.50402
-99.497505 22.648485 3.2796352
-99.499725 22.651392 3.0553684
-99.502319 22.660324 2.8313491
-99.510963 22.700823 2.1587799
-99.362206 22.077612 14.239698
-99.365532 22.092464 13.975892
-99.367577 22.085121 13.700787
-99.371407 22.109404 13.446539
-99.373947 22.111452 13.181207
-99.458176 22.412342 5.9830194
-99.46106 22.425592 5.7567048
-99.463402 22.429956 5.5293365
-99.465187 22.425413 5.3011909
-99.467331 22.426744 5.0745115
-99.470291 22.441401 4.8499503
-99.470413 22.410048 4.6205359
-99.501724 22.520622 1.9360181
-99.308479 21.644703 17.174128
-99.348099 21.841829 14.170692
-99.351761 21.862841 13.912238
-99.354538 21.868513 13.646338
-99.360443 21.887278 13.12499
-99.387878 21.922659 10.349848
-99.390923 21.936604 10.111455
-99.393433 21.941807 9.8707123
-99.394997 21.931128 9.6251974
-99.447098 22.199509 5.7380981
-99.448524 22.189014 5.5095434
-99.450745 22.191717 5.2837653
-99.452866 22.192926 5.0582976
-99.454445 22.185253 4.8322654
-99.456825 22.190863 4.6083684
-99.483376 22.324232 2.6043973
-99.485779 22.330168 2.381305
-99.2976 21.464249 17.130564
-99.343674 21.647652 13.322942
-99.432709 21.966253 5.7172461
-99.435013 21.970352 5.4922128
-99.437218 21.972961 5.2674747
-99.438431 21.959396 5.0410895
-99.440895 21.966381 4.8180609
-99.44236 21.957182 4.5935941
-99.455025 22.031179 3.7090788
-99.457855 22.044264 3.4874845
-99.327202 21.413054 13.522023
-99.360954 21.479485 10.265182
-99.422348 21.732016 5.2467723
-99.424889 21.740364 5.0246277
-99.425995 21.725288 4.7999682
-99.428345 21.730715 4.5784178
-99.253006 20.88797 18.074732
-99.256874 20.907681 17.784845
-99.399178 21.488066 6.1193862
-99.409309 21.521004 5.2305584
-99.411392 21.521969 5.0083923
-99.41114 21.485008 4.7821131
-99.413925 21.497637 4.5626693
-99.25264 20.748184 17.153891
-99.395393 21.295858 5.2135901
-99.397018 21.28948 4.9915776
-99.398987 21.288908 4.7709603
-99.401306 21.294172 4.551496
-99.231316 20.476645 17.633205
-99.241112 20.555986 17.101068
-99.370201 21.017778 6.0734191
-99.383987 21.079226 4.9788685
-99.385506 21.071373 4.7583203
-99.38826 21.083807 4.5406985
-99.277939 20.434521 12.213919
-99.281754 20.461382 11.978706
-99.286354 20.463194 11.485064
-99.290237 20.491735 11.254611
-99.297691 20.544104 10.794201
-99.301956 20.542404 10.313454
-99.370087 20.854362 4.9626656
-99.372032 20.853693 4.7441354
-99.374771 20.866035 4.5275559
-99.202255 20.031469 17.769794
-99.272629 20.274456 11.697307
-99.275436 20.284361 11.456754
-99.27813 20.292557 11.216832
-99.281494 20.312519 10.984094
-99.284363 20.32412 10.748518
-99.285538 20.306969 10.501078
-99.288979 20.328806 10.272953
-99.29351 20.369566 10.053871
-99.295555 20.367861 9.8174515
-99.298698 20.385082 9.5901136
-99.300529 20.380131 9.3550301
-99.303467 20.394239 9.1285658
-99.305901 20.399906 8.8999281
-99.30864 20.410959 8.6742487
-99.310455 20.406591 8.4442587
-99.313004 20.414591 8.2195253
-99.314613 20.407112 7.990859
-99.318634 20.440102 7.7755079
-99.320465 20.436623 7.5499067
-99.322617 20.438662 7.3268685
-99.324249 20.432173 7.1024876
-99.327911 20.459492 6.8875265
-99.331062 20.478373 6.6707439
-99.333267 20.481684 6.45084
-99.335815 20.490658 6.2328176
-99.339561 20.519562 6.0192404
-99.343658 20.554249 5.8067155
-99.34594 20.559072 5.5888481
-99.348572 20.569633 5.3724117
-99.350235 20.564505 5.1539917
-99.353996 20.593773 4.9409194
-99.355484 20.58585 4.7230721
-99.359528 20.619598 4.5105348
-99.366043 20.661551 4.0821152
-99.185501 19.79397 17.980259
-99.265945 20.092625 11.182479
-99.26812 20.092258 10.940773
-99.271355 20.110344 10.709455
-99.273697 20.113348 10.472308
-99.276726 20.128225 10.241917
-99.279648 20.141527 10.011936
-99.281265 20.13283 9.77384
-99.283974 20.142942 9.5449934
-99.286995 20.158352 9.3193016
-99.289505 20.165377 9.0913343
-99.29232 20.177748 8.8663931
-99.294632 20.181707 8.6393852
-99.296844 20.184135 8.4129276
-99.300186 20.205858 8.193819
-99.302208 20.205286 7.968266
-99.304955 20.217146 7.7474999
-99.30761 20.227556 7.527019
-99.310165 20.236523 7.3068423
-99.313484 20.258085 7.0906534
-99.31459 20.243105 6.865725
-99.317719 20.261837 6.6499763
-99.319916 20.265076 6.4311075
-99.323296 20.288099 6.2170987
-99.324448 20.274361 5.9959693
-99.327225 20.287531 5.7808776
-99.329483 20.292227 5.5646558
-99.332085 20.302645 5.3498669
-99.335472 20.325943 5.1373234
-99.336159 20.305117 4.9187636
-99.338501 20.311419 4.704596
-99.340752 20.316357 4.4906116
-99.344246 20.341408 4.2789545
-99.345886 20.336485 4.0645027
-99.348328 20.34453 3.8515275
-99.350235 20.344057 3.6381783
-99.353394 20.363771 3.4261782
-99.355576 20.367792 3.2133884
-99.358124 20.377657 3.0009091
-99.360588 20.386189 2.7883949
-99.367485 20.40377 2.1508067
-99.173241 19.589046 17.919735
-99.176704 19.602272 17.629623
-99.252975 19.879761 11.146356
-99.254738 19.872541 10.902369
-99.258728 19.90373 10.678493
-99.261444 19.913288 10.445357
-99.263657 19.914495 10.209763
-99.266159 19.920818 9.977849
-99.269356 19.939106 9.7522364
-99.272049 19.949081 9.5241432
-99.274246 19.950695 9.2938414
-99.276741 19.957571 9.0668001
-99.279541 19.969769 8.8427868
-99.281425 19.966728 8.6142769
-99.283615 19.969023 8.388835
-99.28653 19.983622 8.1684866
-99.289352 19.99678 7.9483891
-99.292084 20.008501 7.7285609
-99.294724 20.018782 7.5090194
-99.297272 20.027632 7.2897835
-99.299721 20.035053 7.0708709
-99.301239 20.027048 6.8488026
-99.304779 20.052637 6.6357493
-99.307381 20.062834 6.4194026
-99.309044 20.057562 6.2002974
-99.312325 20.079062 5.9873924
-99.314659 20.085096 5.7717624
-99.31691 20.089748 5.5564046
-99.319069 20.093023 5.3413372
-99.322006 20.109106 5.1286926
-99.32312 20.095448 4.9121394
-99.326759 20.123043 4.7015805
-99.335228 20.134703 3.8496861
-99.33757 20.141397 3.6377435
-99.339836 20.146757 3.4258921
-99.341568 20.143635 3.213872
-99.345886 20.182119 3.0032799
-99.346558 20.16202 2.7911463
-99.15731 19.366808 18.144411
-99.164955 19.406433 17.575674
-99.237137 19.655085 11.344231
-99.240524 19.675827 11.113878
-99.242271 19.668432 10.87079
-99.245842 19.692612 10.644639
-99.247749 19.688534 10.406291
-99.250336 19.696186 10.174872
-99.253204 19.708981 9.9469719
-99.255974 19.720232 9.7195091
-99.258247 19.723177 9.4897327
-99.261612 19.744921 9.2686548
-99.264091 19.7516 9.0425358
-99.267265 19.770412 8.8219643
-99.268738 19.760401 8.5918627
-99.272133 19.783125 8.3743896
-99.273804 19.776928 8.1479311
-99.276604 19.78989 7.9287672
-99.279312 19.801424 7.7098737
-99.281517 19.804607 7.4892631
-99.284042 19.813282 7.2710505
-99.286057 19.813583 7.0513272
-99.288818 19.826385 6.8356175
-99.291916 19.844788 6.6217599
-99.294502 19.854839 6.4063582
-99.29615 19.849499 6.1881952
-99.298981 19.863794 5.9748335
-99.300873 19.862679 5.7589178
-99.303108 19.867216 5.5446815
-99.306541 19.891541 5.3341746
-99.308167 19.886314 5.1192169
-99.3097 19.879711 4.9047565
-99.312889 19.900043 4.6943555
-99.324074 19.92519 3.6366069
-99.326759 19.937622 3.426162
-99.329811 19.955866 3.2159269
-99.332787 19.972811 3.0054667
-99.218933 19.427135 11.779994
-99.222122 19.444187 11.546172
-99.224449 19.446493 11.305943
-99.227806 19.466862 11.076571
-99.230682 19.479063 10.844269
-99.233452 19.489668 10.612487
-99.235336 19.485367 10.375042
-99.238289 19.499432 10.147552
-99.241135 19.511959 9.9204788
-99.243881 19.522959 9.6938457
-99.245735 19.518955 9.4621325
-99.24868 19.53363 9.2392893
-99.251526 19.546833 9.0167751
-99.253075 19.538174 8.7870579
-99.256126 19.555201 8.5679474
-99.25869 19.563969 8.3467073
-99.261154 19.571281 8.1258717
-99.263931 19.584007 7.907639
-99.265793 19.581556 7.6854925
-99.268387 19.591425 7.4679937
-99.269646 19.579153 7.2450352
-99.271637 19.579241 7.0265908
-99.275627 19.6126 6.8174171
-99.278275 19.623812 6.6029229
-99.281258 19.640621 6.390214
-99.283737 19.649115 6.1760645
-99.286552 19.663233 5.9635625
-99.288429 19.662016 5.7485042
-99.291069 19.673437 5.5363622
-99.293198 19.676506 5.3231902
-99.29567 19.685251 5.1113873
-99.298492 19.699703 4.9007106
-99.300362 19.698751 4.6882529
-99.31192 19.730536 3.6352828
-99.314598 19.742867 3.4256179
-99.316307 19.739721 3.2153306
-99.318825 19.749447 3.0057223
-99.319931 19.736582 2.795768
-99.134232 18.981165 18.032396
-99.138054 19.001171 17.749187
-99.148643 19.047802 16.905085
-99.152527 19.070787 16.635839
-99.206993 19.231672 11.748898
-99.209785 19.241915 11.512374
-99.212845 19.257044 11.279906
-99.214661 19.250896 11.037864
-99.218269 19.275932 10.813167
-99.220245 19.273054 10.575914
-99.224037 19.301643 10.355061
-99.226578 19.308849 10.12521
-99.228622 19.307819 9.8930082
-99.231346 19.318567 9.6672888
-99.233971 19.327803 9.44203
-99.235703 19.322075 9.2118778
-99.238525 19.335014 8.9903708
-99.240852 19.339727 8.766695
-99.243484 19.349737 8.5459929
-99.245621 19.351498 8.3233299
-99.248466 19.365414 8.1057739
-99.251228 19.377926 7.888474
-99.253075 19.375334 7.6672573
-99.254829 19.371283 7.4466748
-99.257309 19.379536 7.2305913
-99.260109 19.393291 7.0166745
-99.261993 19.391872 6.7994261
-99.264626 19.402885 6.5860453
-99.266747 19.405611 6.3712921
-99.270882 19.441687 6.1644096
-99.273254 19.448681 5.9514456
-99.275536 19.454323 5.7387409
-99.27774 19.458622 5.5263109
-99.279854 19.461578 5.3141732
-99.28273 19.47719 5.1044693
-99.285538 19.491499 4.8947444
-99.28653 19.47645 4.6814585
-99.298882 19.521854 3.63503
-99.300667 19.519989 3.4255874
-99.301933 19.50976 3.2161467
-99.197769 19.045231 11.482352
-99.200424 19.053593 11.247265
-99.203354 19.066851 11.016179
-99.205421 19.065428 10.779056
-99.208145 19.075489 10.549166
-99.211143 19.090584 10.322929
-99.213654 19.097544 10.094073
-99.215683 19.096313 9.8628635
-99.218773 19.11347 9.6410007
-99.221764 19.129169 9.4194336
-99.22348 19.12332 9.1901121
-99.226685 19.142771 8.9720497
-99.229393 19.154079 8.7516508
-99.230804 19.143686 8.524313
-99.233727 19.158831 8.3072796
-99.235748 19.159004 8.0859518
-99.238083 19.16452 7.867404
-99.240723 19.17543 7.6513977
-99.243279 19.184956 7.4356852
-99.24575 19.193096 7.2202835
-99.248535 19.206718 7.0070505
-99.250824 19.212116 6.7922373
-99.25386 19.229918 6.5811253
-99.256393 19.239496 6.3684673
-99.258415 19.240822 6.1545382
-99.261192 19.254635 5.9438448
-99.263474 19.260195 5.7319136
-99.265656 19.264421 5.5202589
-99.268181 19.274273 5.3100471
-99.270203 19.275848 5.0989079
-99.27256 19.283072 4.8890715
-99.274406 19.282003 4.6785135
-99.285835 19.31307 3.6350775
-99.288048 19.31822 3.4269569
-99.290611 19.329109 3.2192254
-99.293983 19.352785 3.0118315
-99.10685 18.566477 18.193661
-99.182045 18.820965 11.670382
-99.18515 18.837069 11.439243
-99.187782 18.845121 11.205135
-99.190681 18.858053 10.97503
-99.193855 18.875942 10.748705
-99.195793 18.872684 10.513177
-99.198387 18.880917 10.284742
-99.201256 18.894192 10.059901
-99.203651 18.899359 9.8325453
-99.206322 18.909622 9.6086578
-99.2089 18.918396 9.3852348
-99.211388 18.92569 9.1622963
-99.214165 18.938192 8.9424658
-99.216057 18.935852 8.7179499
-99.218651 18.945456 8.4990168
-99.220749 18.946896 8.2781248
-99.223549 18.960392 8.0623474
-99.226265 18.972504 7.8468275
-99.227676 18.962877 7.6252966
-99.230621 18.978991 7.4126158
-99.234291 19.007395 7.2039285
-99.236656 19.014023 6.9895377
-99.238106 19.0056 6.771986
-99.2407 19.016331 6.5601478
-99.243629 19.032598 6.3501015
-99.245224 19.026917 6.1356215
-99.247147 19.026754 5.923141
-99.250237 19.045958 5.7150636
-99.25367 19.070793 5.5081549
-99.25576 19.073599 5.2975698
-99.257339 19.068151 5.0862308
-99.260101 19.082199 4.8783236
-99.26194 19.081068 4.668632
-99.270584 19.098379 3.8363347
-99.2733 19.111715 3.6295335
-99.275505 19.116802 3.422282
-99.278061 19.127609 3.2154193
-99.280533 19.137152 3.0085053
-99.280746 19.11042 2.8010232
-99.09536 18.371719 18.118397
-99.098915 18.386782 17.831404
-99.103233 18.416712 17.561583
-99.109596 18.435724 16.992428
-99.113182 18.453499 16.719843
-99.167213 18.610653 11.856193
-99.169662 18.615189 11.618225
-99.173103 18.637323 11.391571
-99.175705 18.64505 11.15836
-99.178574 18.657639 10.929152
-99.180588 18.655695 10.693921
-99.183632 18.671656 10.469108
-99.185814 18.67305 10.238479
-99.18866 18.685982 10.014627
-99.191017 18.690851 9.78827
-99.194054 18.707396 9.5682325
-99.19622 18.70927 9.3429575
-99.199455 18.729546 9.1263933
-99.201424 18.728468 8.9021978
-99.20369 18.732569 8.6812124
-99.206253 18.741907 8.4632063
-99.209129 18.75654 8.247942
-99.211906 18.769798 8.0329208
-99.213799 18.768204 7.8138065
-99.216408 18.778692 7.5994973
-99.218918 18.787813 7.3854852
-99.22094 18.788792 7.1698666
-99.223282 18.795181 6.9565873
-99.225937 18.807034 6.7454081
-99.228928 18.824383 6.5360889
-99.231003 18.826765 6.3236532
-99.233414 18.83465 6.113111
-99.236153 18.848083 5.9042201
-99.238388 18.853352 5.6940999
-99.240128 18.850426 5.4830251
-99.242195 18.853065 5.2735653
-99.245018 18.868202 5.0665379
-99.246925 18.86825 4.8575454
-99.249588 18.880838 4.6506705
-99.251755 18.885231 4.4430099
-99.254684 18.902214 4.2369771
-99.255829 18.890182 4.0283141
-99.258606 18.904636 3.8223882
-99.26001 18.896982 3.6150112
-99.262627 18.908915 3.4091685
-99.265602 18.926558 3.203537
-99.267632 18.929028 2.9973018
-99.270447 18.94417 2.7914119
-99.272316 18.944122 2.5852983
-99.274109 18.942816 2.3793561
-99.27713 18.961178 2.1731248
-99.277451 18.936426 1.968049
-99.076401 18.140873 18.617512
-99.155251 18.411896 11.805941
-99.158401 18.428865 11.57605
-99.160713 18.431492 11.339591
-99.163658 18.445305 11.110785
-99.166496 18.457571 10.882478
-99.168488 18.455374 10.648156
-99.171875 18.477489 10.427425
-99.17366 18.472147 10.194529
-99.176476 18.484774 9.9715862
-99.178429 18.482836 9.7432127
-99.181816 18.505617 9.5270185
-99.18396 18.507257 9.3026676
-99.186394 18.514006 9.0816545
-99.189117 18.525928 8.8637505
-99.19175 18.53644 8.6462059
-99.193901 18.538889 8.4266129
-99.197144 18.559931 8.2146177
-99.199501 18.566257 7.9981823
-99.202179 18.577902 7.7843547
-99.203957 18.574741 7.5666323
-99.206047 18.576906 7.3515539
-99.20845 18.584448 7.1388817
-99.211174 18.59741 6.9283757
-99.214226 18.615841 6.7197962
-99.21637 18.619396 6.5079226
-99.218842 18.628424 6.2980099
-99.220818 18.629326 6.0868397
-99.22271 18.628901 5.8760891
-99.225342 18.640833 5.668407
-99.22831 18.658337 5.4620619
-99.229111 18.640284 5.2499561
-99.231918 18.655228 5.0439625
-99.234222 18.662039 4.8369827
-99.23687 18.674463 4.6310582
-99.239441 18.685635 4.425149
-99.241508 18.688654 4.2185626
-99.244347 18.704218 4.0134387
-99.246681 18.71163 3.8076696
-99.248077 18.703951 3.6010845
-99.250679 18.715771 3.3960216
-99.252777 18.719423 3.1906211
-99.255219 18.728756 2.985532
-99.257591 18.736847 2.7804096
-99.259888 18.743694 2.5752695
-99.261665 18.742359 2.370203
-99.264671 18.760605 2.1648357
-99.264984 18.735943 1.9606502
-99.178658 18.355705 8.8442039
-99.183807 18.37505 8.4105043
-99.188599 18.38883 7.9784017
-99.19046 18.386969 7.7608232
-99.193024 18.397083 7.5480423
-99.195908 18.412563 7.3375635
-99.197495 18.406567 7.1214857
-99.199799 18.412653 6.9097466
-99.201614 18.410656 6.6966166
-99.203743 18.414068 6.4856873
-99.207016 18.43648 6.2798634
-99.208153 18.423714 6.0664968
-99.210854 18.436775 5.8594961
-99.21347 18.448568 5.6525884
-99.215591 18.452276 5.4445634
-99.217216 18.44787 5.2356968
-99.219589 18.455839 5.0294256
-99.222717 18.476234 4.8252468
-99.22451 18.474842 4.6182532
-99.227493 18.49276 4.4140038
-99.228279 18.475107 4.2060804
-99.231941 18.504286 4.0032353
-99.233414 18.497852 3.7972708
-99.236504 18.517704 3.593514
-99.23867 18.522549 3.3887873
-99.240326 18.51926 3.1838999
-99.24276 18.528524 2.9796805
-99.245552 18.543461 2.7755249
-99.247398 18.543358 2.5711586
-99.249603 18.548925 2.3668876
-99.251732 18.553263 2.1626303
-99.252045 18.528715 1.9594105
-99.046478 17.729103 19.077953
-99.052261 17.784603 18.823885
-99.240921 18.380634 2.1649454
-99.241669 18.363079 1.9619917
-100.56006 41.732391 17.587826
-100.56461 41.732624 17.088793
-100.51682 41.011829 17.391636
-100.48065 40.410564 17.235855
-100.48644 40.433231 16.754717
-100.49297 40.468651 16.279758
-100.43533 39.729248 17.537863
-100.44321 39.787506 17.071915
-100.45085 39.842052 16.606173
-100.46124 39.942791 16.156492
-100.46294 39.898365 15.662708
-100.47087 39.958439 15.203176
-100.47808 40.006535 14.741286
-100.40203 39.175632 17.395376
-100.4093 39.2244 16.930456
-100.41486 39.244652 16.457766
-100.42216 39.29422 15.996539
-100.42624 39.290272 15.52031
-100.43455 39.357414 15.067616
-100.45111 39.4203 13.677917
-100.45852 39.473141 13.226096
-100.36583 38.573517 17.23802
-100.37493 38.65382 16.788633
-100.42789 38.900486 12.658717
-100.28099 37.3036 17.841034
-100.25038 36.794575 17.708813
-100.25957 36.877953 17.271099
-100.26422 36.884903 16.807148
-100.35991 37.322941 9.290967
-100.21744 36.245567 17.558376
-100.25365 36.434452 14.872282
-100.25751 36.430302 14.420036
-100.28099 36.551346 12.668608
-100.28968 36.562443 11.789074
-100.25167 36.003056 12.125092
-100.28449 36.155174 9.5600414
-100.28864 36.159393 9.1322241
-100.2931 36.168736 8.7064323
-100.29734 36.17485 8.2811813
-100.35419 36.412769 3.6622987
-100.35972 36.440327 3.243716
-100.36347 36.439335 2.8244958
-100.23965 35.549469 10.328816
-100.25556 35.620251 9.064702
-100.25996 35.629139 8.6426249
-100.26517 35.651566 8.223608
-100.26966 35.662479 7.8036537
-100.27448 35.678623 7.3852229
-100.28558 35.73513 6.5529327
-100.28979 35.741928 6.135149
-100.07461 34.005119 17.868576
-100.00191 32.861343 18.003456
-99.902161 31.265453 18.005013
-99.808174 29.760838 18.000006
-99.739647 28.677799 18.093552
-99.718002 28.320837 18.02006
-99.632523 26.9582 18.055729
-99.812836 27.612446 2.7161191
-99.814148 27.372118 0.91968507
-99.568687 25.948797 18.138613
-99.786835 26.935282 0.92071205
-99.48938 24.678967 18.133362
-99.41188 23.440523 18.145489
-99.560677 24.053366 5.9888144
-99.547028 23.435169 3.2394419
-99.442574 22.632027 9.2099686
-99.413666 22.209675 9.4864902
-99.261826 21.045044 18.184177
-99.322281 21.331264 13.501204
-99.170044 19.581253 18.218012
-99.312073 19.760273 3.8226404
-99.316994 19.79368 3.5115738
-99.289032 19.390202 3.8138256
-99.296127 19.459143 3.5065956
-99.096176 18.40424 18.252293
-99.295685 19.182024 1.6500692
-101.27536 52.579067 13.466129
-101.21469 50.97496 9.1123247
-101.18227 50.682404 10.667483
-101.18681 50.69701 10.26842
-101.19168 50.717136 9.8713913
-101.19476 50.708099 9.4702187
-101.19869 50.713261 9.0727186
-101.09956 49.870186 14.18383
-101.091 49.669903 13.74782
-101.07768 49.45261 13.719272
-101.06296 49.211525 13.681778
-101.04983 48.996624 13.648446
-101.02531 48.713802 14.401693
-101.01658 48.51009 13.96137
-101.02499 48.528942 13.165126
-100.72696 44.540958 18.535465
-100.55884 41.865959 18.640799
-100.55016 41.724049 18.619877
-100.54116 41.575493 18.588049
-100.5317 41.4184 18.548754
-100.47643 40.547253 18.640556
-100.47036 40.44767 18.623512
-100.40823 39.461372 18.677414
-100.4008 39.339497 18.656843
-100.39288 39.208565 18.62837
-100.26949 37.248722 18.72978
-100.26234 37.131874 18.711851
-100.25574 37.024036 18.696007
-100.24785 36.891479 18.653719
-100.29425 36.970726 14.093768
-100.24536 36.834412 18.53462
-100.23693 36.692539 18.487104
-100.22931 36.565182 18.449671
-100.27724 36.674259 13.927299
-100.22202 36.444439 18.422506
-100.26686 36.554485 14.245077
-100.27288 36.604671 13.928177
-100.09498 34.434383 18.579065
-100.11969 34.475739 16.144472
-100.08645 34.293293 18.547001
-100.1152 34.405476 16.155117
-100.08031 34.194218 18.540447
-100.04033 33.569633 18.645796
-99.907997 31.45298 18.652235
-99.901871 31.351114 18.625446
-99.87793 28.574007 2.1655719
-99.849403 28.15407 2.4170399
-99.852936 28.173449 2.1612718
-99.844559 28.076782 2.4189937
-99.848091 28.096151 2.1632259
-99.650047 27.339226 18.747623
-99.837273 27.923561 2.1666985
-99.643211 27.225023 18.714527
-99.82666 27.790297 2.4177141
-99.828804 27.787615 2.1639862
-99.637764 27.135475 18.698561
-99.795738 27.329624 2.6530044
-99.7771 27.030317 2.6458025
-99.52906 25.389856 18.655655
-99.52317 25.293453 18.640881
-99.517311 25.198334 18.631905
-99.511063 25.096771 18.62038
-99.505203 25.001518 18.610767
-99.499344 24.905958 18.598173
-99.456535 24.232698 18.678595
-99.450073 24.125137 18.65056
-99.582108 24.527464 6.8900971
-99.583839 24.519026 6.6416426
-99.58712 24.53635 6.399507
-99.589897 24.545341 6.1561084
-99.444878 24.040943 18.642952
-99.57354 24.387953 6.8734236
-99.576912 24.406683 6.6316862
-99.585854 24.480688 6.1562018
-99.439377 23.950884 18.629456
-99.566208 24.268723 6.8606625
-99.570801 24.307735 6.6238933
-99.573654 24.318121 6.3810482
-99.432915 23.843363 18.601164
-99.562561 24.21063 6.8624706
-99.562637 24.175049 6.6091232
-99.567131 24.212498 6.3725553
-99.556877 24.082359 6.6060071
-99.559303 24.085855 6.362627
-99.548637 23.948986 6.5953031
-99.396355 23.273426 18.704353
-99.3908 23.182693 18.692095
-99.384605 23.080626 18.671364
-99.555832 23.610456 3.4759631
-99.558708 23.622164 3.2403953
-99.378708 22.984312 18.658682
-99.549202 23.504534 3.4772635
-99.373138 22.894224 18.651722
-99.543839 23.4191 3.4801688
-99.545029 23.403746 3.2439549
-99.536835 23.306982 3.4796751
-99.538857 23.30514 3.2444353
-99.528641 23.175203 3.4755433
-99.531906 23.193516 3.2418115
-99.521309 23.057415 3.4723508
-99.524147 23.06896 3.2388709
-99.265335 21.188923 18.787569
-99.259636 21.093828 18.761024
-99.254128 21.002779 18.740761
-99.248222 20.905285 18.720354
-99.242989 20.820265 18.711529
-99.237579 20.731205 18.694502
-99.224495 20.553339 18.910887
-99.231812 20.635412 18.670191
-99.218735 20.457403 18.884798
-99.207344 20.267376 18.831446
-99.200989 20.16065 18.797277
-99.195976 20.079563 18.790941
-99.18998 19.979687 18.763649
-99.184776 19.89484 18.753372
-99.179169 19.802547 18.735214
-99.173706 19.712992 18.720404
-99.154526 19.435001 18.919811
-99.143433 19.25461 18.899622
-99.132202 19.068733 18.857752
-99.126411 18.972574 18.83309
-99.116753 18.857967 19.108107
-99.121536 18.893103 18.823469
-99.111221 18.765282 19.079735
-99.115723 18.795179 18.789932
-99.104904 18.657442 19.033155
-99.110687 18.711918 18.771061
-99.087196 18.358902 18.928471
-99.081673 18.266668 18.90214
-99.075851 18.169662 18.875296
-99.070511 18.082787 18.866045
-99.054482 17.824238 18.851618
-100.6479 43.213314 18.105045
-100.5201 41.16116 18.056549
-100.42512 39.649601 18.113993
-100.33534 38.218464 18.15115
-99.86969 30.749907 18.032381
-99.799492 29.633871 18.082199
-99.777931 29.275063 17.987875
-99.650002 27.243805 18.096485
-99.627434 26.865429 17.977875
-99.604515 26.480957 17.85573
-99.568565 25.933302 18.045485
-99.769577 26.788195 1.8083981
-99.547127 25.574072 17.934595
-99.522537 25.160652 17.797197
-99.490952 24.686699 18.013781
-99.435692 23.813271 18.088791
-99.415749 23.480682 17.995808
-99.395554 23.142849 17.895382
-99.410393 23.225031 16.827179
-99.362045 22.63209 18.070116
-99.37458 22.791237 17.78508
-99.534416 23.39183 4.32938
-99.344643 22.342052 17.990107
-99.351517 22.403158 17.653952
-99.36129 22.457232 16.950802
-99.443481 22.652943 9.2540703
-99.325142 22.014214 17.881538
-99.340271 22.104326 16.836765
-99.310791 21.718414 17.42663
-99.276642 21.251701 17.975414
-99.292244 21.351803 16.94725
-99.258652 20.950233 17.881453
-99.265366 21.010006 17.553625
-99.269814 21.030514 17.205616
-99.272797 21.026035 16.846603
-99.225174 20.275774 16.927612
-99.193253 19.898785 17.848009
-99.198647 19.936493 17.513678
-99.204285 19.978731 17.184048
-99.206421 19.960354 16.822464
-99.21254 20.011679 16.502337
-99.220909 20.048185 15.832203
-99.227715 20.059116 15.158355
-99.236404 20.103851 14.509908
-99.240067 20.114925 14.183309
-99.243561 20.123423 13.8576
-99.265045 20.18969 11.949139
-99.269203 20.21133 11.640706
-99.271843 20.207592 11.324759
-99.277069 20.247677 11.025229
-99.280319 20.254667 10.71575
-99.315514 20.379454 7.7014747
-99.319069 20.393269 7.4053607
-99.165184 19.475872 18.027689
-99.267433 19.950323 10.041165
-99.278061 19.989277 9.1396427
-99.335564 20.185154 4.1598005
-99.345406 20.216713 3.2939143
-99.155388 19.259859 17.620802
-99.249832 19.615292 9.6738462
-99.267776 19.687372 8.1949549
-99.129921 18.882137 17.825476
-99.134857 18.91271 17.492437
-99.138809 18.926405 17.151714
-99.142578 18.937302 16.812063
-99.148216 18.981192 16.493752
-99.152458 19.001049 16.163887
-99.156525 19.018267 15.83488
-99.160416 19.032854 15.506761
-99.164558 19.052095 15.183286
-99.168114 19.061487 14.856957
-99.171921 19.075611 14.535174
-99.175133 19.079853 14.210764
-99.180328 19.118435 13.904391
-99.191544 19.160749 12.961702
-99.198372 19.179407 12.338085
-99.247704 19.359259 8.147563
-99.250938 19.368504 7.8553948
-99.253563 19.367851 7.5620251
-99.257469 19.388512 7.27391
-99.263474 19.400219 6.6939774
-99.266998 19.414742 6.4065785
-99.269424 19.411522 6.1169801
-99.274132 19.445581 5.833509
-99.277267 19.454041 5.5466838
-99.30265 19.528643 3.2667789
-99.306122 19.542915 2.9829903
-99.307495 19.523441 2.6985192
-99.309227 19.509918 2.4147751
-99.10334 18.484489 18.015768
-99.111542 18.572649 17.719429
-99.116814 18.609426 17.392555
-99.1203 18.615347 17.049438
-99.123604 18.618429 16.707565
-99.129166 18.661442 16.391237
-99.134575 18.702003 16.075264
-99.136513 18.68265 15.728591
-99.142006 18.725319 15.417861
-99.145248 18.729416 15.088793
-99.148743 18.738144 14.764489
-99.153763 18.773487 14.455421
-99.156075 18.76255 14.125842
-99.15992 18.778358 13.811236
-99.167572 18.810101 13.187551
-99.175041 18.839752 12.569849
-99.179428 18.866005 12.268012
-99.1819 18.860039 11.954962
-99.210144 18.963902 9.561305
-99.214012 18.983294 9.269311
-99.217743 19.000584 8.9776278
-99.088211 18.232439 17.94735
-99.095955 18.312792 17.647905
-99.097984 18.292931 17.288095
-99.10141 18.298115 16.946949
-99.106667 18.335802 16.627678
-99.111763 18.370995 16.308895
-99.114655 18.368084 15.970799
-99.119415 18.398165 15.653485
-99.12278 18.404236 15.325336
-99.126801 18.4221 15.005732
-99.130241 18.430223 14.683287
-99.134773 18.457596 14.372526
-99.138313 18.468012 14.055342
-99.141678 18.475956 13.739051
-99.145317 18.488787 13.427002
-99.152992 18.522055 12.811603
-99.155731 18.520359 12.498771
-99.159622 18.538568 12.195937
-99.166077 18.553238 11.586366
-99.17041 18.579645 11.290958
-99.174164 18.596375 10.993213
-99.180344 18.608133 10.394298
-99.18412 18.625856 10.100715
-99.18821 18.649052 9.8098593
-99.191261 18.654917 9.5148134
-99.198318 18.683157 8.9328175
-99.204834 18.703035 8.3525209
-99.207657 18.706001 8.0621691
-99.211281 18.722313 7.7758312
-99.252953 18.853605 4.0931754
-99.254311 18.834173 3.8109128
-99.274445 18.871807 1.8541512
-99.067902 17.945772 18.211136
-99.148331 18.261786 11.535324
-99.151291 18.265305 11.233378
-99.154549 18.274059 10.934906
-99.158112 18.288118 10.639683
-99.160637 18.284952 10.340025
-99.163918 18.294659 10.046067
-99.167961 18.317358 9.7573271
-99.170967 18.322817 9.4643984
-99.174744 18.341356 9.1763954
-99.177925 18.350216 8.886651
-99.19165 18.403303 7.7416439
-99.198433 18.429249 7.1737256
-99.204239 18.439474 6.6056719
-99.045197 17.616562 18.445786
-101.13668 50.497551 14.412246
-101.03065 49.197254 17.137707
-100.85529 46.392231 17.144672
-100.88084 46.630913 15.97526
-100.88449 46.628979 15.560112
-100.8905 46.666882 15.159998
-100.89109 46.6143 14.733424
-100.83852 46.11219 17.065388
-100.96722 46.358002 4.5959921
-100.93584 45.961166 5.3183484
-100.93918 45.960129 4.944602
-100.94849 46.055599 4.5760942
-100.81153 45.17342 13.579692
-100.81743 45.212345 13.19792
-100.92318 45.702187 4.9317331
-100.9263 45.698109 4.5599055
-100.78983 44.8153 13.5056
-100.90626 45.375851 4.5499597
-100.62158 42.619102 16.91551
-100.57693 41.931999 17.104462
-100.75834 42.641842 2.0259089
-100.35264 38.342751 17.102467
-100.41088 38.609932 12.532434
-100.41431 38.614655 12.187367
-100.41756 38.616547 11.843096
-100.42215 38.641102 11.506618
-100.42554 38.645935 11.166008
-100.50253 38.636581 2.6324036
-100.50685 38.659004 2.3106055
-100.50883 38.64389 1.9892308
-100.35714 37.822823 13.033189
-100.34048 37.549156 12.984368
-100.32378 37.274952 12.936578
-100.30709 37.000614 12.886095
-100.35535 37.154808 8.6375465
-99.81823 29.772718 16.975843
-99.810684 29.599611 16.615501
-99.658516 26.603678 12.758589
-99.666397 26.650766 12.215542
-99.667946 26.633928 11.928987
-99.670227 26.629782 11.649797
-99.674133 26.653498 11.383429
-99.67524 26.630051 11.100104
-99.743172 26.706329 4.1511011
-99.593437 25.565109 12.777945
-99.530167 25.172106 17.037113
-99.450493 22.638245 8.3812151
-99.45652 22.666182 7.9099712
-99.456322 22.626827 7.6612377
-99.388924 21.665298 8.4656696
-99.391548 21.673422 8.2325945
-99.077316 18.14992 18.578878
-99.084076 18.223843 18.343716
-99.08773 18.240213 18.053576
-99.091545 18.259958 17.769827
-99.094299 18.260519 17.471067
-99.096268 18.247305 17.163227
-99.102432 18.31189 16.929253
-99.104416 18.299942 16.628901
-99.107498 18.308798 16.350197
-99.110443 18.315535 16.072554
-99.111961 18.296701 15.776595
-99.115257 18.310892 15.511028
-99.117447 18.305344 15.232214
-99.119156 18.291706 14.950121
-99.123047 18.317793 14.701369
-99.12616 18.330095 14.444156
-99.127449 18.310314 14.165809
-99.129959 18.312691 13.906324
-99.133362 18.33147 13.660556
-99.135628 18.330151 13.402906
-99.138451 18.339262 13.15448
-99.145882 18.349857 12.410173
-99.171036 18.347702 9.6279478
-99.172485 18.337019 9.3950472
-99.175354 18.350815 9.1738529
-99.178139 18.363201 8.9529943
-99.179665 18.354538 8.7249556
-99.183037 18.377192 8.5099306
-99.183594 18.352446 8.2785654
-99.186005 18.359133 8.0597439
-99.187134 18.344593 7.834837
-99.189751 18.355095 7.6192365
-99.191887 18.357605 7.4019303
-99.193527 18.352087 7.1831932
-99.196281 18.365191 6.9706211
-99.198547 18.370304 6.7564821
-99.199921 18.360687 6.539392
-99.202003 18.363115 6.3261752
-99.205925 18.364008 5.9009624
-99.208168 18.369225 5.6903143
-99.052521 17.781332 18.772858
-99.239822 18.332016 1.9516879
-101.4685 55.570435 12.78426
-100.53449 41.378422 17.966658
-100.5013 40.826336 17.82296
-100.41797 39.511047 17.947544
-100.30774 37.747337 17.948566
-100.30477 35.25885 1.1661782
-100.04647 33.538307 17.754414
-99.879128 30.883305 17.911007
-99.88929 30.989243 17.521732
-99.851974 30.431173 17.789761
-99.859802 30.497799 17.386829
-99.865189 30.523054 16.967863
-99.823586 29.957848 17.658813
-99.829094 29.985378 17.242487
-99.836182 30.040176 16.839808
-99.794876 29.478806 17.524529
-99.802063 29.535692 17.12447
-99.808174 29.57435 16.718185
-99.759277 28.948624 17.795134
-99.767448 29.022511 17.404694
-99.773224 29.055792 16.997656
-99.741257 28.588398 17.301157
-99.752029 28.642744 16.489834
-99.768593 28.376089 12.834568
-99.858253 28.716652 5.3109922
-99.866646 28.743595 4.5732694
-99.680222 27.635008 17.461298
-99.685959 27.668686 17.06213
-99.690186 27.676973 16.653776
-99.647034 27.143044 17.73053
-99.655014 27.215551 17.350914
-99.660667 27.248367 16.954283
-99.663528 27.2337 16.538614
-99.670525 27.290056 16.156694
-99.675591 27.31377 15.762383
-99.679581 27.319525 15.362782
-99.685585 27.35973 14.979115
-99.689178 27.359459 14.581447
-99.694359 27.386337 14.196161
-99.699356 27.410353 13.81147
-99.70327 27.416328 13.422162
-99.708351 27.442213 13.041461
-99.713249 27.4653 12.661283
-99.717506 27.477949 12.279293
-99.721588 27.48778 11.898061
-99.725021 27.487114 11.515419
-99.730583 27.522139 11.144333
-99.735054 27.539068 10.769363
-99.738876 27.545542 10.392993
-99.743927 27.57254 10.022939
-99.74881 27.596899 9.6531439
-99.753059 27.610838 9.2819557
-99.756187 27.606524 8.908061
-99.761032 27.630745 8.5410843
-99.76429 27.628902 8.1700335
-99.769287 27.655739 7.8050985
-99.773163 27.664316 7.4377475
-99.779755 27.717434 7.0778666
-99.788132 27.745338 6.3475528
-99.795868 27.762981 5.6184058
-99.800705 27.78772 5.2561741
-99.805382 27.80994 4.8938842
-99.807953 27.797977 4.5293245
-99.813293 27.830982 4.1682949
-99.817009 27.837708 3.8057837
-99.622375 26.732233 17.61866
-99.627289 26.752438 17.217339
-99.631561 26.762184 16.813635
-99.642105 26.879417 16.4604
-99.647301 26.905462 16.067474
-99.651436 26.913677 15.669072
-99.655807 26.926281 15.274833
-99.660423 26.943354 14.884545
-99.663513 26.934999 14.486511
-99.667297 26.938614 14.095454
-99.673561 26.984491 13.721722
-99.677864 26.997437 13.337642
-99.681526 26.999949 12.951859
-99.685448 27.007174 12.569565
-99.69101 27.042032 12.197637
-99.693657 27.028402 11.812273
-99.698868 27.05781 11.441396
-99.702988 27.069212 11.066611
-99.708321 27.100952 10.698594
-99.713013 27.12237 10.328843
-99.717545 27.141142 9.9594984
-99.72097 27.141804 9.5870533
-99.725632 27.163021 9.2204685
-99.729179 27.166115 8.8510122
-99.734451 27.19766 8.4883022
-99.738136 27.203302 8.1213541
-99.742134 27.214136 7.7563295
-99.747391 27.245825 7.395504
-99.750107 27.235889 7.0287981
-99.755524 27.27034 6.6694145
-99.759346 27.278776 6.3068852
-99.763969 27.300373 5.9465494
-99.76844 27.319466 5.5862765
-99.772751 27.336054 5.2260928
-99.775932 27.334391 4.8647361
-99.782364 27.385372 4.5077815
-99.786201 27.394476 4.1477723
-99.789398 27.393187 3.7875795
-99.795868 27.444675 3.4298689
-99.59774 26.321386 17.504166
-99.603432 26.35537 17.112186
-99.607643 26.364426 16.710773
-99.735863 26.898237 6.2743769
-99.739975 26.911776 5.9152145
-99.743927 26.922815 5.5562911
-99.748199 26.939196 5.1983638
-99.751358 26.93742 4.8392692
-99.755318 26.948837 4.4817829
-99.760582 26.981342 4.1258783
-99.763748 26.979975 3.7681251
-99.768715 27.007582 3.4119551
-99.772057 27.009144 3.0548956
-99.780731 27.044241 2.3418231
-99.572701 25.902159 17.376945
-99.577881 25.927889 16.984123
-99.540825 25.428251 17.625187
-99.549927 25.458857 16.834269
-99.518349 25.053226 17.519445
-99.599823 25.106363 8.9211845
-99.472931 24.234596 16.887941
-99.580284 24.629429 7.7923007
-99.584908 24.653118 7.4459686
-99.587997 24.651657 7.0960445
-99.445915 23.843283 17.169634
-99.449669 23.846289 16.777807
-99.455688 23.888815 16.407911
-99.460297 23.90731 16.028358
-99.466377 23.951525 15.662794
-99.470207 23.957304 15.281595
-99.473419 23.953043 14.898444
-99.477715 23.967516 14.525706
-99.482674 23.99371 14.159731
-99.487045 24.010012 13.791492
-99.492096 24.038187 13.429581
-99.495682 24.041899 13.060096
-99.500832 24.072172 12.702039
-99.503204 24.055914 12.329254
-99.508453 24.088379 11.974924
-99.51223 24.096252 11.613819
-99.517593 24.131107 11.262575
-99.521484 24.141314 10.904956
-99.5261 24.163837 10.552221
-99.529663 24.169033 10.195856
-99.533508 24.179171 9.8421717
-99.537651 24.194305 9.4909401
-99.542534 24.221977 9.1436853
-99.545006 24.20978 8.7882595
-99.550034 24.240152 8.4433575
-99.554466 24.26066 8.0970011
-99.558289 24.271267 7.7494793
-99.561035 24.264391 7.3997555
-99.565933 24.292896 7.0570183
-99.568832 24.288811 6.7096653
-99.585915 24.362772 5.3394966
-99.422722 23.455263 17.053673
-99.426003 23.450525 16.66062
-99.433578 23.520338 16.306797
-99.438126 23.538145 15.929288
-99.442482 23.553146 15.552707
-99.446243 23.558231 15.173903
-99.449402 23.553339 14.793159
-99.454468 23.58145 14.42886
-99.460213 23.621328 14.070991
-99.462822 23.60817 13.693436
-99.468231 23.642855 13.336707
-99.471336 23.638737 12.966892
-99.475121 23.646471 12.603469
-99.480034 23.673481 12.248479
-99.48262 23.661419 11.881757
-99.488953 23.7127 11.53743
-99.49295 23.724886 11.181601
-99.496338 23.727194 10.82427
-99.501778 23.763906 10.478264
-99.505737 23.776049 10.126295
-99.509537 23.78574 9.7749195
-99.512726 23.785553 9.4223309
-99.517555 23.812695 9.0775528
-99.520439 23.807642 8.7262917
-99.525414 23.837513 8.3837881
-99.529343 23.8501 8.0383482
-99.533569 23.867826 7.6947312
-99.57196 23.985796 4.2827668
-99.57692 24.016129 3.9450736
-99.581276 24.036623 3.6067114
-99.393463 23.024296 17.309719
-99.398079 23.042715 16.928732
-99.404121 23.086241 16.562771
-99.410408 23.13414 16.200609
-99.413666 23.130165 15.815288
-99.417961 23.144464 15.441176
-99.421654 23.148914 15.064855
-99.427254 23.186127 14.705183
-99.430588 23.18511 14.330819
-99.435425 23.209949 13.969412
-99.440102 23.232204 13.608608
-99.443748 23.237484 13.242913
-99.446381 23.225676 12.872864
-99.45182 23.261829 12.522347
-99.455391 23.266516 12.162013
-99.460518 23.297739 11.812312
-99.464195 23.304653 11.45587
-99.467262 23.301727 11.097991
-99.471916 23.325586 10.749819
-99.47686 23.354393 10.404103
-99.517128 23.498089 6.9615827
-99.521797 23.523579 6.6234841
-99.524483 23.516796 6.281179
-99.52932 23.545254 5.9444399
-99.533096 23.556435 5.6058283
-99.536736 23.565348 5.267478
-99.540222 23.571997 4.9294152
-99.542168 23.553747 4.589807
-99.551224 23.601067 3.9185517
-99.555077 23.613832 3.5823562
-99.369522 22.62418 17.192835
-99.384476 22.761093 16.489162
-99.406174 22.837841 14.629716
-99.410309 22.850706 14.263126
-99.414268 22.860912 13.897448
-99.416794 22.847048 13.524179
-99.422516 22.887718 13.17447
-99.425537 22.882877 12.80887
-99.433617 22.908577 12.096379
-99.466797 22.981981 8.9506626
-99.472725 23.028105 8.6160831
-99.476273 23.035027 8.2733364
-99.480568 23.054436 7.9341292
-99.483818 23.056719 7.5923786
-99.488274 23.078983 7.2551875
-99.492134 23.091549 6.916904
-99.49585 23.101847 6.5789537
-99.500786 23.132275 6.2445173
-99.503304 23.123121 5.9051223
-99.507965 23.149094 5.5708761
-99.511101 23.150383 5.2341733
-99.515488 23.171919 4.9000468
-99.520195 23.198759 4.5665064
-99.341331 22.211815 17.459385
-99.350487 22.248705 16.705713
-99.391426 22.483583 13.816182
-99.4478 22.672968 8.9165039
-99.488304 22.831373 5.5488224
-99.492355 22.847559 5.2150941
-99.495338 22.846626 4.8800793
-99.499565 22.865866 4.5474014
-99.424797 22.298288 8.8706827
-99.429764 22.329008 8.5361366
-99.34729 21.701551 13.295253
-99.353249 21.747381 12.954739
-99.357811 21.769718 12.606219
-99.451263 22.08811 4.5140071
-99.455292 22.104872 4.1857605
-99.330902 21.381643 12.899168
-99.363449 21.450335 9.7903185
-99.382027 21.554413 8.4617023
-99.416168 21.668203 5.488061
-99.427628 21.70883 4.507062
-99.431175 21.71813 4.1803727
-99.289284 20.853786 13.848763
-99.296219 20.916742 13.518256
-99.339417 21.059927 9.7505074
-99.346794 21.131678 9.4318514
-99.350616 21.14419 9.097661
-99.353859 21.147305 8.762228
-99.357819 21.162537 8.4308147
-99.393456 21.303661 5.4808989
-99.403938 21.329411 4.5043898
-99.406563 21.324036 4.178719
-99.236824 20.368217 16.281853
-99.241241 20.386326 15.920362
-99.249565 20.414762 15.200154
-99.253471 20.425112 14.841505
-99.258003 20.446526 14.490237
-99.261971 20.458637 14.136583
-99.270226 20.489147 13.437917
-99.274117 20.500748 13.089785
-99.278664 20.523767 12.748027
-99.282646 20.53751 12.404124
-99.297874 20.582937 11.040838
-99.31926 20.683559 9.3801126
-99.323029 20.695652 9.0488291
-99.327515 20.719807 8.721549
-99.38237 20.936888 4.178772
-99.227524 20.052481 15.134046
-99.23217 20.075871 14.783818
-99.235863 20.083267 14.427909
-99.243553 20.104128 13.725318
-99.282784 20.237864 10.328821
-99.286507 20.249138 9.9963837
-99.290939 20.27228 9.6685619
-99.295227 20.293272 9.3410263
-99.298531 20.297977 9.010128
-99.301682 20.300486 8.6799097
-99.305984 20.3221 8.3553953
-99.310585 20.348722 8.0326796
-99.313324 20.344767 7.7040625
-99.316788 20.352917 7.3790469
-99.321854 20.387537 7.0597816
-99.324173 20.377182 6.7329154
-99.328979 20.407688 6.4137998
-99.336021 20.426689 5.770278
-99.339119 20.429485 5.4485641
-99.342972 20.444616 5.1288986
-99.248306 19.824133 11.277112
-99.252838 19.848618 10.947335
-99.255981 19.850073 10.611117
-99.278938 19.931173 8.6432238
-99.305557 20.029394 6.3898273
-99.309334 20.043301 6.0705175
-99.312538 20.048025 5.7504587
-99.319427 20.065641 5.1132388
-99.324005 20.092911 4.7972093
-99.28907 19.669388 5.7287011
-99.226219 19.17049 9.2137976
-99.105728 18.47439 17.683704
-99.110733 18.502544 17.326971
-99.114105 18.502546 16.95565
-99.118767 18.525566 16.600821
-99.124008 18.55901 16.25419
-99.127609 18.564125 15.893717
-99.132156 18.586193 15.545029
-99.13504 18.57971 15.183379
-99.149834 18.61409 13.79217
-99.154198 18.634939 13.455258
-99.225014 18.867105 7.2604003
-99.197578 18.563608 8.1916876
-99.203819 18.570784 7.5547624
-99.206741 18.571325 7.2372265
-99.209946 18.576771 6.9216638
-99.214714 18.607971 6.6115465
-99.217247 18.602526 6.2955232
-99.218796 18.581167 5.9781027
-99.223198 18.606529 5.6686082
-99.225761 18.602091 5.3554692
-99.229492 18.616629 5.0453629
-99.232666 18.622259 4.7346725
-99.235718 18.625957 4.4243112
-99.238647 18.627729 4.1143022
-99.242317 18.64159 3.8055766
-99.256691 18.692087 2.57164
-101.15672 51.445965 18.728731
-101.14484 51.249725 18.685659
-100.9511 48.149975 18.689545
-100.8689 46.843681 18.750982
-100.69849 44.115189 18.740934
-100.8181 43.663704 2.4768562
-100.61772 42.829849 18.789001
-100.80297 43.422726 2.4844041
-100.60947 42.694633 18.766972
-100.79375 43.276054 2.4898202
-100.5999 42.536297 18.731638
-100.7819 43.086903 2.4938135
-100.59173 42.402004 18.707415
-100.77007 42.89819 2.4973638
-100.5162 41.205624 18.791899
-100.50945 41.095161 18.775412
-100.49918 40.923721 18.725582
-100.42249 39.695049 18.714773
-100.36249 38.746349 18.794436
-100.29254 37.629177 18.808607
-100.28494 37.503876 18.783184
-100.27702 37.372684 18.753412
-100.29131 36.970161 14.413048
-100.29873 37.044018 14.104693
-100.28368 36.843353 14.379927
-100.28194 36.750839 13.935587
-100.13472 34.720608 16.174555
-99.932701 31.827309 18.508001
-99.80323 29.762335 18.554306
-99.796425 29.649586 18.528009
-99.667244 27.593542 18.604246
-99.653481 27.363434 18.536568
-99.614487 26.752279 18.624462
-99.608643 26.656166 18.606491
-99.603477 26.572506 18.599941
-99.596428 26.454184 18.56213
-99.592575 26.385653 18.514585
-99.589249 26.321907 18.441975
-99.596771 26.403044 18.172091
-99.582718 26.213589 18.415749
-99.576256 26.106209 18.388268
-99.56942 25.991936 18.355026
-99.56279 25.881964 18.32806
-99.748848 26.416555 1.5338517
-99.556091 25.770918 18.30151
-99.549477 25.661486 18.277512
-99.533089 25.430372 18.491488
-99.542213 25.541277 18.249702
-99.52713 25.334227 18.485287
-99.520241 25.22043 18.461178
-99.714844 25.840399 1.3140441
-99.514679 25.130325 18.45377
-99.612587 25.404537 9.5668526
-99.706917 25.714392 1.3194624
-99.508453 25.028122 18.435606
-99.605728 25.293238 9.556262
-99.696739 25.587921 1.5698581
-99.699875 25.60224 1.3231332
-99.502266 24.926455 18.417368
-99.600471 25.208948 9.5552845
-99.689682 25.475456 1.5729668
-99.495491 24.813669 18.387264
-99.595245 25.12488 9.5522976
-99.682198 25.355911 1.5743965
-99.685326 25.370203 1.3286288
-99.489082 24.70702 18.359461
-99.675186 25.243456 1.5729061
-99.482605 24.599348 18.331554
-99.477036 24.508387 18.319017
-99.447571 24.057003 18.457664
-99.441605 23.959419 18.442533
-99.435318 23.856001 18.423758
-99.429077 23.753407 18.40419
-99.626633 24.326527 0.60976231
-99.422523 23.644588 18.377497
-99.60817 24.171444 1.5755365
-99.611237 24.185595 1.3347281
-99.613358 24.184631 1.0946933
-99.415955 23.535612 18.350504
-99.54599 23.912636 6.6365514
-99.548454 23.916431 6.3912706
-99.576324 23.975401 3.7310572
-99.604126 24.071829 1.334906
-99.606682 24.077719 1.0947911
-99.608711 24.075356 0.855214
-99.611946 24.092022 0.61369127
-99.409698 23.432482 18.330374
-99.568825 23.855028 3.7282603
-99.403412 23.329449 18.313196
-99.560486 23.721457 3.7274804
-99.396225 23.209866 18.28158
-99.38974 23.102589 18.257954
-99.547638 23.516134 3.7289867
-99.555489 23.537998 3.0159152
-99.572197 23.597889 1.5896546
-99.574814 23.605221 1.3515366
-99.577354 23.611147 1.1133331
-99.383636 23.001863 18.236708
-99.369781 22.812929 18.462067
-99.377533 22.90118 18.215666
-99.534966 23.312529 3.7235293
-99.364227 22.722561 18.45195
-99.380768 22.812614 17.25157
-99.534142 23.195692 3.0106828
-99.35714 22.603971 18.416273
-99.523193 23.089106 3.4822967
-99.350723 22.497507 18.390038
-99.345306 22.409149 18.378803
-99.442558 22.673067 9.493679
-99.339249 22.309549 18.360109
-99.428391 22.555502 10.243897
-99.435478 22.557875 9.4802084
-99.525223 22.81354 1.3645916
-99.333458 22.21505 18.347893
-99.431 22.48699 9.4857092
-99.515717 22.696255 1.6041481
-99.52124 22.71629 1.1346265
-99.327354 22.114771 18.329914
-99.414635 22.331711 10.218819
-99.509659 22.599743 1.6074753
-99.512665 22.613756 1.3728504
-99.514755 22.613186 1.1389886
-99.321335 22.015522 18.309809
-99.504997 22.491526 1.3760406
-99.50708 22.49099 1.1427882
-99.315117 21.912098 18.282671
-99.49604 22.382116 1.6093202
-99.498627 22.389526 1.3759915
-99.501541 22.402178 1.1420625
-99.308868 21.80859 18.258774
-99.48922 22.273504 1.6124339
-99.491806 22.280912 1.3795398
-99.494713 22.293554 1.1460459
-99.302856 21.710173 18.243031
-99.483597 22.184244 1.6175551
-99.485352 22.178545 1.38568
-99.487846 22.184624 1.1530445
-99.296936 21.612648 18.224239
-99.476807 22.076065 1.6206939
-99.478973 22.076933 1.3888297
-99.481873 22.089556 1.1560317
-99.290848 21.51071 18.193392
-99.334152 21.605076 14.077768
-99.470497 21.974474 1.6166162
-99.472656 21.975342 1.3851023
-99.474731 21.97489 1.1536742
-99.463753 21.866083 1.6139098
-99.465904 21.866966 1.3828334
-99.468803 21.879547 1.1508172
-99.456924 21.757282 1.616395
-99.4599 21.77117 1.3849026
-99.461967 21.770763 1.1541724
-99.450928 21.661615 1.6190971
-99.261269 21.063885 18.375185
-99.276581 21.135029 17.179405
-99.256004 20.977741 18.361727
-99.250153 20.880394 18.336424
-99.43103 21.342699 1.6147361
-99.435638 21.349628 1.1559826
-99.243484 20.767565 18.29479
-99.427216 21.247625 1.3812966
-99.237999 20.676802 18.274313
-99.281235 20.727911 13.868737
-99.418327 21.138182 1.6068555
-99.42086 21.145452 1.377962
-99.232101 20.579159 18.251741
-99.411583 21.030323 1.6066188
-99.398842 20.826618 1.6078444
-99.207977 20.220858 18.442064
-99.397446 20.7383 1.1546984
-99.202034 20.122385 18.419094
-99.196236 20.026777 18.399286
-99.190689 19.936384 18.387941
-99.378502 20.435122 1.1543298
-99.184921 19.842655 18.378559
-99.199623 19.904385 17.18516
-99.365761 20.233971 1.1733451
-99.359421 20.133474 1.1792498
-99.319778 19.890759 3.8722818
-99.351067 20.0326 1.4048241
-99.162239 19.471203 18.319584
-99.156364 19.37369 18.295742
-99.144951 19.183397 18.243219
-99.289818 19.406448 3.838928
-99.31501 19.518131 1.83525
-99.27327 19.236624 4.4918122
-99.115974 18.73999 18.38274
-99.294624 19.188622 1.8118509
-99.110367 18.646475 18.356857
-99.260468 18.99473 4.2373857
-99.262314 18.991928 4.0145755
-99.10498 18.558027 18.341352
-99.098763 18.455042 18.316742
-99.092926 18.359987 18.305487
-99.097351 18.389435 18.021013
-99.101662 18.417046 17.737144
-99.105042 18.427742 17.43873
-99.106934 18.411156 17.116512
-99.117218 18.45067 16.256598
-99.120766 18.466999 15.978151
-99.127228 18.489107 15.419232
-99.274574 18.834597 1.5842495
-99.088593 18.293518 18.325298
-99.093025 18.323025 18.040607
-99.096809 18.340733 17.746248
-99.099922 18.346468 17.442699
-99.101555 18.324951 17.115488
-99.115944 18.391048 15.986798
-99.119095 18.400455 15.704495
-99.122131 18.408049 15.4232
-99.125328 18.419062 15.147388
-99.128113 18.423069 14.868119
-99.130493 18.420006 14.585655
-99.134209 18.441643 14.325537
-99.13723 18.451046 14.057676
-99.139244 18.442724 13.778521
-99.142639 18.459492 13.520606
-99.145927 18.474707 13.263293
-99.147896 18.466681 12.991353
-99.151283 18.484161 12.739372
-99.156822 18.498196 12.226267
-99.165146 18.521587 11.471033
