# .PCD v0.7 - Point Cloud Data file format
VERSION 0.7
FIELDS x y z
SIZE 4 4 4
TYPE F F F
COUNT 1 1 1
WIDTH 1559
HEIGHT 1
VIEWPOINT 0 0 0 1 0 0 0
POINTS 1559
DATA ascii
-102.92773 22.989685 11.841572
-102.92914 23.014688 11.594296
-102.9276 22.995039 11.327755
-102.9297 23.030663 11.087913
-102.93076 23.050224 10.841884
-102.93073 23.053587 10.590184
-102.9306 23.055098 10.33919
-102.93225 23.083788 10.100292
-102.93235 23.088974 9.8531981
-102.93282 23.099669 9.6093826
-102.93269 23.101305 9.3634329
-102.91274 22.761717 11.788664
-102.91318 22.77212 11.535854
-102.88876 22.317926 17.165449
-102.87666 22.1339 17.128487
-102.88432 22.291161 14.346624
-102.88556 22.313793 14.08481
-102.88577 22.320841 13.815398
-102.89026 22.404266 12.788032
-102.88935 22.394331 12.518736
-102.8906 22.417122 12.268534
-102.86547 21.963556 17.102392
-102.86813 22.041048 14.552576
-102.87035 22.078644 14.299811
-102.87022 22.080667 14.026505
-102.87085 22.094091 13.762353
-102.87135 22.105499 13.498927
-102.87261 22.128551 13.244066
-102.87331 22.142862 12.985834
-102.88607 22.369629 10.773942
-102.88556 22.365561 10.521062
-102.86029 21.944923 12.948438
-102.87868 22.288807 8.5813923
-102.88426 22.390734 7.4198775
-102.88218 22.362507 7.1769357
-102.88385 22.391241 6.9490852
-102.88348 22.38908 6.7144446
-102.88447 22.407406 6.4850345
-102.88244 22.379971 6.246769
-102.86822 22.129299 8.5704746
-102.85062 21.861525 8.5234661
-102.84242 21.736528 8.5218964
-102.60784 18.020649 18.011515
-102.59866 17.871881 18.612465
-102.60843 18.061565 15.815802
-102.60832 18.0639 15.536698
-102.60846 18.070044 15.263428
-102.60886 18.080099 14.995788
-102.60875 18.082272 14.724512
-102.60811 18.076483 14.449862
-102.60902 18.101534 13.671599
-102.60733 18.09692 12.218735
-102.60754 18.103819 11.972476
-102.60848 18.121508 11.734099
-102.60848 18.12513 11.489161
-102.60796 18.120829 11.241586
-102.60693 18.108547 10.991646
-102.60786 18.126131 10.759099
-102.6066 18.110531 10.511075
-102.60648 18.112307 10.2735
-102.57508 17.509071 18.834286
-102.60352 18.147587 4.7310953
-102.6041 18.159416 4.5153518
-102.60415 18.163319 4.2988405
-102.60368 18.159273 4.0818396
-102.60355 18.160612 3.8658347
-102.60467 18.180704 3.6516163
-102.60351 18.166145 3.4349763
-102.60271 18.156979 3.2192955
-102.60313 18.166607 3.0048409
-102.59991 18.133093 1.9283057
-102.1955 11.716487 19.015089
-102.18503 11.557167 18.989216
-102.1771 11.43589 19.015104
-102.16677 11.278692 18.98823
-102.17007 11.332469 18.745274
-102.16095 11.193437 18.741947
-102.15154 11.050082 18.734732
-102.14262 10.913884 18.739443
-102.13351 10.775081 18.737007
-102.10397 10.262163 23.025883
-102.09527 10.129701 23.011671
-102.08554 9.9818945 22.964922
-102.0769 9.8504391 22.939795
-102.10265 10.40243 11.977919
-102.10288 10.409327 11.739287
-102.06791 9.7139416 22.901197
-102.08263 10.01911 17.339052
-102.0881 10.137649 14.921458
-102.08845 10.146801 14.6611
-102.08929 10.163168 14.410789
-102.08945 10.169558 14.152143
-102.08954 10.174551 13.894471
-102.08982 10.182537 13.642132
-102.08943 10.180389 13.382164
-102.09071 10.203341 13.148438
-102.09104 10.211819 12.902726
-102.09187 10.227939 12.66583
-102.09143 10.224951 12.413702
-102.0918 10.234118 12.17429
-102.0927 10.251103 11.943121
-102.09352 10.26695 11.712357
-102.09366 10.272553 11.4748
-102.09373 10.276955 11.238015
-102.09462 10.29393 11.012362
-102.09454 10.295997 10.776944
-102.09529 10.310753 10.55221
-102.09566 10.319789 10.324643
-102.09566 10.323057 10.094514
-102.09651 10.339213 9.8742228
-102.09636 10.340262 9.6453419
-102.09676 10.349596 9.4229765
-102.09834 10.376751 9.2122087
-102.09786 10.375997 8.7613735
-102.10648 10.550597 5.7879629
-102.05926 9.5823555 22.872543
-102.06313 9.6452541 22.611607
-102.07172 9.8363075 18.470085
-102.07406 9.8886929 17.319445
-102.07552 9.9148874 17.057056
-102.07903 9.995822 15.164272
-102.07947 10.006305 14.903175
-102.07925 10.006854 14.633698
-102.07922 10.010201 14.37001
-102.08024 10.029343 14.125357
-102.08002 10.029913 13.863596
-102.08088 10.046466 13.620299
-102.08107 10.053034 13.36907
-102.08147 10.062673 13.122909
-102.08179 10.07104 12.877515
-102.08231 10.082572 12.636923
-102.08276 10.092882 12.396988
-102.08253 10.093035 12.150039
-102.08372 10.114353 11.922955
-102.08363 10.116542 11.681367
-102.08406 10.126551 11.447905
-102.08442 10.135402 11.215053
-102.08471 10.1431 10.982836
-102.08522 10.154231 10.754634
-102.05437 9.5118961 22.586893
-102.06233 9.693594 18.436674
-102.06418 9.7256432 18.171673
-102.06514 9.7444353 17.89045
-102.066 9.7616539 17.610081
-102.06463 9.7453337 17.287481
-102.06635 9.7753105 17.030767
-102.06744 9.7958422 16.763933
-102.06763 9.8027153 16.482285
-102.06825 9.8161955 16.211987
-102.0685 9.8240767 15.937571
-102.06967 9.8573389 14.86987
-102.07057 9.8747416 14.619399
-102.07082 9.8823261 14.360427
-102.07127 9.8928089 14.106886
-102.07134 9.8976574 13.849766
-102.07104 9.8968153 13.589329
-102.07209 9.9162931 13.351307
-102.07278 9.9302197 13.109547
-102.07279 9.9341488 12.860227
-102.07332 9.9455929 12.619872
-102.07405 9.960248 12.384104
-102.07412 9.9648457 12.141165
-102.04604 9.3850088 22.576731
-102.04811 9.421092 22.270115
-102.04839 9.4304962 21.919018
-102.05181 9.5014458 20.623474
-102.05449 9.5739536 18.438759
-102.05607 9.6020069 18.168072
-102.05703 9.6207523 17.886847
-102.05683 9.6221495 17.584629
-102.0552 9.6019258 17.256947
-102.05743 9.6396513 17.011223
-102.05852 9.6600494 16.744606
-102.05897 9.6709194 16.468349
-102.0585 9.6680508 16.177837
-102.05957 9.6880884 15.91892
-102.06072 9.7211208 14.852137
-102.06161 9.7384109 14.601895
-102.06158 9.7417107 14.3386
-102.06203 9.7521029 14.08537
-102.06295 9.7697248 13.841765
-102.03741 9.2537708 22.553059
-102.0397 9.2930861 22.253136
-102.0407 9.3130159 21.92149
-102.04549 9.4370508 18.412066
-102.04705 9.4648581 18.141657
-102.048 9.4834166 17.860718
-102.04754 9.4808111 17.553335
-102.04865 9.5059576 16.991287
-102.05 9.5301828 16.730127
-102.05017 9.5369444 16.448853
-102.05051 9.5461864 16.173838
-102.05103 9.557991 15.904886
-102.02909 9.1270294 22.53804
-102.03136 9.1660757 22.238241
-102.03234 9.1858521 21.906723
-102.03888 9.3402615 18.13414
-102.03956 9.3548326 17.847738
-102.0402 9.3771534 16.978743
-102.04126 9.3972321 16.71249
-102.04204 9.4170589 16.161732
-102.04308 9.4368563 15.902958
-102.02223 9.0273075 22.207041
-102.0232 9.046874 21.875854
-102.01405 8.9025383 22.204479
-102.01478 8.9185467 21.866922
-102.01788 9.0360737 17.020802
-102.01841 9.0482693 16.743626
-102.01859 9.0550508 16.462271
-102.01257 8.9543467 17.07769
-102.01312 8.9667454 16.799772
-102.01305 8.969861 16.512501
-102.0134 8.9792509 16.236729
-102.01314 8.9792805 15.951969
-102.0133 8.9856987 15.678473
-102.01363 8.9946556 15.410954
-102.01463 9.0212851 14.623728
-102.00893 8.9931984 10.565682
-102.00986 9.0108194 10.343918
-102.00988 9.0143881 10.113041
-102.00954 9.0125151 9.8798752
-102.00999 9.0227127 9.6564693
-102.01038 9.0319109 9.4335108
-102.00031 8.9764328 2.6603556
-101.96058 8.3432951 4.5382972
-101.92941 7.7340255 13.753818
-101.94491 8.1041079 4.546411
-101.92138 7.6115761 13.756982
-101.93715 7.9795041 4.9760275
-101.93714 7.9824085 4.7647839
-101.91362 7.4931083 13.762427
-101.92877 7.8517427 4.979321
-101.92927 7.8653646 4.5593185
-101.90127 7.2582731 16.958725
-101.90314 7.302917 15.859264
-101.90382 7.3209662 15.320331
-101.90501 7.3427448 15.071234
-101.90536 7.3671694 13.754586
-101.90736 7.4009099 13.531058
-101.89356 7.1408634 16.957041
-101.89357 7.1451645 16.667818
-101.89372 7.1515732 16.384996
-101.89426 7.1637259 16.113405
-101.89423 7.1674156 15.832835
-101.89436 7.1733418 15.558388
-101.89489 7.1851997 15.294661
-101.896 7.2134066 14.508721
-101.8967 7.2277842 14.257556
-101.89683 7.2335801 13.99823
-101.89787 7.2566214 13.499597
-101.88725 7.0441465 16.986687
-101.88774 7.055593 16.707365
-101.88837 7.0692163 16.434137
-101.88845 7.0744653 16.151751
-101.88844 7.0783424 15.870575
-101.88905 7.0916042 15.605262
-101.88911 7.0964274 15.331181
-101.88883 7.0963197 15.05354
-101.88945 7.1094427 14.795805
-101.88975 7.1177301 14.534263
-101.89021 7.1284895 14.278144
-101.89034 7.1343851 14.018427
-101.89064 7.1463313 13.506254
-101.88529 7.0566163 14.067415
-101.88413 7.0466819 13.528008
-101.88504 7.0640645 13.287565
-101.88513 7.069169 13.035285
-101.88612 7.0911312 12.549302
-101.88675 7.1043358 12.311157
-101.88732 7.1165261 12.073545
-101.88707 7.1162033 11.825417
-101.86442 6.6341376 21.236544
-101.8858 7.1231809 10.010676
-101.75517 4.9515963 22.348574
-101.75545 4.96105 21.99353
-101.75639 4.9904065 20.962818
-101.75739 5.0101261 20.650738
-101.75752 5.0170436 20.315508
-101.74694 4.8206658 22.724264
-101.75208 4.9610405 18.455481
-101.75566 5.036232 17.032722
-105.05672 55.541821 6.4829383
-105.05829 55.573437 5.9484763
-103.01202 24.35491 6.3642621
-103.01414 24.392056 6.0252504
-102.99157 24.043215 6.3404269
-102.99015 24.026552 5.9955072
-102.92785 22.896738 18.364805
-102.95935 23.596529 3.2552207
-102.96568 23.70274 2.5849671
-102.96741 23.753618 0.89989758
-102.93848 23.288055 2.5685124
-102.94534 23.412212 1.2287281
-102.8699 22.015879 18.156399
-102.91877 22.963419 4.2276917
-102.91944 22.978516 3.8937321
-102.91997 22.991402 3.559798
-102.84972 21.708975 18.086573
-102.89695 22.630857 4.2107291
-102.89861 22.660894 3.879354
-102.89667 22.63624 3.5447154
-102.89754 22.6544 3.2129993
-102.89877 22.677893 2.8814323
-102.89838 22.676668 2.5491436
-102.89931 22.69581 2.2173722
-102.82958 21.402803 18.020718
-102.85525 21.917709 9.5154705
-102.8558 21.931034 9.1763964
-102.87317 22.268305 4.1953077
-102.80712 21.061441 17.941067
-102.83334 21.579199 9.8236742
-102.83935 21.680283 9.1668987
-102.84071 21.705807 8.8325109
-102.84 21.699972 8.4914055
-102.84628 21.839228 5.5018821
-102.8615 22.114147 2.5470636
-102.86274 22.142742 1.8871779
-102.8634 22.157545 1.5570474
-102.78583 20.737495 17.879051
-102.78967 20.801077 17.530289
-102.79067 20.8218 17.15859
-102.79105 20.833015 16.7841
-102.80626 21.116417 13.241327
-102.81315 21.276377 9.4634781
-102.81463 21.303761 9.1310139
-102.81501 21.314484 8.7950706
-102.83597 21.71994 2.8805954
-102.78085 20.729822 13.179493
-102.78348 20.774727 12.843212
-102.60764 18.015053 18.181725
-102.62309 18.312208 13.949664
-102.62162 18.295042 13.589753
-102.6226 18.314926 13.249469
-102.62169 18.30608 12.898136
-102.62193 18.314728 12.556649
-102.62334 18.341059 12.224289
-102.58593 17.679632 18.484571
-102.6176 18.389038 2.8884971
-102.61686 18.382311 2.5723243
-102.61554 18.366749 2.2565401
-102.61726 18.397657 1.941424
-102.61706 18.399012 1.626137
-102.10025 10.269927 18.583099
-102.06316 9.7049608 18.520735
-102.04765 9.4735165 18.171679
-102.05547 9.6421986 14.76541
-102.0562 9.6581469 14.437099
-102.02943 9.1958466 18.149784
-102.03585 9.3434238 14.733046
-102.03657 9.3591585 14.405465
-102.01006 8.9011002 18.104954
-102.03432 9.3974752 9.4104328
-102.03545 9.4232779 8.8045855
-102.03619 9.4391146 8.5043364
-102.03651 9.4483223 8.2025928
-102.03639 9.4508686 7.8996358
-102.0372 9.4675121 7.6024609
-102.03689 9.4671087 7.300765
-102.03819 9.4913101 7.0073962
-102.03803 9.4932213 6.7083054
-101.97791 8.3474607 22.457443
-101.97041 8.2707434 19.869352
-101.97197 8.305047 19.141014
-101.94551 7.8646731 21.682159
-101.94602 7.8780499 21.294643
-101.94753 7.9062533 20.928745
-101.94918 7.9367127 20.56876
-101.94897 7.9392757 20.180397
-101.95094 7.9743237 19.832205
-101.95075 7.9769297 19.451609
-101.95158 7.9949093 19.09132
-101.95898 8.1428604 16.67359
-101.92719 7.5913262 21.25762
-101.92923 7.6275859 20.90229
-101.92944 7.6364932 20.517942
-101.94083 7.8661203 16.655836
-101.87074 6.7322187 21.122055
-101.75214 4.966125 18.162491
-101.76721 5.39327 4.568356
-105.00824 54.619503 19.070211
-105.04091 55.181541 14.684441
-105.0456 55.281895 12.699673
-105.01337 54.700348 18.890799
-105.04831 55.296814 14.516923
-105.04244 55.219341 13.686479
-105.05815 55.504093 10.578298
-105.00173 54.51725 19.278706
-105.05052 55.415665 8.651577
-105.0267 55.085686 6.3464789
-105.02475 55.061623 5.9646153
-102.9709 23.727814 6.3480721
-102.96441 23.62534 6.5869846
-102.96485 23.635626 6.3459196
-102.95641 23.548433 3.4760141
-102.95741 23.567175 3.239733
-102.87664 22.110058 18.750877
-102.8704 22.015055 18.735237
-102.86458 21.926407 18.724186
-102.85773 21.82243 18.697018
-102.8794 22.280176 9.9304209
-102.87906 22.278578 9.6765327
-102.89915 22.709269 1.1230046
-102.85162 21.729469 18.683058
-102.87229 22.17189 9.9185905
-102.87152 22.163874 9.6624517
-102.89237 22.598909 1.5965986
-102.84586 21.641518 18.675756
-102.8397 21.5478 18.662497
-102.83251 21.438637 18.631268
-102.82869 21.380117 18.645781
-102.82195 21.277639 18.621092
-102.84261 21.715855 10.145695
-102.81663 21.196529 18.620592
-102.84193 21.708542 9.9275885
-102.84076 21.694525 9.668849
-102.81136 21.116232 18.617109
-102.80579 21.031532 18.601498
-102.8157 21.245584 14.267341
-102.79906 20.929262 18.570984
-102.81183 21.19042 13.997275
-102.79405 20.852882 18.572117
-102.78915 20.778189 18.574219
-102.78327 20.688629 18.557508
-102.77764 20.602995 18.544121
-102.77305 20.532871 18.545113
-102.81381 21.393789 2.067476
-102.76741 20.447191 18.529337
-102.79009 20.915312 10.113228
-102.80613 21.263176 2.9936323
-102.80691 21.27846 2.7610617
-102.80676 21.279589 2.5281153
-102.80653 21.279406 2.2953267
-102.80747 21.297207 2.0624392
-102.76077 20.346209 18.498215
-102.78311 20.809017 10.09432
-102.79926 21.151814 3.4532881
-102.79853 21.144035 3.2198124
-102.79855 21.147743 2.9873021
-102.79933 21.16296 2.7552514
-102.80003 21.17688 2.5229926
-102.8019 21.208748 2.2905254
-102.80157 21.207253 2.0578263
-102.75472 20.254271 18.480705
-102.76465 20.468178 14.176567
-102.7653 20.481945 13.907828
-102.79006 21.001362 4.1449218
-102.78959 20.997522 3.9114137
-102.79153 21.030615 3.6814067
-102.79298 21.056065 3.4503429
-102.79267 21.054699 3.2174728
-102.79353 21.071188 2.9856479
-102.79515 21.099173 2.7539337
-102.79561 21.112917 2.2888875
-102.79571 21.117842 2.0563574
-102.74899 20.167133 18.469461
-102.7543 20.251453 18.232351
-102.76985 20.607164 10.069341
-102.772 20.657692 8.8460054
-102.78583 20.936817 4.1456304
-102.78661 20.952084 3.9137597
-102.78689 20.9597 3.6812501
-102.7875 20.97238 3.449239
-102.78677 20.964664 3.2161136
-102.78721 20.974752 2.9842074
-102.78673 20.970798 2.7519135
-102.78825 20.997433 2.520339
-102.78802 20.997267 2.28825
-102.78771 20.995806 2.0563369
-102.7434 20.081968 18.458736
-102.74834 20.160713 18.216558
-102.74967 20.194345 17.305799
-102.76465 20.524134 10.318552
-102.76502 20.537106 9.8203545
-102.76485 20.545307 9.0776243
-102.78039 20.853825 4.1447377
-102.77991 20.850029 3.9111412
-102.78019 20.857605 3.6789787
-102.78038 20.863886 3.4468856
-102.78049 20.868872 3.21488
-102.78051 20.872564 2.9829793
-102.78086 20.881323 2.7513695
-102.78072 20.882435 2.5196447
-102.78007 20.875889 2.2880843
-102.74198 20.064146 18.196463
-102.74327 20.087986 17.902395
-102.74442 20.109808 17.609079
-102.74258 20.086603 17.276619
-102.75751 20.419125 10.052919
-102.75844 20.436815 9.810111
-102.77411 20.758081 4.1434059
-102.77406 20.760609 3.9106739
-102.77557 20.78714 3.6802363
-102.77452 20.77442 3.4467652
-102.77421 20.773054 3.2145898
-102.77257 20.751373 2.9819269
-102.77292 20.760094 2.7509272
-102.7362 19.976011 18.184275
-102.73712 19.99448 17.885212
-102.73721 20.00021 17.576923
-102.73536 19.976944 17.244917
-102.73802 20.021322 16.978857
-102.76877 20.703564 2.2871301
-102.7285 19.859219 18.143974
-102.73047 19.893387 17.860859
-102.72906 19.881203 17.22617
-102.72256 19.768774 18.13298
-102.72347 19.787062 17.834595
-102.72349 19.796143 17.220627
-102.71605 19.669666 18.118679
-102.71626 19.677338 17.810307
-102.60741 18.009893 18.297541
-102.60905 18.039169 18.01001
-102.60925 18.04674 17.702543
-102.60999 18.06225 17.40641
-102.60926 18.055737 17.091314
-102.61209 18.102648 16.83176
-102.61179 18.102325 16.528711
-102.61066 18.089781 16.217516
-102.61146 18.105932 15.936072
-102.61111 18.104832 15.641648
-102.60986 18.08917 15.410853
-102.61135 18.115797 15.144717
-102.61135 18.119949 14.861549
-102.6102 18.106586 14.566605
-102.61066 18.117641 14.294284
-102.61031 18.11644 14.014534
-102.61092 18.129431 13.748102
-102.59425 17.805286 18.575289
-102.60978 18.119329 13.254614
-102.61044 18.133076 12.993512
-102.61134 18.150669 12.736776
-102.61001 18.134319 12.458655
-102.61036 18.143381 12.199863
-102.61024 18.145472 11.938301
-102.61003 18.146013 11.677637
-102.60935 18.139519 11.41458
-102.5901 17.741678 18.590405
-102.60854 18.141132 10.43853
-102.60959 18.160683 10.1969
-102.60944 18.162169 9.9470377
-102.60847 18.151035 9.6924553
-102.60815 18.149651 9.4442949
-102.60884 18.16375 9.2046452
-102.58597 17.678398 18.604656
-102.57676 17.534378 18.853386
-102.60695 18.172407 6.6174674
-102.60741 18.182745 6.3845525
-102.57551 17.514301 18.919125
-102.60548 18.176821 4.7671146
-102.60606 18.189096 4.5375381
-102.60658 18.200197 4.3079643
-102.60548 18.186867 4.0756969
-102.60622 18.20141 3.847122
-102.60611 18.203142 3.6174195
-102.60593 18.203691 3.3879647
-102.60567 18.203058 3.1587751
-102.60609 18.212919 2.9303544
-102.60532 18.207684 2.4732971
-102.60551 18.214037 2.2439094
-102.60526 18.213392 2.014631
-102.60008 18.137772 1.7840126
-102.59601 18.079018 1.5504241
-102.59551 18.074837 1.3213483
-102.59647 18.09269 1.0906957
-102.54597 17.325825 0.86103904
-102.08118 10.175241 5.0577908
-102.07717 10.114173 5.0557194
-102.04445 9.4178638 18.645649
-102.04029 9.3544416 18.64641
-102.06365 9.9345398 3.2226377
-102.03683 9.3014002 18.662958
-102.04295 9.4501381 14.839672
-102.03255 9.2362089 18.659081
-102.05685 9.8306999 3.2263229
-102.02834 9.1720572 18.655437
-102.0359 9.3422947 14.860051
-102.02567 9.1260948 19.011337
-102.02445 9.1126509 18.654591
-102.03178 9.2795391 14.854901
-102.01982 9.0375662 18.96064
-102.02011 9.0466995 18.641689
-102.02812 9.223732 14.856919
-102.04883 9.7252302 2.0635815
-102.04929 9.7391014 1.5976131
-102.04905 9.7388096 1.365077
-102.04999 9.7598209 0.89766526
-102.0168 8.9959192 18.653994
-102.02395 9.1602554 14.84901
-102.04509 9.6648598 2.2929237
-102.04501 9.6670637 2.0600278
-102.04574 9.685008 1.5938078
-102.04603 9.6927652 1.3605051
-102.04574 9.6917162 1.1279551
-102.04644 9.7058458 0.89360297
-102.02017 9.1026297 14.847574
-102.04097 9.595418 2.753336
-102.04124 9.6063747 2.2872305
-102.04169 9.6166105 2.0541749
-102.04157 9.6180687 1.8213001
-102.04165 9.6226988 1.5883777
-102.04221 9.6344957 1.3548204
-102.0427 9.6454868 1.1209843
-102.04237 9.6436968 0.88844091
-102.00914 8.8791246 18.650711
-102.03666 9.5229588 3.2115419
-102.03706 9.5325012 2.9785054
-102.03716 9.5372696 2.7452383
-102.03771 9.5491638 2.5122888
-102.0377 9.5523109 2.2791419
-102.03737 9.5506706 2.0462537
-102.03802 9.5641203 1.8130436
-102.03785 9.5648327 1.5802975
-102.03841 9.5766726 1.3467389
-102.0389 9.5877075 1.1129023
-102.03909 9.5939531 0.87932622
-102.03267 9.4589214 3.4345684
-102.03287 9.4653492 3.2011673
-102.03276 9.4670095 2.9676099
-102.03311 9.4757681 2.7346945
-102.03367 9.4876833 2.5018296
-102.03391 9.494833 2.2687743
-102.03437 9.5051432 2.0356307
-102.03452 9.5106821 1.8025062
-102.03434 9.5114441 1.5696807
-102.0349 9.5233097 1.3360325
-102.03514 9.5303965 1.1025443
-102.03506 9.5327044 0.86949539
-102.02684 9.3462887 5.0651064
-102.02855 9.3860216 4.1288037
-102.02866 9.3909721 3.894419
-102.02896 9.3990402 3.6607776
-102.02895 9.4023581 3.4267731
-102.02916 9.4088001 3.1933739
-102.02956 9.4183779 2.9603362
-102.03017 9.4311037 2.7274165
-102.02996 9.4311714 2.4940383
-102.03046 9.4422913 2.2609797
-102.03092 9.45261 2.0277476
-102.03054 9.4502487 1.7948955
-102.03089 9.4589577 1.5616312
-102.03093 9.4629011 1.3285993
-102.03169 9.4779301 1.0943192
-102.03136 9.4762974 0.86171478
-102.02366 9.2977533 5.0636587
-102.02372 9.305582 4.5920477
-102.02496 9.3278093 4.3606443
-102.02573 9.3463964 3.8927052
-102.02552 9.3466206 3.6577671
-102.02552 9.3499508 3.4236767
-102.02598 9.3603315 3.1905341
-102.02612 9.3659744 2.9570653
-102.02621 9.3708067 2.7237189
-102.02652 9.3787766 2.4905941
-102.02728 9.3938379 2.2574422
-102.0267 9.3883553 2.024405
-102.02737 9.4018164 1.7910112
-102.02719 9.4026175 1.5581062
-102.02749 9.4105234 1.3247215
-102.02851 9.4294949 1.0899106
-102.02261 9.3056955 3.4240184
-102.02282 9.3121471 3.1902707
-102.02271 9.3138599 2.9563713
-102.02306 9.3226261 2.7231064
-102.0231 9.3266544 2.4897251
-102.02309 9.329875 2.2565019
-102.02354 9.3401728 2.0232687
-102.02343 9.3417835 1.7902398
-102.02377 9.3504801 1.5568875
-102.02407 9.3583755 1.3234154
-102.02431 9.3654699 1.0898411
-102.02502 9.3796606 0.85512513
-102.02134 9.3099651 1.7874908
-102.02197 9.329731 1.0859649
-102.02139 9.3242044 0.85345864
-101.95549 7.9988136 22.928055
-101.95309 7.9619589 22.941198
-101.94977 7.9103761 23.00112
-101.94748 7.8798938 22.697723
-101.94547 7.8492489 22.702139
-101.94373 7.8225255 22.715811
-101.94215 7.7979188 22.740269
-101.94522 7.8951836 19.272177
-101.93947 7.757236 22.733953
-101.93764 7.7289195 22.754616
-101.93618 7.7066064 22.759987
-101.94611 7.9389372 17.192974
-101.93449 7.6806378 22.774065
-101.937 7.7233171 22.474417
-101.9446 7.9156508 17.209593
-101.93478 7.6893182 22.484879
-101.94191 7.8607974 18.16172
-101.94257 7.8844123 17.223738
-101.93254 7.6550035 22.497597
-101.93949 7.8237591 18.167461
-101.94015 7.8474169 17.229254
-101.93014 7.6181517 22.510469
-101.92775 7.5815177 22.523233
-101.92552 7.5473986 22.533915
-101.93215 7.7115345 18.187956
-101.93326 7.7418852 17.258568
-101.92314 7.511013 22.53355
-101.92059 7.4722114 22.529217
-101.91774 7.4288688 22.5215
-101.91514 7.3891048 22.523584
-101.91247 7.3484759 22.519205
-101.91029 7.3152075 22.526731
-101.90839 7.285882 22.542913
-101.90605 7.2501268 22.550001
-101.88175 6.9605265 16.966053
-101.87979 6.9307494 16.959324
-101.8718 6.7423658 21.540661
-101.87799 6.9033275 16.958118
-101.86987 6.7128534 21.542252
-101.8763 6.8773875 16.963367
-105.01765 54.776917 18.123831
-103.21004 27.19985 18.458174
-103.18797 26.864542 18.355463
-103.17351 26.879316 2.1393166
-103.14701 26.475271 2.136066
-103.07017 25.070297 18.183376
-103.05019 24.766798 18.099508
-103.00684 24.108263 17.908772
-103.02044 24.441776 9.2181091
-103.03635 24.801088 1.180516
-102.98136 23.721449 17.785198
-102.98548 23.789209 17.443607
-102.98486 23.785175 17.067207
-102.9889 23.862387 15.997379
-102.98952 23.877058 15.639918
-102.99174 23.921091 14.937909
-102.99231 23.934895 14.586349
-102.99113 23.922146 14.226012
-102.9966 24.040066 11.838739
-102.99712 24.053066 11.502604
-102.99589 24.039137 11.159724
-102.99393 24.014349 10.815633
-102.99663 24.060049 10.493491
-102.99701 24.070711 10.162401
-102.95741 23.357624 17.67852
-102.95895 23.386326 17.319546
-102.95827 23.381454 16.945871
-102.96094 23.427107 16.600117
-102.96444 23.485384 16.262108
-102.96572 23.510063 15.909659
-102.96618 23.527411 15.196606
-102.96638 23.535576 14.843309
-102.96587 23.533001 14.48771
-102.96897 23.590092 13.808276
-102.96947 23.602726 13.464737
-102.96874 23.596727 13.11606
-102.97095 23.640142 12.444561
-102.97247 23.673046 11.775237
-102.97384 23.703573 11.110777
-102.98258 23.916512 5.6212039
-102.98647 24.007961 3.4120889
-102.98767 24.03994 2.4673874
-102.93698 23.063217 16.496979
-102.9384 23.089851 16.146507
-102.94013 23.121326 15.800362
-102.93964 23.119072 15.440622
-102.94151 23.152611 15.099443
-102.94309 23.196716 13.714731
-102.94407 23.21653 13.376895
-102.94487 23.233671 13.039684
-102.9455 23.248148 12.703133
-102.94595 23.259968 12.367269
-102.87745 22.153238 16.621874
-102.88225 22.23625 15.944942
-102.88187 22.235634 15.588922
-102.8818 22.239708 15.237686
-102.88155 22.240894 14.887563
-102.88212 22.254608 14.545346
-102.86684 22.179136 3.6928647
-102.86825 22.204935 3.3889613
-102.87004 22.236753 3.0850899
-102.86579 22.176331 2.7783129
-102.86784 22.211975 2.4746978
-102.86613 22.194813 1.8661784
-102.59153 17.769125 18.2015
-102.59702 17.857164 17.903103
-102.59702 17.872263 16.862009
-102.60095 17.946548 15.879998
-102.60072 17.952658 15.212631
-102.60011 17.948202 14.878834
-102.60122 17.969694 14.56084
-102.60075 17.967251 14.232869
-102.60011 17.96225 13.906086
-102.5993 17.954704 13.580523
-102.59976 17.966372 13.266117
-102.60056 17.982941 12.955718
-102.60168 18.004492 12.649107
-102.59975 17.979872 12.324685
-102.59583 17.984713 7.8560624
-102.59653 17.999605 7.5676126
-102.5961 17.99733 7.2761941
-102.59604 18.000605 6.9869356
-102.59585 18.001867 6.6981592
-102.59602 18.008749 6.4112439
-102.59708 18.028915 6.1272235
-102.59599 18.016573 5.8385
-102.59528 18.009871 5.5516186
-102.59444 18.001186 5.2653341
-102.59489 18.016287 4.6988268
-102.58559 17.923399 1.3240771
-101.86366 6.6578727 18.803083
-101.84806 6.4210687 18.725044
-101.8354 6.228529 18.690937
-101.84037 6.3078694 18.44602
-101.82645 6.0963926 18.389631
-101.81438 5.9126987 18.360132
-101.7998 5.6864991 18.611393
-101.80312 5.7410426 18.341616
-101.79138 5.5626516 18.307226
-101.75157 4.9487119 18.763645
-101.73803 4.6867461 22.581717
-101.71708 4.4288273 18.333172
-105.05027 55.277298 17.922194
-105.05074 55.290997 17.467775
-105.05034 55.291569 17.011429
-105.05623 55.419987 14.35644
-105.0676 55.611889 13.081892
-105.04285 55.157726 18.361511
-105.05067 55.2831 17.943897
-105.04877 55.260986 17.476887
-105.04779 55.252621 17.017435
-105.05732 55.436359 14.376571
-105.05385 55.396374 13.483614
-105.0618 55.554943 10.908865
-105.06187 55.562386 10.479963
-105.06315 55.600323 9.2025642
-105.0432 55.162678 18.390446
-105.0563 55.4772 10.483072
-105.05021 55.396969 9.6142673
-105.05313 55.459873 8.3497725
-105.04829 55.367329 9.632021
-105.05615 55.505585 8.3769398
-105.05146 55.452492 7.103147
-105.04951 55.422504 7.1238956
-105.04501 55.360096 6.6971822
-105.01875 54.783611 18.817347
-105.04618 55.377552 6.7159047
-105.03626 55.244671 5.4486284
-105.0358 55.243679 5.0315456
-105.03587 55.232651 5.8715606
-105.03503 55.225731 5.4531989
-105.03642 55.25312 5.0375142
-105.02822 55.103882 6.7012014
-103.3639 29.542698 18.733288
-103.35103 29.3472 18.675175
-103.34 29.179535 18.632656
-103.31682 28.896025 13.802023
-103.27291 28.156895 18.588701
-103.26129 27.980181 18.554514
-103.24833 27.783213 18.500151
-103.23405 27.566376 18.426815
-103.21931 27.342772 18.348783
-103.22307 27.404341 18.059469
-103.22434 27.428246 17.74663
-103.22543 27.44948 17.43462
-103.2032 27.098362 18.261744
-103.20692 27.159151 17.973804
-103.20954 27.203535 17.676477
-103.20732 27.174662 17.333185
-103.21149 27.242287 17.055632
-103.21268 27.26486 16.751019
-103.21478 27.310087 15.837714
-103.21434 27.307943 15.528141
-103.21567 27.332415 15.236123
-103.2164 27.352156 14.642175
-103.21725 27.369467 14.352317
-103.21748 27.377018 14.059392
-103.21803 27.389639 13.771035
-103.22121 27.462812 12.076807
-103.22174 27.47488 11.800011
-103.22213 27.484798 11.52382
-103.22347 27.517223 10.704692
-103.22382 27.526438 10.433702
-103.22403 27.53359 10.163272
-103.22462 27.54648 9.8959494
-103.23143 27.703388 6.2401371
-103.2356 27.803989 3.6925163
-103.18943 26.889141 18.203732
-103.18987 26.900385 17.883266
-103.19384 26.965054 17.601614
-103.19252 26.949831 17.268894
-103.19477 26.988405 16.974279
-103.19781 27.038828 16.689064
-103.1979 27.053663 15.762307
-103.19839 27.065479 15.462562
-103.1992 27.082102 15.167809
-103.2018 27.130167 14.592435
-103.20117 27.124922 14.292163
-103.20233 27.146807 14.008136
-103.20335 27.166439 13.724676
-103.20324 27.168903 13.434604
-103.20445 27.19149 13.156043
-103.20553 27.211903 12.877965
-103.20496 27.207529 12.590324
-103.20575 27.223545 12.313538
-103.2054 27.222229 12.030925
-103.20741 27.256748 11.764782
-103.20677 27.251093 11.483613
-103.20649 27.250883 11.206357
-103.20658 27.256195 10.932787
-103.20754 27.274811 10.665456
-103.20736 27.275967 10.393112
-103.20806 27.290527 10.126719
-103.20966 27.318621 9.8657923
-103.20908 27.313662 9.5952091
-103.20938 27.322247 9.3301392
-103.20956 27.328854 9.0655556
-103.21065 27.349167 8.8058529
-103.2111 27.359724 8.54424
-103.21141 27.368357 8.2830076
-103.2116 27.375067 8.0221796
-103.21375 27.411472 7.7691522
-103.21369 27.414415 7.5088506
-103.21299 27.407516 7.2473435
-103.21426 27.430471 6.9928417
-103.21487 27.443651 6.7368317
-103.21642 27.470928 6.4838338
-103.2168 27.48045 6.2280393
-103.21602 27.472149 5.9699869
-103.21563 27.469976 5.7136793
-103.21617 27.481977 5.4599457
-103.21766 27.508215 5.2082849
-103.21744 27.508593 4.9537244
-103.21922 27.539299 4.7027173
-103.21876 27.536064 4.4484768
-103.22083 27.571274 4.1977663
-103.2212 27.580557 3.9449284
-103.22039 27.571926 3.6912258
-103.17654 26.697937 17.830708
-103.17723 26.71298 17.516987
-103.17728 26.718294 17.199629
-103.18042 26.770384 16.915375
-103.18013 26.770462 16.599884
-103.18107 26.789246 16.298857
-103.182 26.812105 15.695041
-103.18293 26.830618 15.400804
-103.18323 26.839457 15.10323
-103.18479 26.871761 14.522719
-103.18462 26.873358 14.227814
-103.18623 26.902077 13.949004
-103.18575 26.898962 13.655861
-103.18855 26.945534 13.389037
-103.18727 26.93037 13.094
-103.18832 26.950249 12.817475
-103.18822 26.952942 12.534744
-103.18997 26.983566 12.265991
-103.1896 26.981888 11.984694
-103.19057 27.000763 11.713653
-103.19092 27.009954 11.44003
-103.19012 27.001762 11.161155
-103.19119 27.022024 10.894725
-103.19163 27.032604 10.625869
-103.19244 27.048847 10.360251
-103.19261 27.055378 10.092422
-103.19317 27.067627 9.8277082
-103.19359 27.0779 9.5634394
-103.19286 27.070641 9.2949228
-103.19405 27.092541 9.0363235
-103.19408 27.096918 8.7735195
-103.19502 27.115013 8.5154533
-103.19481 27.115532 8.2535677
-103.19602 27.137707 7.9980516
-103.19659 27.150162 7.7407751
-103.19652 27.152855 7.4820137
-103.19736 27.169476 7.2270694
-103.1981 27.184263 6.97227
-103.19818 27.189285 6.716135
-103.19814 27.192459 6.4603577
-103.20008 27.225616 6.2102757
-103.20033 27.233116 5.9561729
-103.19836 27.206877 5.697691
-103.19942 27.226681 5.4465847
-103.20089 27.25271 5.1963992
-103.20172 27.268972 4.9451022
-103.20243 27.283464 4.6937823
-103.20197 27.280138 4.4410148
-103.20245 27.291069 4.1898804
-103.20281 27.300226 3.9387815
-103.16477 26.537348 16.528696
-103.16521 26.548458 16.224514
-103.16607 26.570219 15.623368
-103.16723 26.596491 15.034252
-103.16728 26.605822 14.444668
-103.16998 26.650866 14.174453
-103.17059 26.6644 13.889237
-103.16862 26.638708 13.58633
-103.17138 26.684647 13.321047
-103.17106 26.683933 13.034603
-103.17207 26.703333 12.759467
-103.17146 26.698112 12.47477
-103.17219 26.713179 12.200941
-103.17228 26.718584 11.924487
-103.17273 26.729406 11.651905
-103.17354 26.745722 11.382969
-103.17472 26.767609 11.117455
-103.17477 26.772228 10.846552
-103.17367 26.759457 10.570781
-103.17547 26.790615 10.312228
-103.17561 26.796783 10.045913
-103.17665 26.816383 9.7852411
-103.17654 26.818583 9.5199652
-103.17698 26.836643 8.734622
-103.17818 26.862476 8.2197533
-103.17838 26.872959 7.704329
-103.17985 26.898991 7.4525623
-103.17964 26.899576 7.1957293
-103.1814 26.929888 6.9457393
-103.18198 26.942616 6.6925693
-103.18194 26.945608 6.4381709
-103.18282 26.962641 6.1868119
-103.18358 26.97789 5.9355068
-103.18266 26.967487 5.6808076
-103.18318 26.979145 5.4299302
-103.18516 27.012949 5.1821146
-103.18493 27.013096 4.9303265
-103.18511 27.019444 4.6796737
-103.18465 27.016018 4.4284697
-103.18512 27.026819 4.1789007
-103.15176 26.330582 17.099276
-103.15531 26.38875 16.821199
-103.15545 26.395296 16.511744
-103.15494 26.392122 16.198992
-103.15625 26.420736 15.602877
-103.15476 26.40259 15.289471
-103.15549 26.41787 14.998048
-103.15503 26.419495 14.405821
-103.15481 26.420311 14.113245
-103.15588 26.440758 13.833005
-103.15681 26.458998 13.553345
-103.15662 26.460249 13.267085
-103.15628 26.459204 12.981784
-103.15628 26.46332 12.70091
-103.16733 26.73037 5.9121356
-103.1424 26.188112 17.078844
-103.14371 26.247231 14.371831
-103.14395 26.255171 14.083668
-103.14501 26.275425 13.803908
-103.14399 26.264101 13.510003
-103.14476 26.27986 13.231761
-103.14783 26.330433 12.971755
-103.15135 26.395956 12.158156
-103.15093 26.393661 11.87934
-103.15186 26.411751 11.610778
-103.15166 26.412718 11.336619
-103.15133 26.411568 11.063274
-103.15136 26.415901 10.793627
-103.15176 26.425797 10.527448
-103.14749 26.36499 10.237601
-103.14862 26.386011 9.9785185
-103.14862 26.389786 9.714653
-103.14748 26.3762 9.4465322
-103.14772 26.383705 9.1864557
-103.14886 26.404749 8.9314137
-103.15089 26.439436 8.6809187
-103.14974 26.425776 8.4176912
-103.15154 26.456816 8.1674471
-103.15066 26.447115 7.9074636
-103.15068 26.451111 7.6519399
-103.15109 26.461077 7.3986263
-103.12759 26.002583 14.296778
-103.12781 26.010029 14.009982
-103.12884 26.029762 13.731591
-103.12924 26.039991 13.450109
-103.12901 26.040642 13.165806
-103.13351 26.112782 12.917639
-103.13349 26.151991 10.196976
-103.1336 26.157463 9.9336901
-103.13408 26.168619 9.6735277
-103.13444 26.177851 9.4138203
-103.13416 26.177481 9.1522408
-103.13478 26.190575 8.8958626
-103.14188 26.302185 8.6681862
-103.14597 26.401222 6.1352811
-103.14153 26.337414 5.8737755
-103.14319 26.366255 5.627872
-103.14214 26.353924 5.3764067
-103.14201 26.3556 5.1275306
-103.14125 26.347612 4.8780756
-103.14719 26.445213 4.3914251
-103.14661 26.439966 4.1428618
-103.14565 26.443279 2.907577
-103.147 26.467422 2.6615372
-103.14562 26.450056 2.4150343
-103.14571 26.454855 2.1688442
-103.1115 25.758123 14.222947
-103.11168 25.765074 13.937518
-103.11822 25.880404 12.857696
-103.12555 26.090416 6.096355
-103.12576 26.0972 5.8480496
-103.1397 26.367014 1.9148108
-103.10578 25.691246 12.823589
-103.11259 25.856358 8.6018133
-103.08054 25.244473 17.072046
-103.07267 25.124395 17.07802
-102.60313 17.941547 18.506939
-102.60616 17.991575 18.244423
-102.60721 18.011889 17.955193
-102.60738 18.018814 17.65625
-102.6059 18.000883 17.337646
-102.60813 18.043003 16.781996
-102.60925 18.063881 16.507824
-102.60907 18.065468 16.219643
-102.60876 18.064888 15.932683
-102.60909 18.073814 15.656508
-102.60733 18.051428 15.357881
-102.60895 18.079735 15.102525
-102.60809 18.070776 14.820399
-102.60867 18.0835 14.557476
-102.60795 18.076445 14.282214
-102.60789 18.079374 14.016836
-102.6069 18.068354 13.744024
-102.6082 18.091671 13.497396
-102.60818 18.095087 13.239012
-102.60844 18.102795 12.985533
-102.6086 18.108757 12.732846
-102.6058 18.121363 8.931221
-102.60587 18.125805 8.7019796
-102.60543 18.122328 8.4708567
-102.60531 18.123867 8.2427826
-102.60468 18.117464 8.0130358
-102.60523 18.129164 7.7905235
-102.60612 18.14603 7.5703511
-102.60564 18.141918 7.3443356
-102.6055 18.142958 7.1208677
-102.60439 18.129465 6.8942642
-102.60537 18.147484 6.6771655
-102.60496 18.144409 6.4551516
-102.60445 18.139967 6.2336874
-102.60517 18.154032 6.0172052
-102.58075 17.59664 18.75309
-102.60242 18.162012 2.5755599
-102.60217 18.161173 2.3612776
-102.60182 18.159075 2.1471713
-102.59964 18.128912 1.9339777
-102.59227 18.02276 1.5034891
-102.59248 18.029085 1.2891906
-102.5913 18.014153 1.0763897
-102.54489 17.306198 1.0764706
-102.11525 10.490429 19.150621
-102.10701 10.364792 19.147638
-102.09772 10.223591 19.119345
-102.08931 10.095371 19.112541
-102.07954 9.9468708 19.070379
-102.07222 9.8351641 19.076435
-102.05735 9.6128778 18.768858
-102.04626 9.4402809 19.003874
-102.03724 9.3029947 18.976786
-102.04082 9.3608856 18.74876
-102.02886 9.1755018 18.961111
-102.00903 8.8762331 18.742344
-102.00096 8.7531042 18.741377
-101.98849 8.5006647 23.025393
-101.99268 8.6269789 18.7334
-101.98071 8.3820009 23.026264
-101.98489 8.5081205 18.734253
-101.97278 8.2610493 23.025679
-101.97675 8.3839016 18.727854
-101.96395 8.1267481 23.005527
-101.96817 8.2532682 18.716208
-101.95538 7.9962287 22.992292
-101.95986 8.1267052 18.71059
-101.94687 7.8665638 22.973034
-101.95226 8.0104885 18.71727
-101.93941 7.7528386 22.981319
-101.94409 7.8861828 18.707182
-101.93127 7.6286769 22.968418
-101.9359 7.7612844 18.696032
-101.92269 7.4982214 22.947842
-101.92585 7.5503178 22.675808
-101.92823 7.6443143 18.70141
-101.91499 7.3806014 22.953272
-101.91792 7.4293637 22.674528
-101.92013 7.520772 18.694338
-101.90985 7.3064437 22.660236
-101.91202 7.3972802 18.681673
-101.90215 7.1891842 22.655573
-101.9052 7.2929993 18.701075
-101.89445 7.0716538 22.655104
-101.88707 6.9589181 22.669056
-101.88963 7.0020604 22.383989
-101.87885 6.8337297 22.654432
-101.88201 6.8857994 22.389317
-101.88279 6.9025006 22.052338
-101.87128 6.718183 22.65527
-101.87463 6.7730212 22.396736
-101.8754 6.7896919 22.059689
-101.86397 6.6065745 22.660324
-101.86668 6.6520181 22.381977
-101.86723 6.6655064 22.038544
-101.87135 6.7794323 18.514202
-101.85851 6.527616 22.360481
-101.85988 6.5531569 22.043297
-101.864 6.667191 18.518192
-101.86514 6.7016449 17.349159
-101.85073 6.409101 22.354435
-101.85209 6.4344974 22.037315
-101.85618 6.5480223 18.512953
-101.85738 6.5704136 18.238884
-101.85754 6.5857134 17.34967
-101.84342 6.2976265 22.356955
-101.84437 6.3168402 22.02681
-101.8488 6.4354634 18.51543
-101.85022 6.4609957 18.247047
-101.85089 6.4753094 17.962336
-101.85079 6.4782062 17.66198
-101.84992 6.4694881 17.346668
-101.8365 6.1920433 22.362799
-101.83723 6.2080975 22.026068
-101.83846 6.2314105 21.709961
-101.83772 6.2303686 20.992193
-101.83861 6.2485232 20.679947
-101.83855 6.2526507 20.344053
-101.84009 6.2800837 20.058672
-101.84135 6.3218737 18.508873
-101.84319 6.3537083 18.251925
-101.84296 6.3546848 17.944681
-101.84331 6.3640699 17.655621
-101.84333 6.3686938 17.362251
-101.84461 6.3920689 17.102596
-101.82968 6.0929976 22.014391
-101.83089 6.1161194 21.698341
-101.83201 6.1376424 21.383221
-101.83117 6.1302047 21.012272
-101.83144 6.1391306 20.681019
-101.8318 6.1494217 20.357407
-101.83248 6.1642776 20.047382
-101.83327 6.1807122 19.744537
-101.8335 6.202373 18.492172
-101.83488 6.2274303 18.223984
-101.83553 6.2414131 17.939478
-101.83565 6.2474222 17.644876
-101.83522 6.2453332 17.340649
-101.83694 6.2751698 17.091988
-101.83768 6.2904496 16.822254
-101.83744 6.2909184 16.532358
-101.83802 6.3036065 16.264595
-101.83852 6.3150506 15.997719
-101.83929 6.3384881 15.197828
-101.82237 5.986639 21.662472
-101.82287 5.9990029 21.328484
-101.82325 6.0096364 20.995876
-101.82393 6.0246367 20.677172
-101.8243 6.0349536 20.353493
-101.82539 6.0559883 20.055601
-101.82513 6.0568643 19.722376
-101.82557 6.0816712 18.476351
-101.82674 6.103364 18.202538
-101.82738 6.11727 17.918171
-101.82771 6.1265364 17.629253
-101.82706 6.1212015 17.319649
-101.82832 6.144206 17.060335
-101.82928 6.1627007 16.796206
-101.83017 6.1799908 16.532751
-101.82984 6.1791472 16.244167
-101.8301 6.1871243 15.972344
-101.83051 6.1972575 15.706608
-101.83085 6.2061682 15.441817
-101.83157 6.220798 15.187737
-101.83231 6.2396522 14.672284
-101.8321 6.2402816 14.406641
-101.83276 6.2538648 14.160479
-101.83239 6.2521167 13.897053
-101.83314 6.2670665 13.656942
-101.83334 6.273787 13.408739
-101.83372 6.2830329 13.165671
-101.83403 6.2912245 12.923364
-101.83482 6.3172593 11.966067
-101.8401 6.4679961 7.1266317
-101.81415 5.8615441 21.637007
-101.81464 5.873878 21.303139
-101.81542 5.8904891 20.983257
-101.8157 5.8994431 20.652065
-101.81606 5.9097428 20.32851
-101.81715 5.9306817 20.030729
-101.81777 5.9628234 18.463646
-101.81892 5.9844589 18.189802
-101.81892 5.9886599 17.888607
-101.81968 6.0043998 17.610956
-101.8186 5.9926195 17.290518
-101.82008 6.0187869 17.036776
-101.82126 6.0405192 16.778078
-101.82169 6.0510716 16.5042
-101.82204 6.0603504 16.231327
-101.8223 6.0683584 15.959493
-101.82226 6.0717006 15.683716
-101.82282 6.0840182 15.424001
-101.82307 6.0917239 15.160254
-101.82372 6.1051531 14.907084
-101.82381 6.110498 14.645232
-101.82384 6.1146517 14.384448
-101.82473 6.1317058 14.142972
-101.82484 6.1371117 13.888575
-101.82488 6.1413827 13.635174
-101.82533 6.1516781 13.391435
-101.82522 6.1537337 13.139952
-101.82625 6.172729 12.91035
-101.82625 6.1762729 12.664734
-101.8269 6.189682 12.432089
-101.82652 6.1874771 12.184278
-101.82681 6.1952162 11.949166
-101.82751 6.2093544 11.722298
-101.82792 6.2188616 11.492173
-101.82777 6.2199674 11.255456
-101.82805 6.2275486 11.026726
-101.82802 6.230433 10.79521
-101.82842 6.2398934 10.571235
-101.82904 6.2590528 9.8994541
-101.83102 6.3081365 8.5972786
-101.83112 6.3126941 8.381505
-101.83141 6.3203211 8.168725
-101.83199 6.3382955 7.5328946
-101.83207 6.3426595 7.3218479
-101.83237 6.3501816 7.1132894
-101.80691 5.7513943 21.617012
-101.8076 5.7667189 21.289408
-101.80798 5.7774091 20.956751
-101.80826 5.7863998 20.625523
-101.80862 5.7967243 20.301933
-101.80951 5.8145647 19.998014
-101.81129 5.868403 18.15732
-101.81149 5.8758583 17.861771
-101.8127 5.8980465 17.595139
-101.8131 5.9126067 17.020607
-101.81361 5.9244304 16.745798
-101.81405 5.9349823 16.471964
-101.81507 5.9542837 16.214613
-101.81467 5.9522901 15.927349
-101.81485 5.9590611 15.656633
-101.81519 5.9679852 15.391953
-101.81612 5.9859686 15.142828
-101.81585 5.9856758 14.87035
-101.81595 5.9910359 14.608628
-101.81644 6.0021691 14.35723
-101.81733 6.0191951 14.11572
-101.81744 6.0246544 13.8613
-101.81796 6.0360522 13.616665
-101.8177 6.035749 13.359796
-101.81783 6.041431 13.11261
-101.81886 6.0603857 12.882973
-101.81837 6.056787 12.629181
-101.81903 6.0701604 12.396668
-101.81915 6.0753002 12.156837
-101.81967 6.0867281 11.925541
-101.81989 6.0935364 11.691051
-101.8203 6.1030512 11.460982
-101.8204 6.107924 11.227925
-101.82117 6.1229734 11.006199
-101.82115 6.125958 10.774502
-101.82156 6.1354709 10.550339
-101.82191 6.1440868 10.326705
-101.82219 6.154851 9.8780031
-101.82287 6.1683817 9.6621971
-101.82274 6.1696396 9.4378643
-101.82306 6.1776438 9.2200289
-101.82307 6.1809578 8.9999104
-101.82378 6.1949539 8.7885122
-101.82368 6.1965613 8.5695
-101.82352 6.1973033 8.3511944
-101.82433 6.2127299 8.1433411
-101.82458 6.2195926 7.9308639
-101.82492 6.230885 7.5072041
-101.825 6.2353196 7.2960563
-101.80421 5.730588 20.211283
-101.80466 5.7421451 19.895355
-101.80502 5.7521362 19.580715
-101.807 5.8042212 18.073637
-101.80698 5.8083568 17.772604
-101.80752 5.8206601 17.489576
-101.80834 5.8412971 16.926624
-101.80928 5.859468 16.662691
-101.80926 5.863277 16.378506
-101.80937 5.8690615 16.100784
-101.81007 5.8835635 15.839505
-101.81025 5.8901887 15.56898
-101.8108 5.9023294 15.309424
-101.81082 5.9065242 15.040986
-101.81145 5.9197416 14.788053
-101.81131 5.9215512 14.521744
-101.81202 5.9359641 14.275165
-101.81243 5.9458494 14.024671
-101.81254 5.9511561 13.770523
-101.81281 5.9588528 13.521766
-101.813 5.9654722 13.273879
-101.81337 5.974565 13.031123
-101.81414 5.9897485 12.797443
-101.81414 5.993237 12.552003
-101.81454 6.0028615 12.315529
-101.81441 6.0042768 12.071897
-101.81516 6.0191598 11.844632
-101.81514 6.0221987 11.606502
-101.81577 6.0352149 11.380304
-101.81562 6.0363011 11.14377
-101.8159 6.0437737 10.915216
-101.8166 6.0577292 10.694173
-101.81675 6.0633802 10.466777
-101.81709 6.0718455 10.243341
-101.81713 6.0756741 10.017271
-101.81736 6.0823517 9.7950373
-101.81802 6.0956979 9.5794296
-101.81814 6.1006436 9.3582306
-101.81845 6.1085157 9.1405125
-101.8187 6.1155424 8.9232769
-101.81815 6.1102505 8.698494
-101.81879 6.1232333 8.4877319
-101.81965 6.1392756 8.2796879
-101.81892 6.131392 8.0571136
-101.81967 6.1458387 7.8496981
-101.82011 6.1556416 7.6401081
-101.81999 6.156877 7.4264402
-101.82007 6.1611938 7.2154946
-101.82729 6.3623991 0.931346
-101.79995 5.7051897 17.491337
-101.80054 5.722435 16.922998
-101.80125 5.7371988 16.65383
-101.80167 5.7474761 16.380255
-101.80178 5.753212 16.10253
-101.80181 5.7576642 15.825996
-101.80242 5.7708416 15.565713
-101.80252 5.7761645 15.296364
-101.80321 5.7903819 15.042722
-101.80315 5.7933226 14.775444
-101.8037 5.8052888 14.523473
-101.80371 5.8093033 14.263011
-101.80434 5.8225055 14.017298
-101.8049 5.8346653 13.772245
-101.8047 5.835331 13.514699
-101.8056 5.8523684 13.279911
-101.80549 5.8543673 13.028602
-101.80554 5.8588104 12.782529
-101.80624 5.8728614 12.549636
-101.8064 5.8788242 12.309241
-101.80698 5.8909507 12.077518
-101.80701 5.8949294 11.838661
-101.80722 5.9015274 11.604445
-101.80737 5.9071612 11.370975
-101.80746 5.9118361 11.138277
-101.80797 5.9228859 10.913396
-101.80842 5.9330435 10.689002
-101.80882 5.9423127 10.465116
-101.80891 5.9469895 10.238494
-101.80943 5.9582 10.018954
-101.80965 5.9648242 9.7967176
-101.80982 5.9705744 9.5750723
-101.80993 5.9754529 9.3540373
-101.81049 5.9870114 9.1393356
-101.81098 5.997757 8.9249496
-101.81093 6.0000925 8.7055292
-101.81107 6.0053811 8.489399
-101.81141 6.0136614 8.2763233
-101.81145 6.017303 8.0612059
-101.81148 6.0271611 7.4215665
-101.81181 6.0352869 7.212965
-101.81878 6.2238488 1.5358572
-101.81917 6.238605 0.93352914
-101.79363 5.6250319 16.375126
-101.79397 5.6340208 16.102634
-101.79439 5.6483021 15.560805
-101.79492 5.6602674 15.301398
-101.79539 5.6710963 15.042821
-101.79533 5.6740589 14.775543
-101.79542 5.6792068 14.514164
-101.79588 5.6900086 14.26311
-101.79629 5.6997328 14.012844
-101.79707 5.7152691 13.772341
-101.7971 5.7194304 13.519188
-101.79753 5.7294493 13.275691
-101.79789 5.7384458 13.032932
-101.79771 5.7394023 12.782622
-101.79841 5.7533908 12.549727
-101.79881 5.7628937 12.313331
-101.79843 5.7607436 12.065856
-101.79871 5.7682619 11.831078
-101.79915 5.7784119 11.600779
-101.79929 5.7840285 11.367391
-101.79986 5.7959375 11.14196
-101.80037 5.8069596 10.916996
-101.80058 5.8134427 10.689089
-101.80073 5.8190155 10.461854
-101.80131 5.8310442 10.241846
-101.80158 5.8385291 10.019039
-101.80156 5.841434 9.7937012
-101.80222 5.8546081 9.5781746
-101.80159 5.8482957 9.3482513
-101.80214 5.8597827 9.1337147
-101.80264 5.870461 8.9194956
-101.80233 5.8690195 8.6975603
-101.80347 5.8894029 8.4920797
-101.80331 5.89008 8.2738876
-101.80309 5.8899136 8.0564241
-101.80383 5.9041734 7.8490915
-101.8035 5.9023728 7.6328001
-101.80389 5.911253 7.4238214
-101.80421 5.9193645 7.2151341
-101.8109 6.1065912 1.3354613
-101.81138 6.1168537 1.1340579
-101.78571 5.504087 16.369812
-101.78667 5.5306854 15.560502
-101.78701 5.543519 15.0278
-101.78762 5.5565186 14.775013
-101.78771 5.5617161 14.51356
-101.78835 5.5788627 14.007538
-101.78869 5.5875177 13.758092
-101.78918 5.598547 13.51388
-101.78938 5.6051054 13.266068
-101.78973 5.6140828 13.023389
-101.78979 5.6185646 12.777318
-101.79025 5.6290126 12.540345
-101.79064 5.6384921 12.304027
-101.79074 5.6434736 12.064471
-101.79102 5.6510143 11.829612
-101.79122 5.6576009 11.595476
-101.79185 5.6704001 11.369435
-101.79194 5.6751199 11.136657
-101.79196 5.6788979 10.904671
-101.79217 5.6853642 10.676929
-101.79329 5.7054877 10.463244
-101.79289 5.702898 10.230013
-101.79317 5.7103591 10.007372
-101.79364 5.7206378 9.7884007
-101.79405 5.7300787 9.5698538
-101.79391 5.7312727 9.3458881
-101.79421 5.7390246 9.128417
-101.79421 5.7422185 8.9086666
-101.79465 5.7520509 8.6949482
-101.7953 5.764842 8.4841805
-101.79514 5.7655592 8.266077
-101.79567 5.7767735 8.0559883
-101.7954 5.7758503 7.839107
-101.79584 5.7854958 7.6297684
-101.79597 5.7905664 7.4185295
-101.80299 5.986074 1.3301839
-101.80269 5.9843702 1.1303155
-101.80286 5.9899321 0.92951238
-101.7812 5.4768686 13.50898
-101.78139 5.4834619 13.261171
-101.78152 5.4890137 13.01426
-101.78159 5.4935288 12.768271
-101.78227 5.5074391 12.535451
-101.7822 5.5099449 12.291145
-101.78254 5.5184464 12.055665
-101.78304 5.52952 11.82472
-101.78278 5.5290575 11.583084
-101.78373 5.5501132 11.12818
-101.784 5.5575109 10.899786
-101.78397 5.5604081 10.668618
-101.7846 5.5732179 10.448321
-101.78493 5.581563 10.22513
-101.78522 5.5890455 10.00249
-101.78544 5.5956683 9.7804213
-101.78536 5.5977678 9.5559301
-101.78596 5.6100283 9.3410082
-101.78626 5.6177969 9.123539
-101.78626 5.6210403 8.9037905
-101.78646 5.6271582 8.6873932
-101.78661 5.6324596 8.4715176
