# .PCD v0.7 - Point Cloud Data file format
VERSION 0.7
FIELDS x y z
SIZE 4 4 4
TYPE F F F
COUNT 1 1 1
WIDTH 1611
HEIGHT 1
VIEWPOINT 0 0 0 1 0 0 0
POINTS 1611
DATA ascii
11.514298 50.578754 21.878592
11.513686 50.572262 21.591755
11.514891 50.585995 22.153488
11.514366 50.591854 21.880304
11.513753 50.585167 21.593536
11.513207 50.585907 21.322491
11.512495 50.563755 21.023857
11.512009 50.569637 20.769453
11.511434 50.562855 20.501873
11.510968 50.569305 20.256433
11.510375 50.55777 19.991102
11.509932 50.565056 19.754465
11.509439 50.564911 19.511845
11.50886 50.551846 19.256741
11.508471 50.563637 19.036209
11.507914 50.551674 18.789938
11.507509 50.559555 18.570995
11.506936 50.5434 18.326902
11.506516 50.547424 18.109674
11.506007 50.538372 17.880556
11.505532 50.533009 17.658768
11.480003 50.157368 5.9559212
11.470016 50.008392 1.3826649
11.469697 50.000713 1.2430977
11.469481 50.019108 1.0925212
11.469124 50.002792 0.9550333
11.468843 50.005718 0.80892974
11.468501 49.994267 0.66824645
11.468183 49.988552 0.52438128
11.467857 49.981869 0.38021857
11.46758 49.987457 0.2293632
11.467244 49.978779 0.084479094
11.50901 50.572449 19.28149
11.507944 50.555988 18.794645
11.507419 50.547291 18.556177
11.506967 50.547604 18.331755
11.506466 50.540405 18.101801
11.506038 50.542477 17.885557
11.505643 50.548382 17.67638
11.50516 50.541153 17.455494
11.504671 50.53204 17.235601
11.504255 50.532619 17.028856
11.503711 50.514061 16.804909
11.503363 50.52282 16.611794
11.502928 50.518272 16.407524
11.502485 50.512054 16.204107
11.502118 50.516064 16.012989
11.501785 50.524544 15.828131
11.501325 50.513535 15.627073
11.500898 50.506939 15.432463
11.500547 50.510948 15.249528
11.50011 50.501324 15.056466
11.499706 50.496307 14.869557
11.49942 50.508339 14.699
11.498965 50.494297 14.508281
11.498587 50.491215 14.328607
11.498161 50.480503 14.14463
11.480511 50.200428 6.1022596
11.479999 50.15192 5.9666228
11.47822 50.171841 5.0396662
11.477924 50.166348 4.9069648
11.470053 50.009914 1.3967755
11.469705 49.995472 1.2599052
11.469408 49.993656 1.1176139
11.469133 49.997612 0.97219151
11.468852 50.000572 0.8262645
11.468512 49.98914 0.68574375
11.468166 49.976784 0.54507804
11.467869 49.976799 0.3980495
11.467566 49.9758 0.25056925
11.467205 49.96056 0.10921119
11.501799 50.520889 15.843803
11.50138 50.516083 15.648308
11.500914 50.503674 15.448118
11.500564 50.50787 15.265191
11.500168 50.504539 15.077474
11.499806 50.505875 14.895768
11.499399 50.499638 14.709462
11.498945 50.485744 14.518801
11.498608 50.489044 14.344257
11.498224 50.484764 14.165251
11.486146 50.426834 8.3386507
11.485756 50.40678 8.1946888
11.485439 50.399837 8.054821
11.485156 50.399036 7.9169049
11.484869 50.397366 7.7791371
11.484541 50.387783 7.6400599
11.484283 50.391422 7.5040922
11.484021 50.394215 7.3681321
11.483682 50.382027 7.2297721
11.483486 50.397251 7.0962811
11.483139 50.383347 6.9583383
11.482862 50.38274 6.8226919
11.482616 50.388371 6.6879706
11.482294 50.378994 6.5515952
11.481969 50.368771 6.4154763
11.481748 50.378975 6.2814302
11.48607 50.406895 8.3491344
11.485442 50.394409 8.0692453
11.48516 50.393864 7.9314089
11.484837 50.385399 7.7921543
11.484291 50.387001 7.5188279
11.483994 50.382984 7.3816476
11.483693 50.378105 7.2446585
11.483461 50.386517 7.110137
11.483079 50.365772 6.9712958
11.482803 50.36541 6.8359046
11.48256 50.371292 6.7014465
11.482276 50.369247 6.5660996
11.48206 50.38055 6.4322324
11.481696 50.362633 6.2956605
11.521125 51.425293 23.204081
11.521708 51.500591 23.31008
11.522748 51.690323 23.364767
11.524595 51.848255 23.895473
11.525305 51.943356 24.016178
11.526086 52.045216 24.155952
11.52536 52.034801 23.822624
11.524662 52.026237 23.498131
11.52403 52.024788 23.189575
11.523387 52.020424 22.882311
11.522613 51.997566 22.555067
11.521946 51.987301 22.250713
11.518328 51.948784 20.556292
11.516649 51.931465 19.769131
11.526736 52.129227 24.273829
11.526091 52.129517 23.954317
11.525274 52.106472 23.606945
11.524644 52.105621 23.29756
11.523962 52.096691 22.982283
11.523388 52.100384 22.689787
11.522604 52.075123 22.363184
11.522007 52.073196 22.073305
11.52132 52.057922 21.7708
11.527409 52.215023 24.398762
11.526608 52.195938 24.04891
11.525911 52.188663 23.7227
11.525283 52.188499 23.412418
11.524483 52.164757 23.074722
11.52387 52.163792 22.774387
11.523206 52.154766 22.46825
11.527994 52.28857 24.510235
11.527273 52.280235 24.174261
11.526501 52.263584 23.832512
11.525873 52.264107 23.521395
11.525115 52.246201 23.190022
11.523762 52.227123 22.567612
11.523128 52.221134 22.269072
11.521908 52.211601 21.689753
11.521242 52.197414 21.395208
11.520647 52.191433 21.115597
11.520042 52.182911 20.837234
11.528643 52.365707 24.644077
11.527885 52.353245 24.299803
11.527154 52.34251 23.964455
11.526529 52.34391 23.652388
11.525892 52.342365 23.341572
11.525084 52.317059 23.003582
11.524424 52.309502 22.695658
11.523752 52.299057 22.389132
11.522456 52.280334 21.794191
11.521198 52.261539 21.218369
11.529287 52.440742 24.78089
11.528453 52.419159 24.42094
11.527763 52.414333 24.092066
11.527061 52.406361 23.764618
11.526347 52.395264 23.438652
11.525701 52.391464 23.128469
11.524374 52.375141 22.512161
11.529764 52.495819 24.883411
11.529051 52.490063 24.544853
11.528324 52.481037 24.207777
11.527664 52.479004 23.886744
11.526873 52.458427 23.545485
11.526189 52.45018 23.227383
11.524905 52.440544 22.616594
11.522367 52.409134 21.438709
11.530359 52.569775 24.998278
11.529608 52.559795 24.651464
11.528804 52.541382 24.298933
11.528107 52.534885 23.969925
11.527475 52.535564 23.656765
11.526673 52.51247 23.316351
11.524796 52.503635 22.410362
11.524108 52.489704 22.104094
11.530809 52.630127 25.07506
11.530021 52.61562 24.720232
11.529297 52.607796 24.381729
11.528601 52.601841 24.052002
11.52717 52.580486 23.396973
11.526476 52.570381 23.078838
11.525851 52.567863 22.776201
11.525135 52.551857 22.460968
11.531222 52.687855 25.13942
11.530434 52.673729 24.784006
11.529711 52.66629 24.444908
11.528975 52.655586 24.107334
11.528307 52.651978 23.785704
11.527586 52.640102 23.458336
11.526853 52.625114 23.132526
11.526188 52.61763 22.822325
11.525513 52.607235 22.513533
11.524865 52.599342 22.213072
11.523661 52.591633 21.636559
11.531651 52.742859 25.217897
11.530785 52.719246 24.847109
11.530024 52.707222 24.500168
11.529328 52.702084 24.169355
11.528621 52.693783 23.839993
11.527902 52.682343 23.512133
11.525911 52.661423 22.579702
11.532044 52.787395 25.304686
11.53126 52.774609 24.947969
11.530461 52.758343 24.592941
11.529809 52.759106 24.26865
11.529064 52.746452 23.931309
11.528346 52.735775 23.602709
11.527076 52.731541 22.985209
11.525064 52.700958 22.06567
11.52444 52.694183 21.773329
11.532548 52.844517 25.415516
11.531727 52.82766 25.050596
11.530931 52.812294 24.694788
11.530361 52.824169 24.384211
11.529539 52.802158 24.031576
11.528825 52.792347 23.702175
11.528057 52.774143 23.367247
11.527478 52.779209 23.069052
11.526768 52.765507 22.751169
11.525515 52.756264 22.154217
11.524811 52.739323 21.847597
11.524259 52.74155 21.569298
11.523002 52.72176 20.996367
11.522419 52.716408 20.721678
11.520739 52.70293 19.923941
11.532977 52.897305 25.49975
11.532197 52.886105 25.141548
11.531444 52.876484 24.792334
11.530755 52.873707 24.45923
11.529935 52.852264 24.105988
11.529302 52.853424 23.79023
11.528576 52.841114 23.461626
11.527919 52.836269 23.148615
11.52729 52.833828 22.843927
11.52661 52.823181 22.533663
11.525919 52.809639 22.224874
11.525297 52.80415 21.931114
11.524665 52.795967 21.638662
11.524104 52.796207 21.360809
11.523492 52.788368 21.077532
11.52287 52.777969 20.795559
11.522321 52.776371 20.527779
11.521761 52.7724 20.261112
11.521193 52.766079 19.9956
11.520657 52.763206 19.737499
11.519557 52.750748 19.2246
11.533471 52.970402 25.567247
11.53281 52.974571 25.230499
11.531898 52.94503 24.851242
11.53125 52.947609 24.524784
11.530549 52.941929 24.192448
11.529757 52.922642 23.84734
11.529151 52.926323 23.539314
11.528373 52.90593 23.204498
11.527744 52.903721 22.899183
11.527104 52.898678 22.595171
11.526372 52.879963 22.278883
11.52575 52.874695 21.984484
11.525199 52.877758 21.704756
11.524597 52.872753 21.419498
11.524026 52.870762 21.142056
11.523363 52.855026 20.852808
11.522773 52.848007 20.577875
11.521108 52.835487 19.785572
11.534122 53.070629 25.646114
11.533341 53.059891 25.286465
11.532507 53.040554 24.92119
11.531778 53.033051 24.579472
11.531116 53.032627 24.253647
11.530283 53.008221 23.900721
11.529596 53.001472 23.5779
11.528938 52.996986 23.263525
11.528228 52.984211 22.943604
11.527627 52.984615 22.645826
11.526895 52.965965 22.328865
11.526312 52.966278 22.040501
11.525679 52.958454 21.746641
11.525076 52.953506 21.460735
11.524463 52.94598 21.176092
11.523881 52.941525 20.899221
11.523248 52.928921 20.617153
11.522606 52.913784 20.336466
11.522118 52.919186 20.082291
11.52158 52.916592 19.822828
11.520992 52.90591 19.558313
11.520436 52.898785 19.301125
11.519341 52.883842 18.796175
11.518295 52.872318 18.307409
11.517781 52.866493 18.067484
11.516771 52.854961 17.596336
11.534699 53.154797 25.727823
11.533918 53.144405 25.367414
11.533124 53.130497 25.008673
11.532396 53.123383 24.666119
11.531575 53.102612 24.310762
11.530941 53.104549 23.992792
11.530254 53.098232 23.66905
11.529556 53.088863 23.346762
11.528846 53.076462 23.025969
11.528125 53.061043 22.706726
11.527472 53.053524 22.402672
11.526809 53.043205 22.100004
11.526217 53.041157 21.812101
11.525573 53.030933 21.518814
11.52496 53.023651 21.233452
11.524418 53.025101 20.962324
11.523826 53.018463 20.685865
11.523142 52.997906 20.39798
11.522572 52.992054 20.130449
11.522075 52.995476 19.876505
11.521486 52.985023 19.611242
11.521012 52.989899 19.365421
11.520325 52.963097 19.090511
11.519917 52.975555 18.858665
11.519294 52.956142 18.598217
11.518787 52.952568 18.356506
11.518231 52.940895 18.110088
11.51775 52.939339 17.87612
11.51722 52.929722 17.637505
11.516261 52.923141 17.17984
11.515751 52.91394 16.949718
11.515274 52.909122 16.725899
11.514832 52.908802 16.50819
11.535176 53.215851 25.816107
11.534398 53.20607 25.45499
11.533605 53.192768 25.095533
11.532839 53.181114 24.745026
11.532099 53.171268 24.403345
11.531425 53.168613 24.077469
11.530701 53.157604 23.745939
11.529923 53.138126 23.408991
11.529295 53.136894 23.101479
11.528534 53.116596 22.774679
11.527924 53.115005 22.47678
11.527261 53.105194 22.173403
11.52671 53.109184 21.891455
11.525986 53.08836 21.584179
11.525414 53.087147 21.304693
11.524792 53.077782 21.019896
11.5242 53.071552 20.742834
11.523641 53.068588 20.473349
11.523071 53.063255 20.205004
11.522533 53.061375 19.944038
11.521946 53.051384 19.67802
11.521391 53.044952 19.419312
11.520786 53.030369 19.155758
11.520296 53.031364 18.911297
11.519715 53.018314 18.656063
11.519209 53.015133 18.413641
11.518695 53.009922 18.172216
11.518132 52.996593 17.926182
11.517147 52.988403 17.459723
11.516644 52.981434 17.227936
11.535623 53.266972 25.912682
11.534885 53.263027 25.558207
11.534016 53.24036 25.183382
11.533331 53.239712 24.846676
11.532634 53.235855 24.511375
11.531843 53.218346 24.163305
11.53112 53.208031 23.831091
11.530505 53.210522 23.521404
11.529758 53.194054 23.192173
11.528959 53.169071 22.857738
11.52835 53.168144 22.559137
11.52773 53.164478 22.261784
11.527181 53.169155 21.979061
11.526459 53.149017 21.67099
11.525888 53.148476 21.390713
11.525309 53.145432 21.111589
11.524759 53.145588 20.840065
11.524037 53.12043 20.544277
11.523511 53.121433 20.281523
11.522934 53.114342 20.013603
11.522306 53.099056 19.740755
11.521793 53.099018 19.487488
11.520742 53.092449 18.983994
11.519658 53.077335 18.484774
11.518665 53.072083 18.007011
11.518136 53.063412 17.766798
11.517097 53.046299 17.295073
11.53613 53.330299 26.010347
11.535356 53.322014 25.647749
11.534527 53.305096 25.279501
11.533924 53.315426 24.956486
11.533029 53.286419 24.584402
11.53232 53.279915 24.249945
11.531598 53.270233 23.916988
11.530945 53.268028 23.599566
11.530159 53.246777 23.262714
11.529482 53.238525 22.948233
11.528915 53.24369 22.655605
11.528215 53.229733 22.34388
11.527546 53.21841 22.040363
11.527028 53.226589 21.764732
11.526338 53.209869 21.463913
11.525718 53.201706 21.177582
11.525169 53.202351 20.90539
11.524571 53.194862 20.627947
11.523923 53.179146 20.345495
11.523388 53.178329 20.083094
11.522843 53.17524 19.821758
11.522249 53.163998 19.555458
11.521688 53.156361 19.296431
11.521199 53.158409 19.050425
11.520662 53.152386 18.799488
11.520034 53.132179 18.538073
11.519563 53.133972 18.30093
11.518597 53.131691 17.829294
11.518062 53.121471 17.589361
11.517518 53.109261 17.350538
11.517092 53.113777 17.128902
11.516051 53.092319 16.667015
11.536633 53.398132 26.094456
11.535898 53.395405 25.738508
11.535111 53.38414 25.376783
11.534349 53.374496 25.023989
11.533615 53.366642 24.68
11.532867 53.355492 24.337576
11.532146 53.346344 24.00382
11.531454 53.339355 23.678598
11.53083 53.340031 23.368704
11.530073 53.321621 23.03949
11.529427 53.316452 22.732367
11.528728 53.302963 22.419872
11.528099 53.297638 22.122252
11.52742 53.284027 21.819349
11.526852 53.284485 21.537558
11.526233 53.276768 21.250435
11.525644 53.272175 20.971031
11.525087 53.270821 20.699188
11.52448 53.261311 20.422199
11.523864 53.249348 20.146505
11.52332 53.246647 19.884415
11.522726 53.235794 19.617355
11.522247 53.240383 19.369553
11.521636 53.224998 19.10486
11.521016 53.207321 18.841509
11.520595 53.217529 18.60845
11.519958 53.195488 18.347527
11.519562 53.207821 18.121891
11.518992 53.193783 17.874594
11.518456 53.183842 17.634008
11.517446 53.17046 17.16688
11.517054 53.179718 16.950651
11.51653 53.168373 16.719416
11.515999 53.155151 16.48925
11.537329 53.493916 26.206991
11.536516 53.481644 25.835402
11.535849 53.486156 25.494726
11.534969 53.46167 25.119223
11.534315 53.464668 24.788733
11.533487 53.443588 24.431116
11.532767 53.434898 24.096502
11.532076 53.428368 23.770416
11.531452 53.429504 23.459644
11.530615 53.400707 23.115833
11.530009 53.40136 22.814747
11.529351 53.393761 22.508156
11.528764 53.394417 22.216301
11.528044 53.375698 21.905823
11.527434 53.370975 21.616573
11.526816 53.363647 21.328594
11.526228 53.359436 21.048328
11.525671 53.358475 20.775614
11.525023 53.343559 20.491478
11.524488 53.343559 20.227373
11.523822 53.323704 19.945927
11.523269 53.319031 19.684175
11.522707 53.312096 19.42355
11.522261 53.320816 19.181858
11.521724 53.315521 18.929232
11.521095 53.296009 18.666128
11.520541 53.286373 18.415848
11.52002 53.280735 18.172359
11.519575 53.285351 17.941044
11.51908 53.281914 17.705013
11.518537 53.270325 17.464516
11.518027 53.262993 17.230494
11.51751 53.253754 16.99748
11.517028 53.248928 16.770706
11.516497 53.235939 16.539726
11.516 53.227455 16.314886
11.515538 53.223568 16.095993
11.515069 53.217968 15.877943
11.514635 53.217113 15.665586
11.514153 53.208126 15.449226
11.51241 53.195019 14.619824
11.538054 53.596294 26.317802
11.537242 53.584454 25.94528
11.536376 53.563862 25.567211
11.535695 53.56535 25.227209
11.534882 53.547993 24.867079
11.534094 53.532398 24.515854
11.533374 53.52401 24.180449
11.532681 53.517776 23.853559
11.532018 53.513851 23.535055
11.531342 53.506962 23.217936
11.530695 53.502586 22.909039
11.529997 53.489864 22.594761
11.529327 53.479778 22.288673
11.528729 53.478058 21.997223
11.527998 53.456829 21.687393
11.52742 53.455421 21.405092
11.526832 53.4515 21.123962
11.526234 53.445084 20.844044
11.525667 53.441975 20.57164
11.524968 53.419003 20.281792
11.524424 53.416885 20.018059
11.523829 53.406582 19.749355
11.52335 53.411758 19.499882
11.522779 53.402885 19.239447
11.5222 53.391777 18.9802
11.521653 53.384491 18.727957
11.52114 53.381157 18.482536
11.520577 53.369656 18.232487
11.520049 53.362206 17.989176
11.519595 53.365101 17.757914
11.519051 53.353683 17.516621
11.51854 53.346523 17.281794
11.518023 53.337456 17.047977
11.517497 53.326481 16.815193
11.517048 53.326309 16.593716
11.516592 53.32439 16.373028
11.516047 53.307911 16.143217
11.515535 53.296028 15.919445
11.5151 53.295296 15.706328
11.514617 53.286423 15.489209
11.514169 53.282383 15.277671
11.513715 53.276718 15.066917
11.538736 53.693527 26.4198
11.537885 53.677013 26.039059
11.537099 53.666996 25.674746
11.536338 53.658611 25.319334
11.535564 53.646801 24.965536
11.534817 53.636848 24.62051
11.534097 53.628899 24.284124
11.533405 53.623112 23.956249
11.53266 53.608856 23.62291
11.531944 53.596889 23.298056
11.531257 53.587353 22.981544
11.530559 53.574883 22.666508
11.52997 53.576157 22.372972
11.52929 53.563599 22.067421
11.528681 53.559513 21.776407
11.52798 53.541462 21.473722
11.527432 53.543514 21.198196
11.526793 53.531635 20.911077
11.526185 53.522984 20.631599
11.525649 53.523529 20.365795
11.525023 53.510033 20.088785
11.524469 53.50592 19.825247
11.523907 53.499535 19.562824
11.523335 53.490891 19.301556
11.522756 53.480011 19.041471
11.52225 53.479012 18.794157
11.521612 53.45768 18.530701
11.521132 53.458576 18.291203
11.520561 53.445187 18.041473
11.520064 53.442085 17.803925
11.519561 53.437035 17.567322
11.51905 53.430058 17.331696
11.518573 53.427444 17.102337
11.518088 53.422989 16.873861
11.517555 53.410351 16.64118
11.517015 53.395832 16.409586
11.516552 53.392277 16.189039
11.516081 53.386986 15.969332
11.515604 53.379971 15.750488
11.515203 53.384254 15.542008
11.514671 53.367352 15.320151
11.513754 53.354683 14.89776
11.513328 53.352543 14.692225
11.512854 53.342216 14.483034
11.512456 53.343632 14.283259
11.51156 53.328606 13.877246
11.539272 53.769661 26.500359
11.538461 53.758579 26.126263
11.537675 53.748974 25.761183
11.536915 53.74099 25.404993
11.536141 53.729584 25.050413
11.535395 53.720028 24.704597
11.534715 53.717789 24.374454
11.533943 53.701748 24.031757
11.533198 53.68784 23.697672
11.532563 53.687088 23.385769
11.531754 53.661556 23.048006
11.531137 53.660419 22.745712
11.530549 53.66209 22.451336
11.529829 53.644306 22.13835
11.529179 53.634918 21.840021
11.528519 53.622833 21.543077
11.52793 53.619507 21.260351
11.527249 53.602154 20.966171
11.526683 53.599548 20.692282
11.526147 53.600384 20.425726
11.52552 53.587166 20.147968
11.524884 53.571507 19.871563
11.524363 53.57127 19.6145
11.52379 53.562862 19.352533
11.523252 53.558231 19.097593
11.522705 53.551441 18.843727
11.522191 53.548603 18.59667
11.521627 53.537575 18.34498
11.521097 53.530598 18.100018
11.520559 53.521584 17.856115
11.520056 53.516785 17.618711
11.519544 53.510044 17.382277
11.519066 53.507675 17.152107
11.518581 53.503456 16.922817
11.518006 53.484688 16.684204
11.517508 53.476746 16.456905
11.517002 53.466991 16.230568
11.51653 53.461887 16.010103
11.516052 53.455059 15.790501
11.51516 53.449337 15.363292
11.514662 53.43745 15.146265
11.5142 53.430473 14.934699
11.513298 53.418324 14.518414
11.512412 53.406601 14.10949
11.512002 53.405174 13.910261
11.511545 53.395535 13.707624
11.539867 53.844906 26.612173
11.539018 53.829498 26.229847
11.538194 53.815468 25.856647
11.537435 53.80814 25.499678
11.536703 53.802589 25.15147
11.535917 53.788464 24.797695
11.535119 53.770935 24.445629
11.534389 53.760738 24.109283
11.533726 53.758144 23.788338
11.533011 53.747135 23.461906
11.532326 53.738552 23.143805
11.531628 53.727024 22.827164
11.530919 53.712566 22.51203
11.530281 53.706406 22.211639
11.529673 53.703163 21.919111
11.529014 53.691608 21.621372
11.528303 53.671646 21.318659
11.527746 53.671974 21.042852
11.52714 53.664089 20.761889
11.526605 53.665398 20.494583
11.526019 53.658516 20.222189
11.525384 53.643356 19.94495
11.524904 53.649563 19.693037
11.524292 53.635689 19.424244
11.523754 53.631538 19.168455
11.523125 53.613106 18.902191
11.522695 53.622852 18.665819
11.52209 53.606155 18.407637
11.521478 53.587273 18.150763
11.521023 53.591003 17.917173
11.520477 53.580383 17.673552
11.519966 53.574013 17.43638
11.519406 53.559418 17.194944
11.518963 53.561825 16.970247
11.518472 53.556091 16.74119
11.51789 53.535755 16.502983
11.517426 53.532734 16.280928
11.516995 53.53442 16.064592
11.516435 53.514992 15.834524
11.515992 53.513256 15.619851
11.515542 53.509865 15.405931
11.515086 53.504833 15.192786
11.514624 53.498169 14.980442
11.514155 53.48988 14.768921
11.513721 53.486629 14.562592
11.51324 53.475159 14.352705
11.512836 53.475494 14.152087
11.512384 53.467628 13.947956
11.511927 53.458244 13.744598
11.510684 53.448345 13.154544
11.50984 53.436924 12.765563
11.540345 53.896851 26.722925
11.539538 53.887413 26.347172
11.538677 53.869183 25.965839
11.537962 53.867889 25.615314
11.537232 53.863243 25.26626
11.536409 53.844749 24.90451
11.535734 53.843967 24.572767
11.534885 53.818695 24.21447
11.534266 53.8223 23.89963
11.533472 53.801281 23.55859
11.532748 53.787983 23.232925
11.532174 53.793701 22.935757
11.531508 53.785629 22.626369
11.530872 53.780319 22.324997
11.530103 53.75536 22.005348
11.529487 53.750156 21.713339
11.52886 53.74234 21.422607
11.528182 53.72617 21.126865
11.527617 53.724724 20.851418
11.527002 53.715034 20.5709
11.52646 53.714619 20.303944
11.525908 53.711906 20.038054
11.525348 53.706902 19.773262
11.524778 53.699623 19.509607
11.524241 53.696106 19.25297
11.523696 53.690418 18.997396
11.52306 53.670391 18.731503
11.522539 53.666458 18.483929
11.522094 53.672791 18.248497
11.521475 53.652431 17.991861
11.52093 53.642368 17.747429
11.52042 53.636547 17.509445
11.519986 53.641376 17.282991
11.519378 53.619106 17.036476
11.518887 53.613865 16.806667
11.518431 53.613182 16.58283
11.517842 53.591476 16.344881
11.517413 53.593639 16.12779
11.516895 53.581158 15.901762
11.516411 53.573399 15.681505
11.516004 53.577 15.471478
11.515507 53.56588 15.252893
11.515045 53.559654 15.039768
11.514577 53.5518 14.82746
11.513704 53.544601 14.413939
11.513259 53.538677 14.208259
11.511929 53.518509 13.599756
11.540986 53.967506 26.868744
11.540104 53.949017 26.477278
11.539325 53.94202 26.109631
11.538572 53.936626 25.750858
11.537806 53.927776 25.393661
11.537026 53.915497 25.038094
11.536313 53.910408 24.698317
11.535507 53.891418 24.346054
11.53481 53.885216 24.016369
11.53406 53.870502 23.681288
11.533338 53.858105 23.354656
11.532725 53.8592 23.049805
11.532063 53.851959 22.739506
11.531387 53.841885 22.430613
11.530662 53.823349 22.116625
11.530128 53.830307 21.836637
11.529463 53.817654 21.538425
11.528828 53.808064 21.248003
11.528265 53.807476 20.971474
11.527611 53.792805 20.683653
11.527029 53.787315 20.409536
11.526397 53.773537 20.130547
11.525838 53.769199 19.86492
11.52527 53.762581 19.60042
11.524693 53.753696 19.33708
11.524191 53.754669 19.086512
11.523639 53.747459 18.831171
11.523079 53.738098 18.57695
11.522593 53.738922 18.335022
11.522058 53.731567 18.08849
11.521473 53.715942 17.837597
11.520923 53.704494 17.593306
11.520448 53.703613 17.360699
11.519923 53.694542 17.123751
11.519392 53.683548 16.88784
11.518895 53.67704 16.658051
11.518433 53.675114 16.434185
11.517838 53.652088 16.196428
11.517404 53.653046 15.97928
11.516921 53.645821 15.758098
11.516431 53.636871 15.53781
11.515976 53.632774 15.32304
11.515473 53.620441 15.104537
11.515088 53.62627 14.900324
11.514697 53.630581 14.696633
11.514175 53.613377 14.480636
11.513321 53.60762 14.072398
11.512864 53.599102 13.867275
11.512015 53.591091 13.467178
11.51154 53.578079 13.264314
11.510289 53.564545 12.6787
11.541394 54.016289 26.95203
11.540631 54.013557 26.582043
11.539696 53.986763 26.184431
11.539063 53.997345 25.84684
11.538339 53.99432 25.496094
11.53744 53.966938 25.118382
11.536769 53.967655 24.785048
11.535964 53.949223 24.432096
11.535309 53.948952 24.108656
11.534519 53.929398 23.765947
11.533798 53.917538 23.43861
11.533228 53.924671 23.139797
11.532525 53.912449 22.82205
11.531893 53.908485 22.519049
11.531208 53.896137 22.210812
11.530513 53.880985 21.904057
11.529807 53.863037 21.598833
11.529173 53.853828 21.307867
11.528652 53.859409 21.037081
11.52804 53.850979 20.754852
11.527459 53.845928 20.480049
11.526786 53.826675 20.194294
11.52631 53.834621 19.940046
11.525126 53.814018 19.404802
11.524583 53.809353 19.147738
11.524031 53.802521 18.891754
11.523513 53.799652 18.642532
11.522944 53.788559 18.388737
11.522492 53.793915 18.152628
11.521909 53.778683 17.901003
11.521358 53.767609 17.655972
11.520843 53.760815 17.417347
11.520318 53.752083 17.179728
11.519788 53.741425 16.943144
11.519291 53.735245 16.712679
11.518828 53.733646 16.488136
11.518317 53.723839 16.259499
11.517758 53.705734 16.027025
11.517358 53.711803 15.814739
11.516869 53.70319 15.59368
11.516414 53.699421 15.378138
11.515952 53.694 15.163378
11.515444 53.680325 14.944982
11.515094 53.691544 14.745036
11.514572 53.674618 14.528323
11.514127 53.669422 14.32106
11.513676 53.662682 14.114537
11.513219 53.654404 13.908775
11.512838 53.658138 13.711735
11.511093 53.631477 12.914003
11.542069 54.106201 27.068577
11.541189 54.088875 26.675579
11.540374 54.077919 26.299097
11.539583 54.06847 25.931595
11.538819 54.060673 25.57295
11.538042 54.049435 25.215919
11.537251 54.034771 24.860563
11.536447 54.016716 24.506933
11.53579 54.01683 24.182806
11.535123 54.013935 23.860008
11.534363 53.997101 23.524982
11.533711 53.993668 23.211857
11.532969 53.976254 22.886726
11.532417 53.983814 22.596294
11.531651 53.960587 22.274183
11.531038 53.957104 21.979729
11.530416 53.950981 21.686529
11.52974 53.936485 21.388285
11.529097 53.925106 21.09779
11.528484 53.916977 20.814882
11.527986 53.923977 20.551676
11.527354 53.910999 20.271164
11.526755 53.901516 19.998013
11.526271 53.907623 19.743906
11.525612 53.887512 19.467228
11.525068 53.883163 19.209387
11.524476 53.870552 18.946903
11.523957 53.867966 18.696964
11.523472 53.869461 18.4536
11.522813 53.844181 18.189112
11.522394 53.854027 17.958691
11.521844 53.84325 17.712856
11.521327 53.836746 17.473421
11.520803 53.828293 17.234989
11.52023 53.811558 16.992455
11.519775 53.812012 16.766298
11.519271 53.804264 16.535946
11.518801 53.80114 16.31146
11.518241 53.783295 16.078152
11.517758 53.776608 15.855516
11.517351 53.781261 15.643122
11.516895 53.777744 15.426729
11.51631 53.752785 15.197555
11.515924 53.759125 14.991867
11.515409 53.743988 14.7736
11.515052 53.753876 14.573485
11.514565 53.742207 14.361149
11.514112 53.735657 14.153834
11.513697 53.734314 13.951327
11.513232 53.724712 13.745472
11.512804 53.720387 13.544305
11.542714 54.192963 27.177246
11.541915 54.186344 26.798086
11.54106 54.170902 26.413301
11.540271 54.162041 26.044846
11.539508 54.154831 25.685236
11.538731 54.144173 25.327236
11.537981 54.135395 24.977953
11.537177 54.11795 24.623274
11.536482 54.113289 24.291153
11.535694 54.094662 23.946751
11.535015 54.089207 23.624508
11.534365 54.086296 23.310423
11.533703 54.080505 22.997675
11.53299 54.066257 22.679701
11.532306 54.054726 22.369829
11.531652 54.046059 22.067905
11.530989 54.034664 21.767365
11.530396 54.032093 21.480938
11.529753 54.021194 21.189432
11.52914 54.013538 20.905504
11.528478 53.997517 20.616716
11.527887 53.990761 20.341518
11.527287 53.981625 20.067537
11.526845 53.994072 19.81852
11.526227 53.980358 19.546791
11.525601 53.964298 19.276384
11.525091 53.964203 19.024481
11.524531 53.955883 18.767897
11.524004 53.95158 18.518021
11.523469 53.945202 18.269167
11.522926 53.936775 18.021368
11.522375 53.9263 17.774656
11.5219 53.926399 17.539618
11.521335 53.911949 17.295017
11.520761 53.8955 17.05159
11.520264 53.889854 16.819481
11.519759 53.882359 16.588301
11.51933 53.885941 16.367887
11.518811 53.874847 16.138498
11.518286 53.861946 15.910119
11.517796 53.853786 15.68745
11.517298 53.843899 15.465692
11.516794 53.832294 15.244864
11.516367 53.832233 15.033877
11.515892 53.823936 14.819194
11.515451 53.82069 14.609644
11.515088 53.829281 14.409217
11.514594 53.816231 14.196829
11.514135 53.808334 13.9894
11.513712 53.805676 13.786715
11.513201 53.787933 13.576894
11.512848 53.795925 13.383277
11.512366 53.782001 13.17884
11.511919 53.773449 12.978907
11.543431 54.28463 27.309649
11.542633 54.278755 26.929495
11.54174 54.258919 26.536404
11.540992 54.25592 26.174232
11.540111 54.233784 25.792067
11.539374 54.228977 25.440332
11.538586 54.215519 25.083073
11.537864 54.209347 24.74151
11.53717 54.205353 24.408394
11.536424 54.192806 24.069849
11.535705 54.182568 23.739725
11.534934 54.163734 23.404396
11.534355 54.169579 23.104162
11.533602 54.150311 22.778601
11.532919 54.13932 22.46781
11.532307 54.136871 22.171442
11.531643 54.126045 21.869904
11.530929 54.106747 21.563437
11.530286 54.096287 21.27112
11.529715 54.094906 20.992588
11.529094 54.085228 20.709047
11.528545 54.084892 20.438959
11.527905 54.070332 20.15793
11.527421 54.077282 19.902014
11.526804 54.064007 19.629368
11.526178 54.048386 19.358036
11.525585 54.036533 19.093775
11.525067 54.034706 18.842049
11.524582 54.036961 18.596886
11.524005 54.024799 18.341589
11.523379 54.004272 18.082056
11.522953 54.012917 17.850677
11.522395 54.000813 17.604118
11.521871 53.993023 17.363909
11.521338 53.983288 17.124718
11.520842 53.978024 16.891634
11.520295 53.964481 16.654491
11.519741 53.949028 16.418453
11.519264 53.944668 16.193211
11.518822 53.945065 15.973573
11.518372 53.943771 15.75466
11.517875 53.934227 15.531896
11.517328 53.916355 15.305536
11.516901 53.916607 15.093617
11.516466 53.91526 14.882363
11.516026 53.912331 14.671793
11.515496 53.894417 14.453513
11.515043 53.888302 14.244538
11.514626 53.887383 14.040363
11.51416 53.878193 13.832834
11.513772 53.881073 13.633877
11.513213 53.855217 13.420176
11.512895 53.868847 13.230002
11.512447 53.860535 13.029096
11.511912 53.836987 12.821772
11.511536 53.839569 12.629443
11.507854 53.795681 10.917009
11.543939 54.347767 27.407793
11.543102 54.337368 27.019579
11.54229 54.328297 26.640438
11.541504 54.320717 26.270252
11.540703 54.309559 25.901718
11.540009 54.310642 25.556257
11.539101 54.281925 25.176901
11.53838 54.276279 24.834599
11.537727 54.278202 24.507671
11.53686 54.249908 24.147692
11.536183 54.245575 23.823738
11.535495 54.238251 23.501188
11.534794 54.227951 23.180088
11.534041 54.209095 22.853872
11.533442 54.209805 22.555521
11.53283 54.207844 22.258364
11.532085 54.18605 21.943195
11.531412 54.172909 21.642403
11.530811 54.168682 21.355623
11.5302 54.161934 21.070068
11.52962 54.158554 20.791916
11.528907 54.135002 20.496706
11.528392 54.138607 20.233135
11.527825 54.133984 19.964588
11.52725 54.127068 19.697172
11.526625 54.111801 19.425129
11.526114 54.112507 19.171598
11.525514 54.098835 18.907715
11.525028 54.101433 18.661837
11.524411 54.083412 18.400305
11.52391 54.081898 18.15641
11.523401 54.078403 17.913443
11.522801 54.060322 17.660858
11.52236 54.065495 17.430403
11.521828 54.056114 17.19039
11.521331 54.051193 16.956484
11.520784 54.037983 16.71851
11.52023 54.022869 16.481634
11.519711 54.012344 16.250719
11.519269 54.013035 16.030321
11.518778 54.005489 15.805964
11.518322 54.002773 15.587108
11.517817 53.991783 15.364493
11.517306 53.979076 15.142827
11.51683 53.971317 14.9265
11.51639 53.968601 14.715305
11.515943 53.964306 14.504813
11.515489 53.958443 14.295047
11.51503 53.951019 14.086028
11.514647 53.955608 13.885724
11.514175 53.945141 13.678104
11.513698 53.933144 13.471294
11.513297 53.933331 13.272781
11.512808 53.918343 13.067493
11.512395 53.915653 12.870218
11.511936 53.904633 12.670022
11.511512 53.899117 12.473982
11.544566 54.428696 27.522148
11.543692 54.413849 27.125692
11.542841 54.400227 26.738422
11.541975 54.382828 26.352978
11.541296 54.387775 26.005329
11.540401 54.363102 25.623413
11.539615 54.350647 25.264681
11.538936 54.350834 24.928637
11.538203 54.342484 24.58703
11.537417 54.325478 24.240101
11.536741 54.321651 23.915325
11.536053 54.314827 23.591944
11.535272 54.293888 23.256647
11.534642 54.292255 22.949558
11.53396 54.282196 22.637194
11.533309 54.27499 22.332764
11.532647 54.265041 22.029696
11.532016 54.258137 21.734381
11.531291 54.236996 21.427813
11.530763 54.242313 21.153936
11.530143 54.233513 20.868753
11.529512 54.222206 20.584864
11.528873 54.20842 20.302307
11.528307 54.204166 20.032991
11.527732 54.197605 19.764805
11.527107 54.182697 19.491983
11.526597 54.183754 19.237671
11.526079 54.182697 18.984303
11.525429 54.161026 18.715172
11.524935 54.161884 18.469509
11.524351 54.148262 18.213871
11.523842 54.145058 17.970173
11.523325 54.139877 17.727423
11.5228 54.132729 17.485657
11.522227 54.117256 17.239759
11.521729 54.112583 17.00518
11.521225 54.106045 16.771515
11.520671 54.09119 16.533884
11.520193 54.087425 16.307043
11.519667 54.075367 16.076288
11.519217 54.074589 15.855924
11.518761 54.072124 15.636297
11.518214 54.054771 15.408381
11.517744 54.048904 15.19046
11.517351 54.054699 14.982097
11.516786 54.032211 14.757081
11.516379 54.034828 14.550096
11.515925 54.029182 14.339537
11.515466 54.021973 14.129724
11.514999 54.013206 13.920676
11.514609 54.016514 13.720203
11.514132 54.004715 13.512589
11.513648 53.991394 13.305803
11.512326 53.970043 12.704585
11.511943 53.971615 12.511217
11.545155 54.507912 27.620983
11.54432 54.49868 27.231071
11.54339 54.475365 26.828314
11.542686 54.47916 26.471058
11.541847 54.463875 26.09366
11.541155 54.466011 25.746555
11.540288 54.443623 25.372604
11.539489 54.428337 25.014578
11.538797 54.425846 24.679094
11.538013 54.409344 24.331287
11.537255 54.395046 23.992006
11.536609 54.394157 23.674601
11.535951 54.390369 23.358501
11.53528 54.383698 23.043756
11.534517 54.362862 22.717318
11.533703 54.333324 22.386105
11.533205 54.346569 22.108095
11.532451 54.322781 21.792868
11.531891 54.325172 21.510748
11.531281 54.319263 21.223494
11.530619 54.304943 20.931347
11.529989 54.293972 20.6467
11.529432 54.292439 20.375393
11.528784 54.276585 20.0933
11.528209 54.270348 19.824339
11.527708 54.273964 19.568121
11.527074 54.25713 19.295645
11.526556 54.256382 19.041489
11.525988 54.247356 18.782724
11.525412 54.236172 18.525106
11.52491 54.235325 18.279533
11.52436 54.226208 18.029522
11.523843 54.221348 17.785889
11.523234 54.201832 17.53281
11.522744 54.199345 17.296444
11.522204 54.188576 17.055904
11.521699 54.182308 16.821413
11.521145 54.167713 16.582951
11.520625 54.157711 16.350441
11.520182 54.158924 16.128437
11.519649 54.145329 15.89779
11.519233 54.149658 15.681993
11.518685 54.132542 15.453227
11.518215 54.126911 15.234454
11.517738 54.119617 15.016486
11.517297 54.117355 14.803641
11.516807 54.106796 14.587284
11.516394 54.108082 14.380067
11.515891 54.094318 14.165327
11.515425 54.085735 13.955482
11.514993 54.082409 13.750315
11.514514 54.070755 13.54198
11.514153 54.07814 13.345664
11.513662 54.063503 13.138761
11.513207 54.054253 12.936292
11.512747 54.043545 12.734548
11.512321 54.038326 12.536955
11.511849 54.024746 12.336638
11.510604 54.010551 11.755838
11.508568 53.986137 10.809061
11.545757 54.587002 27.72751
11.544884 54.57333 27.329357
11.543956 54.550617 26.925772
11.543213 54.549828 26.560434
11.542375 54.535088 26.182251
11.541603 54.527229 25.820114
11.540858 54.521233 25.46666
11.5401 54.511883 25.114759
11.53933 54.499207 24.764471
11.538505 54.477779 24.408976
11.53783 54.47493 24.082542
11.537144 54.469074 23.757496
11.536445 54.460224 23.433878
11.535735 54.448406 23.11174
11.535013 54.433636 22.791126
11.534322 54.421623 22.478563
11.533661 54.412514 22.173897
11.53303 54.406441 21.87697
11.532389 54.397736 21.581345
11.531779 54.392262 21.293274
11.531159 54.384258 21.006445
11.53053 54.373745 20.720901
11.529891 54.360744 20.436682
11.529325 54.357265 20.165688
11.528709 54.34544 19.88995
11.528209 54.349461 19.632877
11.527575 54.333023 19.359549
11.526974 54.320393 19.093231
11.526447 54.31786 18.839319
11.525829 54.300812 18.575403
11.525329 54.300282 18.3291
11.524819 54.297741 18.083708
11.524219 54.280594 17.828695
11.523736 54.280369 17.590578
11.523204 54.271866 17.348183
11.522622 54.255009 17.101759
11.522034 54.236149 16.856544
11.521563 54.234707 16.627295
11.521043 54.224976 16.394024
11.520598 54.22646 16.171253
11.520106 54.219677 15.944515
11.519567 54.204559 15.714064
11.519102 54.200855 15.493727
11.518673 54.20211 15.278616
11.518154 54.188423 15.055422
11.517671 54.179722 14.837502
11.517221 54.176083 14.624643
11.516767 54.17086 14.412502
11.516347 54.170822 14.205148
11.515838 54.155693 13.990456
11.515406 54.152584 13.784484
11.514885 54.134308 13.571536
11.514524 54.141876 13.37449
11.514032 54.127415 13.16686
11.513618 54.125237 12.967225
11.513156 54.114719 12.764668
11.512689 54.102745 12.562851
11.512298 54.103249 12.368439
11.511779 54.081448 12.164763
11.511009 54.082596 11.781837
11.510555 54.070633 11.586515
11.510177 54.071411 11.397694
11.509793 54.0709 11.209246
11.508928 54.051826 10.828225
11.54605 54.621464 27.789047
11.545139 54.603191 27.38306
11.544291 54.591187 26.993654
11.54347 54.580559 26.613295
11.542633 54.56625 26.234682
11.541944 54.569355 25.886353
11.54112 54.553234 25.518227
11.540402 54.549656 25.172884
11.539754 54.553635 24.842886
11.538972 54.538227 24.493561
11.538136 54.514046 24.139139
11.537451 54.508621 23.813576
11.536753 54.500206 23.489439
11.536044 54.488815 23.166773
11.535324 54.474464 22.845631
11.534675 54.468567 22.539013
11.533932 54.448444 22.220919
11.533343 54.448513 21.929863
11.532661 54.434395 21.627415
11.532011 54.423428 21.332653
11.531392 54.415741 21.04541
11.530805 54.411469 20.765522
11.530208 54.404778 20.486814
11.529684 54.407673 20.221191
11.528986 54.38419 19.93309
11.528444 54.382469 19.669729
11.527853 54.372433 19.401686
11.527294 54.366264 19.140512
11.526768 54.36409 18.886023
11.526193 54.3536 18.627024
11.525567 54.334713 18.363768
11.5251 54.33873 18.123291
11.524542 54.328194 17.873041
11.524017 54.321957 17.62912
11.523527 54.320126 17.391333
11.522904 54.297184 17.139244
11.522399 54.291485 16.903467
11.521929 54.290382 16.673531
11.521367 54.274498 16.43474
11.520883 54.269756 16.2066
11.520432 54.269798 15.983999
11.519892 54.254971 15.752926
11.519386 54.244949 15.527442
11.518915 54.239822 15.307339
11.518479 54.239689 15.092406
11.517996 54.231262 14.873854
11.517506 54.221176 14.656152
11.517134 54.229675 14.451714
11.516631 54.216396 14.23554
11.516123 54.2015 14.020284
11.515649 54.191807 13.809859
11.515211 54.187401 13.604045
11.514767 54.181499 13.398891
11.514358 54.180992 13.198067
11.513902 54.172146 12.994214
11.513481 54.168755 12.794567
11.513055 54.163948 12.595497
11.509645 54.110821 11.039621
11.546498 54.673069 27.885592
11.545669 54.66573 27.493614
11.544785 54.649429 27.096067
11.543884 54.629223 26.700441
11.54313 54.626045 26.335522
11.542362 54.61937 25.972158
11.54158 54.60923 25.610407
11.540906 54.611706 25.271317
11.540057 54.589424 24.905832
11.539235 54.569092 24.549124
11.538482 54.556351 24.207863
11.537839 54.556995 23.88846
11.537102 54.543594 23.556992
11.536476 54.543949 23.246965
11.535798 54.535858 22.931641
11.53511 54.524906 22.617744
11.53441 54.511112 22.305321
11.533781 54.506031 22.007113
11.533142 54.498306 21.710196
11.532411 54.476254 21.402184
11.531834 54.474979 21.120396
11.531247 54.471264 20.839745
11.53061 54.459156 20.554264
11.530046 54.456558 20.282005
11.529473 54.451645 20.010855
11.528934 54.450493 19.746641
11.528301 54.434906 19.472017
11.527743 54.429256 19.210051
11.527177 54.421413 18.949186
11.526643 54.417606 18.694963
11.52606 54.40546 18.436327
11.525594 54.409992 18.194971
11.524995 54.393669 17.938545
11.524471 54.387909 17.693804
11.523898 54.373798 17.444918
11.523359 54.364067 17.202269
11.522813 54.35239 16.960672
11.522302 54.345242 16.725065
11.521699 54.323246 16.480747
11.521297 54.331902 16.261509
11.520806 54.32579 16.033457
11.520267 54.311329 15.801682
11.519802 54.308277 15.580021
11.519415 54.316807 15.368032
11.518855 54.297119 15.139049
11.518372 54.289032 14.919785
11.517964 54.292721 14.709793
11.517468 54.28138 14.492085
11.517008 54.275169 14.279323
11.516499 54.260597 14.063341
11.516026 54.251225 13.852189
11.515629 54.25396 13.649461
11.515225 54.255241 13.447229
11.514693 54.234444 13.234558
11.514278 54.232773 13.03362
11.513899 54.236595 12.836726
11.51339 54.218208 12.630021
11.512958 54.212246 12.430885
11.511253 54.188488 11.646632
11.510875 54.189716 11.456392
11.510019 54.174099 11.07155
11.509664 54.178513 10.885293
11.54708 54.745804 27.996965
11.546093 54.718903 27.574657
11.54541 54.728855 27.212967
11.544592 54.71983 26.830862
11.543639 54.691433 26.428944
11.542832 54.680161 26.057663
11.542092 54.675949 25.702229
11.54142 54.679077 25.362329
11.540572 54.657448 24.996029
11.539833 54.64864 24.652239
11.539042 54.631134 24.303211
11.538399 54.632446 23.982908
11.537664 54.619701 23.650532
11.536958 54.609497 23.326361
11.536322 54.607628 23.016794
11.535634 54.597275 22.702036
11.534935 54.584072 22.388742
11.534225 54.568039 22.076962
11.533629 54.566624 21.785578
11.533022 54.562649 21.495384
11.532364 54.550247 21.200277
11.531737 54.541164 20.912651
11.531142 54.535538 20.632339
11.530538 54.527489 20.353231
11.529924 54.517044 20.075369
11.529302 54.504208 19.798784
11.528711 54.495113 19.529238
11.528154 54.489876 19.266552
11.527671 54.494793 19.016123
11.527014 54.472828 18.744505
11.526514 54.47353 18.496078
11.526007 54.472214 18.248552
11.52545 54.462582 17.99667
11.524926 54.457237 17.751108
11.524354 54.443535 17.5014
11.52369 54.414993 17.242737
11.523311 54.429356 17.020483
11.522758 54.416164 16.779053
11.522281 54.414032 16.548399
11.521754 54.40358 16.313812
11.521221 54.391293 16.080229
11.520764 54.390331 15.856888
11.52026 54.381054 15.629766
11.519789 54.376667 15.408022
11.519271 54.363934 15.182702
11.51887 54.369537 14.971233
11.51838 54.360157 14.751866
11.517883 54.349121 14.533364
11.517381 54.336445 14.315749
11.516996 54.342506 14.110969
11.516481 54.326653 13.894958
11.516084 54.329697 13.691343
11.51568 54.331284 13.488221
11.515148 54.310768 13.274656
11.51465 54.295586 13.065681
11.51423 54.292721 12.864561
11.513803 54.288433 12.664013
11.51337 54.282719 12.464054
11.512972 54.282578 12.267948
11.512487 54.267063 12.065982
11.512037 54.257133 11.867906
11.511663 54.259895 11.676482
11.510777 54.240269 11.286219
11.510387 54.239063 11.096145
11.509991 54.236561 10.90647
11.547394 54.789806 28.045906
11.546568 54.7836 27.652569
11.545686 54.768414 27.253656
11.544909 54.764854 26.878366
11.544037 54.747238 26.490332
11.543231 54.736385 26.118441
11.542492 54.73259 25.762386
11.541698 54.72007 25.400871
11.540892 54.704109 25.041071
11.540235 54.706509 24.71051
11.539524 54.700371 24.37446
11.538761 54.685593 24.033157
11.537986 54.667633 23.693523
11.53728 54.657734 23.36883
11.536604 54.650517 23.052187
11.535998 54.651806 22.749922
11.535299 54.638943 22.436031
11.534673 54.634789 22.136337
11.533953 54.616348 21.825373
11.533346 54.612667 21.53463
11.53273 54.606434 21.245115
11.532104 54.597675 20.956867
11.531467 54.586399 20.669924
11.530822 54.572628 20.384325
11.530333 54.580524 20.123552
11.529669 54.561958 19.840469
11.52912 54.559273 19.576002
11.528522 54.548225 19.306948
11.527997 54.547264 19.050283
11.527381 54.531757 18.783598
11.526882 54.532749 18.534506
11.526333 54.525436 18.280956
11.525776 54.516048 18.028484
11.525252 54.510944 17.782328
11.52468 54.497475 17.532024
11.524141 54.488377 17.287949
11.523637 54.483761 17.049902
11.523125 54.477257 16.812775
11.522606 54.468884 16.576601
11.522121 54.465176 16.346157
11.521629 54.459679 16.116562
11.521132 54.4524 15.887844
11.520626 54.443363 15.660025
11.520114 54.432568 15.433131
11.519636 54.426697 15.211554
11.519111 54.412453 14.986506
11.518703 54.416641 14.775084
11.51829 54.419273 14.564208
11.517786 54.40683 14.345801
11.517277 54.39275 14.128303
11.516803 54.383858 13.915627
11.516447 54.393913 13.715168
11.51592 54.375107 13.500129
11.515469 54.368477 13.29338
11.515012 54.360352 13.087325
11.514548 54.350739 12.881984
11.514121 54.3466 12.680779
11.513688 54.341034 12.480162
11.513208 54.327065 12.276915
11.512804 54.325657 12.080771
11.512394 54.322884 11.885105
11.511938 54.311714 11.686949
11.511518 54.306213 11.492378
11.511132 54.306446 11.301166
11.5107 54.298283 11.107594
11.547728 54.838329 28.093145
11.546822 54.822186 27.684626
11.54606 54.822567 27.307245
11.545322 54.82449 26.93865
11.544451 54.807205 26.550016
11.543686 54.801964 26.184629
11.542867 54.787918 25.813791
11.542114 54.78104 25.45871
11.541307 54.765408 25.098288
11.540529 54.751801 24.746496
11.539819 54.745865 24.409998
11.539097 54.736805 24.074987
11.538403 54.730221 23.748188
11.537697 54.720642 23.422842
11.537062 54.719391 23.112082
11.536293 54.698257 22.783184
11.535635 54.691315 22.475237
11.534967 54.681614 22.168665
11.534329 54.674984 21.86978
11.533765 54.677414 21.584625
11.533066 54.659695 21.282152
11.53248 54.657082 20.999418
11.531927 54.65799 20.723846
11.531281 54.644539 20.437483
11.530709 54.640682 20.164211
11.530046 54.622356 19.880501
11.529455 54.613796 19.609671
11.528939 54.615238 19.351332
11.528374 54.608368 19.088371
11.527799 54.599304 18.826536
11.527258 54.594311 18.571281
11.526709 54.587223 18.317074
11.526193 54.584366 18.069216
11.525586 54.566814 17.811911
11.525055 54.559902 17.566143
11.524516 54.551014 17.321394
11.524011 54.5466 17.082666
11.523457 54.533829 16.839958
11.522938 54.525623 16.603176
11.522452 54.522079 16.372116
11.521877 54.503632 16.132563
11.521379 54.49646 15.90338
11.520997 54.507355 15.68865
11.520484 54.496738 15.46106
11.519965 54.484371 15.234415
11.519481 54.476963 15.013028
11.519073 54.481323 14.800887
11.518575 54.470634 14.581042
11.518112 54.465065 14.366129
11.517644 54.457905 14.151963
11.517169 54.449162 13.938566
11.516729 54.44569 13.729765
11.516284 54.440701 13.521615
11.515791 54.427319 13.310497
11.515333 54.419304 13.103793
11.514911 54.416729 12.90128
11.5144 54.398819 12.692543
11.513967 54.393333 12.491353
11.513567 54.393414 12.294001
11.513163 54.392117 12.097109
11.512752 54.389454 11.900696
11.512255 54.371342 11.698812
11.511832 54.365921 11.503577
11.511405 54.359158 11.308873
11.548336 54.918339 28.200457
11.547471 54.907948 27.798409
11.546591 54.893616 27.398197
11.545815 54.890915 27.021584
11.544986 54.879364 26.639399
11.544101 54.858845 26.251883
11.543363 54.855843 25.894529
11.542691 54.860188 25.552679
11.541886 54.845131 25.191383
11.541068 54.826645 24.831844
11.540318 54.815742 24.48772
11.539678 54.818226 24.165407
11.538985 54.812199 23.837702
11.538239 54.79755 23.504839
11.537564 54.791149 23.186682
11.536837 54.776169 22.863466
11.536139 54.763981 22.548246
11.535471 54.754726 22.240866
11.534752 54.736908 21.928625
11.534228 54.74556 21.648991
11.533571 54.734127 21.351898
11.532904 54.720078 21.056204
11.532268 54.709404 20.767944
11.531705 54.708233 20.492874
11.531134 54.704716 20.218895
11.530553 54.698875 19.946047
11.52988 54.678493 19.662937
11.529364 54.680267 19.403875
11.528715 54.661354 19.129055
11.528307 54.677402 18.888624
11.527641 54.654041 18.616224
11.527133 54.653511 18.366703
11.526618 54.650963 18.118105
11.526052 54.640057 17.865261
11.525521 54.633469 17.618673
11.52494 54.618492 17.368048
11.524435 54.614368 17.128563
11.523881 54.601879 16.885098
11.523403 54.600449 16.652378
11.522918 54.597206 16.420475
11.522426 54.592171 16.189421
11.521885 54.578754 15.95464
11.52142 54.57674 15.729943
11.520865 54.559731 15.497134
11.520471 54.567596 15.282866
11.519944 54.553783 15.056254
11.519494 54.551693 14.83904
11.518996 54.541233 14.618404
11.518492 54.529121 14.39865
11.518106 54.535748 14.19169
11.517548 54.513611 13.969647
11.517107 54.510326 13.760121
11.516703 54.51239 13.554966
11.51625 54.506096 13.346678
11.51575 54.49139 13.135521
11.515368 54.495937 12.935668
11.514816 54.471283 12.722638
11.514422 54.47295 12.523937
11.513981 54.46624 12.322447
11.513535 54.458107 12.12158
11.513165 54.462616 11.927485
11.512666 54.444664 11.724772
11.512283 54.446461 11.531602
11.511855 54.439861 11.335979
11.511381 54.42482 11.138173
11.548883 54.985249 28.308966
11.547142 54.962032 27.505045
11.543962 54.932507 26.005018
11.543212 54.926884 25.64826
