# .PCD v0.7 - Point Cloud Data file format
VERSION 0.7
FIELDS x y z
SIZE 4 4 4
TYPE F F F
COUNT 1 1 1
WIDTH 1611
HEIGHT 1
VIEWPOINT 0 0 0 1 0 0 0
POINTS 1611
DATA ascii
3.4182518 59.300079 23.492144
3.4341784 59.291584 23.012655
3.4432468 59.282574 22.530304
3.4409676 59.272678 22.041248
3.2678645 59.289749 23.474634
3.2662027 59.279751 22.978382
3.297179 59.272633 22.517796
3.2861161 59.261993 22.020794
3.3124225 59.254608 21.562498
3.3275781 59.246342 21.097115
3.0630186 59.294765 24.408798
3.0922596 59.2873 23.93668
3.1061356 59.278572 23.452393
3.0957634 59.267838 22.948107
3.1177766 59.259968 22.479818
3.1286809 59.251217 22.004345
3.1566591 59.234451 21.069715
2.9327719 59.266361 23.417023
2.9267161 59.256012 22.91781
2.9549775 59.239033 21.971346
2.9809518 59.231651 21.514341
2.9914899 59.223022 21.046268
2.043972 59.532078 39.714424
2.7768159 59.255577 23.395243
2.788027 59.246723 22.913675
2.7881639 59.237003 22.42519
2.8075693 59.229008 21.959263
2.8115957 59.219772 21.4823
2.8477573 59.203884 20.564568
2.6256678 59.235371 22.88471
2.6387064 59.226768 22.409424
2.6450713 59.217667 21.931406
2.6620908 59.209545 21.467171
2.6681352 59.200562 20.996162
2.6806226 59.192192 20.534498
2.5166101 59.209301 21.939487
2.5207181 59.200081 21.463003
2.5441587 59.19257 21.008066
2.5393155 59.182739 20.530655
2.5539684 59.174618 20.07424
2.5664456 59.166374 19.618984
2.5855663 59.158741 19.172237
2.4511349 59.159138 19.639967
2.4571681 59.150414 19.181934
2.4566274 59.141209 18.721731
2.4627113 59.132614 18.270128
2.4843791 59.125355 17.833498
2.4862852 59.116531 17.384268
2.3516557 59.116653 17.838882
2.3757117 59.109631 17.406303
2.4091001 59.094517 16.536619
2.4183874 59.086433 16.099926
2.4301665 59.078594 15.667268
2.4310236 59.069935 15.229689
2.1498439 59.12043 18.700714
2.2922764 59.043484 14.364229
2.1001911 59.038708 14.764521
2.1373162 59.03302 14.355384
1.9523175 59.020164 14.326356
1.7892939 59.009075 14.312858
1.5881778 59.003574 14.706731
1.620279 58.997536 14.296782
1.4237287 58.992378 14.692583
1.4730943 58.987717 14.294152
2.5682733 59.051014 13.822766
2.5933392 59.041046 13.238999
2.6507316 59.092155 15.613147
2.6620157 59.081066 15.01892
2.7111821 59.072784 14.439383
2.6749005 59.058292 13.832988
2.7059889 59.048748 13.250429
2.7914722 59.101822 15.629321
2.8169978 59.079845 14.441446
2.8160636 59.067917 13.845825
2.8532619 59.058792 13.26395
2.9397733 59.100117 15.049812
2.948086 59.088802 14.45427
2.9531469 59.07729 13.8596
2.9668241 59.066441 13.269464
3.0732677 59.121563 15.681458
3.1086819 59.112175 15.092243
3.123126 59.101276 14.497229
3.1521335 59.091473 13.908591
3.1303811 59.078018 13.305725
3.2295392 59.132931 15.731452
3.2237439 59.120491 15.126505
3.323844 59.163654 16.959394
3.3763068 59.131294 15.160421
3.4030817 59.121258 14.567499
3.4146721 59.110146 13.971133
3.3990545 59.097099 13.368264
3.522716 59.153374 15.78087
3.5351489 59.142227 15.179905
3.5322926 59.130001 14.575792
3.5800042 59.121494 13.989937
3.5645306 59.108429 13.385703
3.6294403 59.136391 14.572984
3.7255566 59.13139 14.00183
3.7042766 59.117882 13.39468
3.7647779 59.169991 15.808437
3.8317792 59.162804 15.224512
3.8447738 59.12767 13.417952
5.8703122 59.267719 13.699519
5.9019165 59.257732 13.092984
5.9480195 59.321632 16.146629
6.0173159 59.301857 14.923216
6.0561304 59.292309 14.314662
6.022347 59.27755 13.686377
6.0541358 59.267555 13.078876
6.120286 59.345425 16.766853
6.1720834 59.324245 15.531362
6.1706367 59.311722 14.907516
6.190733 59.3008 14.29236
6.2948413 59.344437 16.135849
6.3158026 59.333488 15.516495
6.3899059 59.326431 14.915379
6.3595843 59.311829 14.283431
6.3824635 59.301113 13.669481
6.4415774 59.379478 17.405727
6.488162 59.357758 16.160336
6.53441 59.348621 15.547781
6.5581646 59.337875 14.929286
6.5529938 59.325069 14.303802
6.5568547 59.312962 13.683118
6.6679831 59.383003 16.828382
6.7818751 59.35368 14.977323
6.9107161 59.400303 16.888165
6.9228706 59.388577 16.259045
6.9694395 59.379395 15.64309
6.936059 59.364437 15.003555
6.9817514 59.355255 14.390399
6.9728179 59.342155 13.762795
7.1087503 59.414139 16.922796
7.1464839 59.404247 16.300747
7.1040916 59.388557 15.654384
7.1216531 59.377281 15.02992
9.2547741 59.554161 16.801704
9.2569284 59.528454 15.504299
9.2949858 59.518337 14.869654
9.3424683 59.508919 14.238765
9.3265467 59.49498 13.592319
9.3955631 59.577995 17.52902
9.6566601 59.584469 16.984121
9.6567535 59.571457 16.330708
9.6859732 59.5606 15.688458
9.8906012 59.562263 15.090213
9.8990183 59.549946 14.443997
10.029022 59.62413 17.734283
10.060418 59.613289 17.085546
10.112789 59.564991 14.486957
10.03869 59.990829 36.107021
9.9803562 59.987938 36.156246
9.9979038 59.978825 35.640411
9.933218 59.986176 36.224678
9.9368801 59.975689 35.686142
9.9499826 59.966316 35.172077
9.9480982 59.955696 34.645447
9.8846025 59.97353 35.752037
9.8983717 59.964195 35.237633
9.9071016 59.954567 34.725285
9.9158382 59.945126 34.22234
9.9247494 59.935883 33.728699
9.8735409 59.964668 35.344112
9.8781834 59.954609 34.823799
9.8927593 59.94569 34.327534
9.8974676 59.936012 33.826035
9.9024153 59.926533 33.333843
9.9077635 59.917263 32.850864
9.8585405 59.955532 34.935532
9.8795118 59.937019 33.936474
9.8903942 59.928066 33.450779
9.8811636 59.917389 32.945789
9.892992 59.908863 32.478382
9.8544731 59.937565 34.047344
9.8610163 59.928169 33.553898
9.8576488 59.918015 33.055439
9.8650293 59.909039 32.580399
9.8835888 59.901264 32.128284
9.8210726 59.947727 34.668568
9.8382931 59.939129 34.179699
9.8355217 59.928814 33.671185
9.8329391 59.918697 33.172112
9.8514605 59.910732 32.710567
9.8499298 59.901051 32.22979
9.8543558 59.892086 31.765045
9.8303118 59.930752 33.785744
9.8387403 59.921635 33.300171
9.8425121 59.912251 32.816616
9.8625746 59.904549 32.363136
9.8256397 59.891712 31.841986
9.8421097 59.883987 31.399406
9.8099928 59.90152 32.386333
9.7786398 59.889191 31.871925
9.7794857 59.880013 31.40848
9.7866812 59.871567 30.960705
9.8321571 59.857922 30.124243
9.8546991 59.851261 29.714804
9.739728 59.887138 31.8986
9.7091846 59.87505 31.393574
9.7166061 59.866619 30.945795
9.7198515 59.857952 30.499882
9.7842941 59.85498 30.136002
9.8236809 59.849827 29.746113
9.826457 59.84148 29.317968
9.8253155 59.832909 28.891674
9.8202829 59.82412 28.467291
9.8396568 59.817623 28.076597
9.6371326 59.869553 31.357643
9.6767321 59.864075 30.950771
9.6748686 59.854927 30.497869
9.7395458 59.851963 30.133726
9.8270035 59.825653 28.521839
9.8356676 59.818176 28.117643
9.5737972 59.865005 31.34042
9.5865564 59.857067 30.899616
9.5844221 59.847912 30.447102
9.825285 59.771091 25.789049
9.8333378 59.764271 25.41991
9.8621073 59.759315 25.075312
9.5051384 59.860268 31.33136
9.5605688 59.856251 30.945139
9.5531673 59.846603 30.485565
9.634037 59.845116 30.141558
9.8187504 59.771832 25.848082
9.8626299 59.768078 25.513504
9.8221569 59.749821 24.731859
9.911603 59.750168 24.451292
9.4607534 59.857952 31.363003
9.5268612 59.854916 30.990389
9.535696 59.846745 30.550833
9.6003981 59.843781 30.186506
9.8384752 59.775063 25.944374
9.4219351 59.856056 31.397133
9.4934759 59.853512 31.031179
9.4645596 59.841888 30.544163
9.556324 59.841393 30.213469
9.3507528 59.850796 31.370335
9.4274921 59.84874 31.011356
9.4092531 59.838097 30.537964
9.4900837 59.836605 30.193884
9.2929707 59.846405 31.342464
9.3481798 59.842377 30.956266
9.3459072 59.833202 30.503426
9.4320841 59.832203 30.166065
9.2231293 59.841103 31.30896
9.2729082 59.836578 30.91604
9.2759361 59.827896 30.470127
9.1729851 59.837921 31.316368
9.1853571 59.829964 30.875753
9.1936407 59.82177 30.43689
9.1278238 59.835331 31.336779
9.1349325 59.826885 30.889244
9.1540937 59.819683 30.463779
9.0366278 59.829021 31.323927
9.0919266 59.825001 30.937923
9.100564 59.816826 30.498747
9.1760073 59.814846 30.148111
8.9430323 59.822689 31.317736
9.0091047 59.81966 30.945654
9.028717 59.812481 30.520098
9.1098175 59.811012 30.176214
8.8998556 59.820488 31.351091
8.9234772 59.813549 30.924242
8.9323759 59.805397 30.485395
8.8281794 59.815231 31.326134
8.8358212 59.806828 30.878929
8.8446836 59.798679 30.440334
8.6257248 59.80714 31.594427
8.7862511 59.794643 30.432507
8.5539742 59.802338 31.592436
8.6711988 59.80394 31.282234
8.694973 59.79702 30.85574
8.6932383 59.787899 30.403807
8.8739948 59.713531 26.069151
8.4941025 59.799046 31.626713
8.6115417 59.800659 31.316496
8.6248684 59.792774 30.876289
8.6341 59.784653 30.437828
8.5216494 59.794655 31.314407
8.5981159 59.783577 30.503729
8.4644146 59.791473 31.345482
8.5306454 59.779446 30.521109
7.892952 59.850975 36.235683
7.909514 59.841675 35.713596
7.8376441 59.846951 36.217827
7.8396983 59.836239 35.673306
7.8607039 59.827568 35.168285
7.8866124 59.819557 34.679905
7.7673721 59.841927 36.199791
7.8080716 59.834972 35.715172
7.8001113 59.82349 35.165314
7.8211374 59.815006 34.669575
7.7080927 59.838108 36.205585
7.7391629 59.830215 35.706024
7.7311482 59.818733 35.156281
7.7619858 59.811195 34.675377
7.6723933 59.836319 36.234692
7.7035522 59.82843 35.734966
7.7265377 59.809414 34.703968
7.6398582 59.835289 36.291508
7.6713839 59.827419 35.791451
7.6735797 59.816898 35.256008
7.6950927 59.808437 34.759762
7.7286258 59.791145 33.780205
7.5348868 59.827637 36.257114
7.5374293 59.816956 35.712536
7.4478207 59.821312 36.229702
7.4553456 59.811115 35.692776
7.45261 59.800133 35.150738
7.3393955 59.81284 36.165665
7.3565135 59.803585 35.644104
7.3879461 59.795914 35.154293
7.394908 59.786064 34.636734
7.2489204 59.806515 36.149605
7.261507 59.796814 35.620686
7.2834201 59.788216 35.116215
7.2905259 59.778381 34.598961
7.3222957 59.771103 34.127743
7.3344851 59.762123 33.636414
7.1856942 59.803329 36.20031
7.189271 59.792725 35.656212
7.1970944 59.782749 35.129375
7.1898313 59.771523 34.590092
7.2317128 59.765209 34.133751
7.142283 59.801991 36.277653
7.1560063 59.792351 35.74818
7.1595731 59.781933 35.213455
7.1872411 59.774044 34.725338
7.1804028 59.763027 34.195095
7.119648 59.802097 36.358398
7.1481099 59.793877 35.851013
7.1472516 59.783005 35.308262
7.1753106 59.775131 34.819645
7.2283621 59.769829 34.376682
7.1971421 59.756638 33.818665
7.0819731 59.800262 36.391796
7.1055574 59.791565 35.876816
7.1289058 59.783043 35.371201
7.147274 59.774223 34.867481
7.1656494 59.765594 34.373055
7.189208 59.757633 33.895088
7.0897217 59.803123 36.509659
7.0899029 59.79211 35.956367
7.0844927 59.780777 35.405579
7.1030045 59.771969 34.901688
7.1115994 59.76239 34.392437
7.0106344 59.797512 36.491558
7.0156021 59.786972 35.945942
7.0150752 59.776115 35.40271
7.0582104 59.769676 34.935822
7.0522237 59.75869 34.404346
6.9248047 59.790737 36.437405
6.9439569 59.781593 35.914639
6.9384494 59.77026 35.36414
6.9666829 59.762394 34.875313
6.9653497 59.751869 34.351585
6.8289905 59.782574 36.346741
6.8283477 59.771526 35.794498
6.8464484 59.762516 35.281956
6.8938737 59.756523 34.823093
6.877377 59.74456 34.277653
6.7685537 59.777332 36.28508
6.777092 59.7672 35.748051
6.7997212 59.75864 35.243038
6.8272095 59.750732 34.754681
6.8151755 59.73922 34.216881
6.7455883 59.764565 35.72073
6.7532115 59.754562 35.19342
6.7851157 59.747101 34.712574
6.797441 59.737934 34.211445
6.7897849 59.727051 33.690651
6.6992602 59.761372 35.714817
6.735949 59.754189 35.232044
6.7383866 59.743881 34.706646
6.7505121 59.734703 34.205517
6.7677584 59.726192 33.720947
6.7650886 59.715969 33.21674
6.6686611 59.760262 35.761005
6.7006464 59.752609 35.270531
6.6982765 59.741833 34.73753
6.6905737 59.730751 34.206993
6.7077079 59.722237 33.722492
6.725203 59.713924 33.247086
6.758575 59.707275 32.80204
6.6379066 59.758743 35.787289
6.6796174 59.752033 35.311497
6.6822176 59.741726 34.785561
6.6845584 59.731594 34.269283
6.6968617 59.722603 33.77705
6.6388273 59.749123 35.301407
6.6559262 59.740219 34.797573
6.6581073 59.730076 34.281113
6.6602044 59.720116 33.774204
6.6776171 59.711788 33.298306
6.6853147 59.702713 32.817142
6.6258416 59.738022 34.787548
6.6276712 59.727852 34.271027
6.6243868 59.717392 33.756817
6.6515975 59.709999 33.295269
6.664145 59.701385 32.821095
6.6721258 59.692505 32.348854
6.6140804 59.727467 34.296951
6.6207795 59.717949 33.796921
6.6124077 59.707188 33.284683
6.6400466 59.700001 32.831856
6.6271424 59.689171 32.331203
6.6511307 59.68195 31.889006
6.5615196 59.724361 34.316093
6.5834713 59.716286 33.837666
6.585546 59.706497 33.339481
6.5930142 59.697395 32.857758
6.5906453 59.687542 32.371033
6.6148958 59.680332 31.928526
6.5237098 59.702774 33.358551
6.5314918 59.693691 32.876709
6.550138 59.685791 32.418095
6.5539813 59.676662 31.947237
6.5743704 59.669228 31.506189
6.5693808 59.659595 31.039291
6.5125322 59.67448 31.975672
6.5070004 59.664627 31.499645
6.5181174 59.656475 31.053362
6.525033 59.648079 30.608908
6.5493579 59.641411 30.193312
6.4594865 59.661404 31.496031
6.4972134 59.655697 31.083939
6.4990611 59.64682 30.632235
6.518229 59.639668 30.209499
6.5171804 59.63081 29.768322
6.5339351 59.623695 29.355591
6.535871 59.615372 28.931337
6.5450315 59.607822 28.521915
6.4589005 59.6441 30.62956
6.4672127 59.635956 30.193218
6.4986715 59.630051 29.792046
6.5100579 59.622444 29.372309
6.5286493 59.615612 28.967335
6.5101514 59.605572 28.525028
6.5155759 59.597801 28.117077
6.4873919 59.604973 28.570866
6.4987283 59.597713 28.168831
6.4781733 59.587742 27.736712
6.4820824 59.580063 27.338259
6.4333596 59.585884 27.792717
6.3866358 59.573708 27.337284
6.4904442 59.551712 25.88739
6.3550487 59.572948 27.404314
6.3617821 59.565605 27.01339
6.3938794 59.560589 26.654797
6.4547553 59.550522 25.946583
6.4542079 59.542927 25.56724
6.3331442 59.572342 27.446884
6.3514104 59.566006 27.06805
6.3432765 59.557453 26.665964
6.3605728 59.551235 26.296202
6.42731 59.5494 25.981804
6.4326806 59.542313 25.608114
6.4466562 59.536057 25.247684
6.3159566 59.571735 27.473732
6.3225517 59.564373 27.08219
6.3372173 59.557819 26.704548
6.3543983 59.551586 26.334368
6.4210634 59.54974 26.019552
6.4263105 59.542633 25.645437
6.4342408 59.535854 25.278717
6.4330482 59.528381 24.907629
6.452673 59.522778 24.561062
6.2730141 59.569149 27.486931
6.2966504 59.563286 27.11397
6.2939343 59.55521 26.717611
6.3051329 59.548454 26.341284
6.3774776 59.547104 26.032494
6.4415169 59.545082 25.717707
6.4199972 59.535748 25.320864
6.418829 59.528267 24.949347
6.4324784 59.522144 24.59663
6.4492049 59.516365 24.250801
6.4508867 59.509388 23.894938
6.182776 59.562588 27.458221
6.2119575 59.557224 27.09182
6.2206526 59.550156 26.708033
6.315763 59.54306 26.035223
6.4176316 59.536816 25.382296
6.4228292 59.529858 25.015871
6.4489174 59.524776 24.673826
6.441956 59.516953 24.30444
6.4622245 59.511528 23.964682
5.9044328 59.624725 31.504299
6.1233125 59.550713 27.06039
6.1089458 59.541626 26.652225
6.131578 59.535885 26.28867
6.2388778 59.537582 26.016373
6.4889798 59.466782 21.629669
5.972939 59.546246 27.337122
6.0361886 59.543903 27.008797
6.0217276 59.534817 26.600931
6.0442586 59.529076 26.237629
6.1631432 59.53178 25.977474
5.9307852 59.543007 27.314857
5.9652328 59.538128 26.955391
5.9792867 59.531551 26.578472
5.9726043 59.523266 26.184771
5.8788915 59.539165 27.295069
5.9015527 59.533264 26.923256
5.9036508 59.525654 26.534285
5.9255719 59.519875 26.171215
5.812592 59.534637 27.288633
5.8522573 59.530235 26.935553
5.8542581 59.522617 26.546507
5.8644495 59.515816 26.171257
5.7393641 59.529774 27.288443
5.7789626 59.525372 26.935522
5.8040204 59.519775 26.571138
5.8026767 59.511963 26.183628
5.709445 59.528828 27.340584
5.6863379 59.518894 26.918972
5.7113419 59.513298 26.554876
5.7332177 59.507519 26.1919
5.992187 59.437225 21.801052
5.6072402 59.521008 27.288532
5.6296935 59.515095 26.917011
5.620049 59.506466 26.516048
5.6591311 59.502197 26.171598
5.2732649 59.585773 31.651712
5.5234885 59.514153 27.223452
5.562717 59.509731 26.870893
5.552752 59.501083 26.470152
5.5857167 59.496292 26.119808
5.9145613 59.431961 21.795603
5.2242613 59.582054 31.628363
5.4620552 59.509338 27.186571
5.4609556 59.501381 26.790737
5.4736514 59.494736 26.415028
5.5179701 59.490944 26.077009
5.3480949 59.500214 27.108261
5.3638453 59.493755 26.731586
5.3763013 59.487103 26.356281
5.4727244 59.487862 26.072998
5.1939778 59.495445 27.382301
5.2864504 59.495689 27.086395
5.2848735 59.487709 26.691257
5.3144255 59.482563 26.334538
5.3991051 59.4823 26.039183
4.9886961 59.563507 31.482241
5.1521339 59.492569 27.377293
5.2558293 59.493801 27.093746
5.2254057 59.483292 26.667549
5.2315111 59.476105 26.286541
5.3448353 59.478352 26.021723
4.6666222 59.602657 34.520168
4.7369213 59.599129 34.108898
4.7248387 59.577961 33.086636
4.814302 59.557636 31.768499
4.955431 59.552299 31.03059
5.0989919 59.488789 27.364576
5.1682167 59.486988 27.043638
5.1774302 59.479977 26.661114
5.1832762 59.472775 26.280102
5.2731109 59.47298 25.991127
4.590013 59.618004 35.545658
4.5670056 59.605118 34.975441
4.6167288 59.599468 34.526318
4.617589 59.589287 34.012459
4.6333785 59.580723 33.529961
4.6596355 59.573322 33.070988
4.8734784 59.54615 30.994865
4.885694 59.538269 30.558529
4.8831048 59.529167 30.110416
5.1233034 59.46109 25.89336
4.5608783 59.606647 35.072681
4.5867653 59.598667 34.585888
4.5980096 59.589458 34.086201
4.6093554 59.580441 33.595848
4.5957308 59.569233 33.078701
4.6330185 59.563023 32.642723
4.635385 59.553673 32.165577
4.7995934 59.541119 30.988491
4.8171644 59.53373 30.55905
4.8307514 59.526108 30.131239
4.8241529 59.516777 29.685009
4.5162959 59.593838 34.578213
4.5275378 59.584629 34.078587
4.5504928 59.566799 33.107231
4.5727239 59.559158 32.649574
4.595736 59.551739 32.200691
4.5885825 59.541656 31.71834
4.6710458 59.530933 30.905464
4.7306719 59.527439 30.531431
4.7211742 59.509003 29.637796
4.4575629 59.58976 34.569141
4.493391 59.582912 34.10619
4.4847898 59.571991 33.586597
4.4912257 59.562687 33.098328
4.5081925 59.554554 32.633591
4.536129 59.547607 32.191906
4.5236206 59.537029 31.702599
4.5586524 59.53104 31.285307
4.5845723 59.524334 30.862387
4.4104528 59.586735 34.574245
4.4263053 59.577976 34.081936
4.4523649 59.57037 33.613365
4.4486847 59.560108 33.110447
4.4706407 59.552444 32.652725
4.4625359 59.542114 32.161293
4.4859509 59.534904 31.721363
4.3115902 59.589344 35.034595
4.3624382 59.573509 34.07053
4.3933716 59.566372 33.609276
4.3997078 59.55706 33.120762
4.4012957 59.547474 32.634354
4.3981628 59.537621 32.150124
4.4266429 59.530888 31.717266
4.3041344 59.559837 33.578552
4.3053699 59.550049 33.08308
4.327229 59.542385 32.625542
4.32932 59.533016 32.148453
4.3216252 59.522903 31.666475
4.3615541 59.517384 31.256374
4.1886282 59.561085 34.025963
4.1995769 59.552052 33.536022
4.2460952 59.546566 33.105728
4.2275448 59.535076 32.590881
4.2501187 59.527641 32.142418
4.2580962 59.518986 31.681555
4.2721305 59.511051 31.236559
4.2977843 59.504337 30.814007
4.138217 59.547714 33.522659
4.1492548 59.538868 33.042011
4.1760015 59.531677 32.591908
4.193356 59.52375 32.136295
4.1804795 59.513153 31.647371
4.2046585 59.506176 31.216526
4.0688787 59.552074 33.972488
4.1090755 59.545853 33.526382
4.1046863 59.535553 33.024017
4.1208415 59.527374 32.559689
4.1325593 59.518936 32.097176
4.1294937 59.509277 31.62253
4.1480112 59.501785 31.184845
4.1940579 59.488045 30.341789
4.0079298 59.547825 33.962322
4.0379219 59.540638 33.501755
4.0483794 59.531757 33.021156
4.0541916 59.52261 32.542553
4.0656672 59.514156 32.080162
4.0882897 59.506905 31.640699
4.0806413 59.496979 31.168077
3.9533386 59.534885 33.494759
3.9689128 59.526489 33.021481
4.0003004 59.519749 32.578625
4.0121174 59.511318 32.115993
3.9884281 59.499725 31.613167
4.0120854 59.492718 31.182562
3.9084051 59.522903 33.042965
3.9366672 59.50631 32.116009
3.94417 59.497627 31.655333
3.9472859 59.488697 31.196609
3.9513094 59.48 30.746801
3.850034 59.519325 33.057793
3.8613284 59.510677 32.586212
3.8732295 59.502251 32.12365
3.9014328 59.495502 31.691036
3.8838258 59.484638 31.204245
3.8983736 59.476913 30.768221
3.9420624 59.463219 29.935194
3.7675972 59.52319 33.526398
3.7983387 59.516228 33.074684
3.7739303 59.504215 32.553043
3.8213594 59.499142 32.140419
3.8080497 59.488522 31.6516
3.8265631 59.48103 31.213934
3.8357177 59.472813 30.771019
3.7123787 59.530006 34.052563
3.7377424 59.522362 33.584431
3.7435026 59.51302 33.096336
3.7241807 59.501488 32.58176
3.7716465 59.496414 32.169044
3.7635586 59.486275 31.687113
3.7769334 59.478302 31.242308
3.6306899 59.514793 33.561172
3.6516147 59.506897 33.095016
3.6680844 59.498737 32.630596
3.6647389 59.488873 32.146725
3.6774056 59.480679 31.693201
3.6805618 59.471748 31.234539
3.7004113 59.46452 30.805496
3.493571 59.50441 33.496658
3.5295849 59.497952 33.052681
3.5259051 59.487892 32.560028
3.5379083 59.479485 32.098034
3.5455065 59.470821 31.63792
3.5643563 59.46336 31.200655
3.5738633 59.455173 30.758129
3.4073799 59.488468 32.983696
3.4391406 59.481766 32.541569
3.4411798 59.472416 32.065464
3.4489515 59.463768 31.605537
3.4471393 59.454384 31.140606
3.4618793 59.446693 30.705421
3.4778504 59.439251 30.278784
3.3538504 59.475555 32.514011
3.3813977 59.468609 32.073513
3.3790309 59.459007 31.599422
3.3877103 59.450596 31.148415
3.4026184 59.442913 30.7131
3.4346271 59.436943 30.306835
3.4309378 59.427818 29.861217
3.3241632 59.465103 32.088261
3.3475657 59.457909 31.64922
3.3252487 59.446602 31.156069
3.3505914 59.439888 30.734556
3.3614686 59.431969 30.300831
3.3789749 59.424793 29.882421
3.2827659 59.454247 31.681257
3.281395 59.444885 31.215881
3.2913096 59.436726 30.773365
3.3235087 59.430763 30.36689
3.314702 59.421162 29.914223
3.3338628 59.414261 29.504057
3.2330773 59.452293 31.748764
3.2477973 59.444408 31.303936
3.2583396 59.436279 30.860863
3.2647281 59.427914 30.419611
3.2616594 59.418819 29.973459
3.265136 59.410469 29.54283
3.280854 59.40337 29.134052
3.2038496 59.424503 30.451365
3.2170594 59.416893 30.025385
3.2209702 59.408566 29.59437
3.2262917 59.400501 29.171896
3.2277241 59.392216 28.751232
3.1594715 59.413265 30.03516
3.1689069 59.405437 29.610741
3.1798363 59.397873 29.194733
3.1869617 59.390091 28.780401
3.190305 59.382092 28.367813
3.206485 59.37537 27.9764
3.2024562 59.366951 27.567263
3.1644008 59.381054 28.401978
3.1697602 59.373344 27.997181
3.1826079 59.366421 27.606884
3.1807594 59.358299 27.20545
3.1866062 59.350975 26.818359
3.1890233 59.343456 26.432882
3.1231833 59.362843 27.625151
3.1382952 59.35622 27.242554
3.1387362 59.348408 26.848867
3.1641223 59.342899 26.487867
3.1634932 59.335201 26.103506
3.1652436 59.327812 25.726904
3.1206589 59.318684 25.417324
3.128005 59.311962 25.055431
3.1440089 59.306076 24.706667
10.397723 59.798435 25.254585
10.415703 59.789249 24.733669
10.425699 59.779484 24.210089
10.447704 59.770794 23.700609
10.451735 59.760693 23.180334
10.452773 59.750435 22.661911
10.440692 59.739185 22.137636
10.471412 59.731506 21.649822
10.473902 59.7216 21.1443
10.504338 59.714016 20.662329
10.496113 59.703388 20.156282
10.500541 59.693848 19.662653
10.491864 59.683331 19.163792
10.511633 59.67514 18.686714
10.502728 59.664742 18.19449
10.522538 59.656662 17.722988
9.7596102 60.026962 38.850243
9.8642912 59.969833 35.634224
9.3875523 60.000362 38.754608
9.4351139 59.977657 37.456589
9.4747133 59.954849 36.179947
9.5169897 59.920208 34.300434
9.0199175 59.974251 38.66872
7.3358188 59.728939 31.966442
7.3461542 59.717972 31.381538
7.3617296 59.707603 30.80937
7.4039459 59.654343 27.995504
7.4135251 59.644127 27.45083
7.4731908 59.627514 26.41823
7.4830012 59.617599 25.887953
7.5035667 59.608704 25.372896
7.4984932 59.597698 24.837431
7.5226321 59.589275 24.334318
7.0067043 59.682377 30.725853
7.0785685 59.620857 27.39883
7.1071343 59.612427 26.880508
7.1105962 59.601898 26.340443
7.133522 59.593151 25.825153
7.1491923 59.583866 25.306818
7.157558 59.574039 24.785723
7.1631217 59.56406 24.266455
7.1796126 59.555099 23.761717
7.1934524 59.54599 23.25844
7.2000437 59.53635 22.752617
7.2039714 59.526569 22.248514
7.2098989 59.517029 21.750082
6.6813803 59.648067 30.087513
6.7352505 59.596699 27.329853
6.7456961 59.586716 26.793945
6.7709184 59.578117 26.278387
6.7800803 59.568207 25.750593
6.7908659 59.558533 25.22913
6.8033533 59.549095 24.713818
6.8131127 59.539509 24.200182
6.8337383 59.530933 23.700924
6.8517838 59.522209 23.202972
6.8535609 59.512192 22.694204
6.8755922 59.503948 22.207212
6.8767395 59.494034 21.705763
6.8937697 59.485516 21.221411
6.4204302 59.564182 26.746662
6.4189396 59.55328 26.204378
6.4453063 59.544903 25.696108
6.460187 59.53561 25.180189
6.46347 59.52541 24.657143
6.4729004 59.515823 24.144684
6.4841299 59.506477 23.638176
6.5152431 59.498898 23.153992
6.5077581 59.488121 22.638216
6.5202599 59.479118 22.144545
6.5302467 59.469975 21.652334
6.5606189 59.462593 21.180729
6.5611091 59.452797 20.687445
6.5729246 59.444008 20.206898
6.6033654 59.417603 18.78023
5.9132447 59.75304 37.915134
5.9195447 59.727074 36.59082
5.9285245 59.71492 35.950844
5.9809642 59.681831 34.115551
5.9895463 59.645939 32.285511
6.0059242 59.635517 31.707779
6.0149345 59.624542 31.126858
6.0440865 59.603981 29.99778
6.0687032 59.59478 29.454081
6.0650258 59.583141 28.882034
6.111834 59.521793 25.647074
6.1482277 59.514397 25.154535
6.1469474 59.503815 24.627808
6.1693945 59.495369 24.129034
6.1582308 59.484127 23.601973
6.1843996 59.476154 23.114609
6.1991792 59.467281 22.620167
6.1979685 59.457142 22.115187
6.2212501 59.449131 21.635563
6.2331004 59.440228 21.149326
6.2334218 59.430443 20.657003
6.2449636 59.41198 19.692028
6.2701502 59.404434 19.229311
6.2746501 59.395256 18.753696
6.2814479 59.386326 18.282885
6.2952523 59.378017 17.819916
6.3186831 59.351971 16.434534
5.6323886 59.682007 35.285454
5.6770535 59.673599 34.714657
5.7364206 59.606209 31.134544
5.3734288 59.65271 34.677711
5.4233079 59.584557 31.090916
4.9966621 59.637306 35.159775
5.0400376 59.628849 34.59079
5.0838938 59.560329 31.005672
5.158854 59.488346 27.143072
4.7206688 59.606163 34.516018
4.7635307 59.537682 30.936152
4.8044882 59.529873 30.407692
4.8289075 59.465 27.070345
4.4426312 59.514912 30.862289
4.4752679 59.506359 30.324263
4.5155816 59.44305 27.012379
4.213717 59.359303 23.814745
4.231122 59.340572 22.816652
4.2572589 59.332821 22.340462
4.2600102 59.323135 21.845297
4.3071055 59.317287 21.394899
4.271142 59.304482 20.871899
4.2796507 59.295509 20.393282
4.3245993 59.289646 19.949102
4.3176813 59.270023 18.98741
3.9766629 59.255798 19.409424
4.0126305 59.239902 18.491856
4.0337334 59.213779 17.110361
4.038054 59.204964 16.653515
4.0446906 59.196388 16.201002
4.0536938 59.188053 15.752616
4.0739117 59.180653 15.313825
4.078989 59.172096 14.867374
4.0776711 59.163082 14.419408
4.0965538 59.155693 13.985743
3.7350948 59.175339 16.175816
3.7396624 59.166668 15.725421
3.772728 59.160309 15.296161
3.7646806 59.15073 14.842193
3.7765119 59.142773 14.403251
3.7952368 59.135387 13.970348
3.4643977 59.121597 14.380234
3.4828651 59.114216 13.948344
3.1674585 59.110451 14.810043
2.8836563 59.073734 13.912555
2.303335 59.354351 29.930227
2.3630028 59.293629 26.683758
2.3714011 59.283741 26.159464
2.4155896 59.277187 25.683353
2.4319153 59.257816 24.656656
2.4578309 59.249844 24.170263
2.4659395 59.240372 23.667715
2.448194 59.22871 23.141548
2.4751885 59.221066 22.667973
2.5432427 59.149574 18.853144
2.5555105 59.141251 18.394371
2.5453105 59.131123 17.920042
2.0420339 59.336823 29.920916
2.0686271 59.27306 26.631933
2.0882809 59.264214 26.122505
2.1337895 59.206497 23.074034
2.1760435 59.200222 22.61825
1.7976996 59.254395 26.597746
1.7985032 59.243839 26.065289
1.8963383 59.180885 22.5795
1.9511435 59.108551 18.766422
1.4428338 59.305397 30.339636
1.6323892 59.163002 22.561312
1.6144308 59.151539 22.045704
1.6753856 59.089725 18.740301
11.017365 59.867924 26.677937
11.029819 59.832664 24.866808
10.83626 59.939716 30.884722
10.852143 59.932236 30.456284
10.848211 59.923065 30.009098
10.856153 59.915127 29.584154
10.849452 59.905983 29.147635
10.871293 59.899567 28.752754
10.873237 59.891464 28.339624
10.876966 59.883644 27.934753
10.888179 59.87661 27.54439
10.89469 59.861454 26.761961
10.758516 59.943081 31.312511
10.762819 59.934383 30.8617
10.778685 59.926903 30.433382
10.780036 59.918221 29.993113
10.777323 59.909309 29.554785
10.781333 59.901146 29.131779
10.792345 59.893749 28.723768
10.799697 59.886139 28.317364
10.797902 59.877827 27.906162
10.820155 59.871784 27.52878
10.816776 59.863564 27.127333
10.815454 59.855637 26.733971
10.821997 59.848515 26.354738
10.825244 59.841206 25.977036
10.836711 59.834713 25.613014
10.827721 59.826534 25.232391
10.83871 59.820187 24.877237
10.840849 59.813164 24.51754
10.851735 59.806976 24.170877
10.855158 59.786415 23.127443
10.591591 59.947048 32.067635
10.598305 59.938309 31.606766
10.60586 59.929806 31.154806
10.55319 59.925724 31.125406
10.577079 59.918896 30.703028
10.560259 59.90844 30.234318
10.570866 59.900661 29.808598
10.582938 59.89315 29.391291
10.596626 59.885906 28.982256
10.601203 59.877964 28.568226
10.596562 59.869312 28.149452
10.610204 59.862423 27.758368
10.625957 59.855835 27.375128
10.621561 59.847557 26.974375
10.624879 59.84008 26.58794
10.641847 59.833908 26.221632
10.638526 59.82605 25.838306
10.643372 59.819008 25.468765
10.656635 59.812794 25.112646
10.650689 59.797821 24.38101
10.515042 59.914425 30.685305
10.518958 59.905895 30.244091
10.529419 59.898106 29.81831
10.541348 59.890579 29.400938
10.549496 59.882839 28.985207
10.548447 59.87439 28.564606
10.560021 59.867203 28.165403
10.562525 59.859318 27.761316
10.566981 59.851727 27.365339
10.579134 59.844925 26.983625
10.576674 59.836937 26.590889
10.576431 59.829254 26.206085
10.589985 59.822887 25.841253
10.606184 59.816837 25.48377
10.601971 59.809105 25.10964
10.606198 59.8022 24.748976
10.601493 59.794613 24.383957
10.617311 59.788883 24.043564
10.477973 59.894817 29.824757
10.484406 59.886795 29.400688
10.486974 59.878551 28.978386
10.502026 59.871567 28.577627
10.502542 59.863388 28.165354
10.521441 59.856976 27.780647
10.525846 59.849377 27.384537
10.537954 59.842571 27.002693
10.546733 59.835575 26.62229
10.53515 59.826889 26.224876
10.542936 59.820015 25.853813
10.553294 59.813457 25.490234
10.548956 59.805714 25.116102
10.553062 59.798801 24.75544
10.565861 59.792725 24.407871
10.575764 59.786484 24.061525
10.570894 59.779057 23.705091
10.443844 59.901455 30.271547
10.449784 59.88464 29.407782
10.457628 59.876877 28.991983
10.461713 59.868896 28.577887
10.480811 59.854282 27.780767
10.398838 59.809589 25.810743
10.403756 59.795219 25.073023
10.41902 59.78928 24.724106
10.413722 59.781654 24.358955
10.318808 59.826725 26.937275
10.326928 59.819687 26.557056
10.331741 59.812462 26.178343
10.333269 59.80505 25.801178
10.3373 59.797955 25.431631
10.338162 59.790676 25.063595
10.347567 59.784233 24.708872
10.348104 59.777115 24.349669
10.357442 59.770836 24.003443
10.302865 59.774429 24.365738
10.312255 59.768154 24.019371
10.193777 59.940086 33.043575
10.203187 59.92178 32.093403
10.169104 59.938782 33.060184
10.168278 59.929024 32.573219
10.183259 59.920921 32.116718
10.178498 59.911129 31.640953
10.179634 59.902046 31.181284
10.192206 59.894173 30.744282
10.200759 59.886066 30.308992
10.160094 59.929062 32.602478
10.144302 59.918068 32.103207
10.154692 59.909698 31.648457
10.16084 59.901081 31.195539
10.173274 59.893196 30.758276
10.176394 59.884586 30.315916
10.186106 59.876724 29.888958
10.181168 59.867661 29.450338
10.172194 59.858364 29.013754
10.170141 59.849834 28.592373
10.180785 59.842571 28.19235
10.182334 59.834606 27.787462
10.191446 59.827431 27.397028
10.185876 59.819061 26.995546
10.081836 59.983955 35.61829
10.118321 59.917076 32.13998
10.134072 59.909195 31.691856
10.135249 59.900101 31.23156
10.132118 59.890762 30.773289
10.135298 59.882156 30.330734
10.139733 59.873806 29.896835
10.145576 59.865719 29.471457
10.136703 59.856426 29.034613
10.15661 59.849869 28.639181
10.145496 59.840633 28.212681
10.055102 59.983856 35.702244
10.059513 59.973629 35.174332
10.058764 59.963108 34.648678
10.096287 59.889526 30.830563
10.001979 59.981182 35.745155
10.006797 59.970982 35.217014
10.025993 59.962364 34.720608
10.035494 59.952995 34.218758
10.040164 59.943348 33.718967
9.9679728 59.980164 35.807301
9.9635429 59.969044 35.263893
9.992835 59.961388 34.781944
9.9191027 59.977501 35.836449
9.9346437 59.957802 34.796001
9.6719732 59.952324 35.395988
9.533412 59.944153 35.44746
9.4660769 59.940521 35.489582
9.4154224 59.939068 35.585346
9.3362503 59.934959 35.642803
9.2291288 59.927364 35.618526
9.1430111 59.921009 35.586391
9.0677681 59.915421 35.556633
8.9854879 59.908951 35.505848
8.9206638 59.904469 35.496861
8.8624554 59.900898 35.511555
8.8284254 59.899582 35.558826
8.9194012 59.897781 35.165485
8.7774 59.896389 35.568638
8.8683167 59.894585 35.175243
8.7116098 59.89167 35.550892
8.7927656 59.888924 35.142673
8.6561279 59.887836 35.543343
8.3602886 59.758827 30.053886
8.3533106 59.749493 29.608559
8.403553 59.696724 26.792721
8.4166584 59.690159 26.419437
8.4151697 59.682404 26.035261
8.4561481 59.678471 25.701328
8.3519726 59.640354 24.135193
8.3980961 59.623455 23.133345
8.3680725 59.581352 21.120224
8.3701124 59.575176 20.803438
8.3022223 59.689388 26.761986
8.3095589 59.68232 26.382908
8.3192883 59.675568 26.011488
8.3315477 59.669128 25.647568
8.3135986 59.617649 23.123541
8.3736925 59.615948 22.837854
8.3590221 59.607983 22.486998
8.3718586 59.602413 22.164656
8.3882437 59.597202 21.848646
8.389823 59.590824 21.523165
8.3145304 59.57814 21.13739
8.3229532 59.572483 20.825508
8.1954174 59.644138 24.846788
8.2122736 59.624241 23.791916
8.2060595 59.616768 23.437454
8.2207804 59.611156 23.106901
8.2388334 59.6059 22.782934
8.2361345 59.598961 22.443666
8.2488966 59.593399 22.121912
8.2529697 59.587173 21.795935
8.2421131 59.579777 21.460787
8.2285175 59.572227 21.127216
8.2557211 59.568127 20.830652
8.1031446 59.616184 23.751072
8.1147537 59.610237 23.413973
8.1235914 59.604134 23.078066
8.1356888 59.598377 22.748886
8.1451168 59.592468 22.420834
8.1336479 59.584873 22.077894
8.137682 59.578655 21.752436
8.1390944 59.572289 21.428221
8.1440821 59.566288 21.110416
8.1651878 59.561684 20.808941
8.0170593 59.63105 24.784033
8.0253525 59.617466 24.074614
8.0279655 59.610676 23.724937
8.0395288 59.604729 23.387974
8.0483236 59.598621 23.052206
8.0423441 59.591339 22.706686
8.0516253 59.585426 22.378996
8.046093 59.578342 22.041782
8.0561333 59.572636 21.721889
8.0636206 59.56678 21.403095
8.0685692 59.56078 21.08544
8.0709944 59.554634 20.768957
7.9466438 59.63345 25.139021
7.949369 59.619205 24.415033
7.9607749 59.613087 24.069809
7.9752107 59.607304 23.73155
7.9571638 59.598827 23.366259
7.9658661 59.59272 23.030706
7.9898486 59.587978 22.712866
7.9750323 59.580032 22.363352
7.9755282 59.573456 22.031631
7.991662 59.56826 21.717083
7.9930167 59.561893 21.393091
7.9855871 59.554871 21.065266
8.0127783 59.550777 20.769194
7.8994331 59.602459 23.74085
7.8933711 59.595005 23.386898
7.9022427 59.588909 23.051277
7.9023538 59.582142 22.711397
7.9057021 59.575729 22.378361
7.9124074 59.569672 22.051989
7.9103665 59.562954 21.72155
7.9179277 59.557106 21.402908
7.9291282 59.551624 21.09053
7.9254518 59.544979 20.76907
7.8336592 59.571365 22.399237
7.840528 59.565319 22.07287
7.8447614 59.55912 21.747711
7.846375 59.552773 21.423794
7.8453846 59.54628 21.101158
7.8604245 59.54118 20.795017
7.7641335 59.560318 22.076433
7.7745419 59.554638 21.756632
7.7762585 59.548298 21.432714
7.7691989 59.541298 21.104944
7.7843027 59.536201 20.798885
7.6898885 59.548603 21.735762
7.691586 59.542267 21.412069
7.7030201 59.536804 21.099928
7.7182002 59.531715 20.793865
7.5910645 59.554424 22.357141
7.6023426 59.54221 21.706503
7.6101818 59.536388 21.388241
7.6216516 59.530933 21.076242
7.5044441 59.554871 22.668097
7.5081058 59.548489 22.335651
7.5072951 59.535267 21.674759
7.5204096 59.523491 21.039963
7.4328275 59.549915 22.657915
7.4674196 59.520084 21.045527
7.3631711 59.552086 22.998888
7.3804512 59.520462 21.354229
7.3196707 59.523254 21.696722
7.0061374 59.489494 21.046778
6.8942909 59.541874 24.048357
6.9041324 59.535694 23.705349
6.8993211 59.528339 23.352339
6.9033999 59.521832 23.01211
6.9106312 59.515671 22.678766
6.9211378 59.509861 22.352131
6.9108734 59.502373 22.010593
6.9220748 59.496765 21.691843
6.9307284 59.491013 21.374193
6.9368496 59.485111 21.057682
6.7741356 59.593014 27.015385
6.7898045 59.578869 26.253292
6.8091826 59.565464 25.515812
6.8083997 59.557987 25.14327
6.8158832 59.551331 24.784279
6.8145261 59.544003 24.420864
6.8449879 59.539509 24.093863
6.8376479 59.531837 23.733326
6.8508148 59.526012 23.397129
6.843421 59.518513 23.045376
6.8449965 59.511864 22.70631
6.8557734 59.506069 22.379536
6.8578658 59.499611 22.048567
6.8693991 59.494022 21.72953
6.8783836 59.488281 21.411589
6.8786945 59.481888 21.08964
6.7146049 59.605946 27.862846
6.7231574 59.598648 27.467943
6.7392149 59.592129 27.087387
6.7353048 59.583942 26.689375
6.7501955 59.577534 26.31813
6.744998 59.56945 25.929804
6.7590384 59.563168 25.567667
6.7642813 59.556206 25.200855
6.7548842 59.548069 24.823681
6.7711077 59.542252 24.477743
6.7844419 59.53627 24.133007
6.7890482 59.529617 23.783781
6.8083997 59.524311 23.452971
6.807272 59.51733 23.106432
6.815176 59.5112 22.772444
6.8203435 59.504913 22.439722
6.8348579 59.499489 22.119053
6.8164659 59.491371 21.772947
6.8439965 59.487175 21.470461
6.8385153 59.480282 21.142912
6.7048469 59.599033 27.548294
6.7046876 59.591049 27.148115
6.7065029 59.583359 26.756048
6.716023 59.576462 26.378178
6.7278795 59.56987 26.00798
6.7422085 59.563599 25.645302
6.7477384 59.556644 25.277931
6.738627 59.548512 24.900175
6.7551293 59.542706 24.55369
6.7454691 59.534721 24.185143
6.767765 59.529579 23.852856
6.7932405 59.524784 23.527233
6.7864528 59.517307 23.174509
6.7886214 59.510674 22.83449
6.7939787 59.504391 22.501331
6.7966137 59.497955 22.169472
6.7965426 59.491367 21.838955
6.7998824 59.485134 21.515053
6.8006158 59.478756 21.192421
6.8172612 59.473763 20.886347
6.6427679 59.654705 30.549374
6.6428657 59.645813 30.102747
6.6938801 59.59193 27.228315
6.7070661 59.585232 26.848248
6.6890039 59.575867 26.438442
6.7010136 59.569283 26.067841
6.7211609 59.563507 25.710855
6.7154694 59.555557 25.330938
6.7179523 59.548428 24.964735
6.7404208 59.543121 24.623661
6.7426152 59.536144 24.266171
6.7417836 59.528999 23.910194
6.7556181 59.523193 23.572809
6.7548251 59.51622 23.225386
6.7690229 59.510601 22.896067
6.7685528 59.503815 22.556934
6.7833881 59.49839 22.235405
6.7835174 59.491802 21.904291
6.7809539 59.485062 21.574554
6.7818494 59.478683 21.251394
6.8109889 59.474712 20.954987
6.5766993 59.717278 33.910034
6.5830288 59.707802 33.413319
6.5895214 59.698521 32.925964
6.5913501 59.688976 32.440716
6.6086826 59.681065 31.985991
6.6352634 59.655869 30.632669
6.6253047 59.646023 30.171732
6.6215267 59.636902 29.726624
6.6794577 59.576637 26.508907
6.6748838 59.568569 26.119171
6.6952076 59.562798 25.761786
6.6839862 59.554356 25.375408
6.7038331 59.548725 25.026749
6.6976438 59.54092 24.655647
6.71735 59.53545 24.315414
6.7166853 59.528305 23.959007
6.724793 59.521999 23.615515
6.7300549 59.51553 23.273338
6.7444129 59.509914 22.943588
6.744102 59.503128 22.604015
6.7289286 59.495171 22.255098
6.7351084 59.489086 21.929224
6.7447643 59.483364 21.609819
6.7518778 59.477493 21.291527
6.7502952 59.47097 20.969292
6.5773792 59.719418 34.015137
6.5599456 59.707623 33.481247
6.5619793 59.697895 32.986141
6.5742197 59.689312 32.514702
6.5719347 59.679523 32.031021
6.5586715 59.659645 31.077454
6.5736732 59.651966 30.642082
6.5742474 59.643093 30.194752
6.617949 59.638336 29.810398
6.6318073 59.630947 29.393446
6.6312165 59.622368 28.964844
6.6320896 59.614056 28.544779
6.6425209 59.567211 26.158733
6.6750073 59.555012 25.438284
6.6723185 59.547398 25.065067
6.6664109 59.539604 24.693542
6.6863871 59.534142 24.352888
6.6918478 59.527508 24.001806
6.6943698 59.52071 23.652134
6.6939697 59.513744 23.303913
6.6966276 59.507126 22.962729
6.7095666 59.468723 20.992195
6.4125519 59.715729 34.379078
6.469048 59.662201 31.504377
6.4728217 59.653332 31.046476
6.5032921 59.647095 30.631983
6.5143943 59.639191 30.198322
6.3188109 59.718632 34.836987
6.3539386 59.711578 34.366066
6.3652878 59.65379 31.427841
6.3994656 59.647778 31.012167
6.4247198 59.64106 30.590883
6.4565601 59.635082 30.184719
6.2559175 59.713505 34.7892
6.2955112 59.706898 34.32579
6.2695599 59.645672 31.339252
6.3595104 59.644894 31.000526
6.3588462 59.635769 30.544668
6.1852727 59.707539 34.725243
6.2434878 59.702766 34.291622
6.22506 59.642334 31.319864
6.2891312 59.639141 30.946341
6.3034396 59.631428 30.511438
6.2026148 59.700169 34.29739
6.2417526 59.635967 30.944719
6.2506666 59.627754 30.502935
6.1613522 59.697838 34.317883
6.1948371 59.633106 30.957397
6.2088175 59.625366 30.522429
6.2605548 59.621254 30.143726
6.1143484 59.694832 34.323597
6.1520619 59.630508 30.969618
6.1763282 59.623726 30.548281
6.2228765 59.619129 30.162504
6.0403647 59.699268 34.792694
6.0741992 59.692127 34.321621
6.125989 59.629147 30.988024
6.1294971 59.62043 30.538912
6.1758552 59.615822 30.153112
6.0055542 59.696877 34.788658
6.034277 59.689247 34.310139
6.0734339 59.625153 30.962631
6.0817223 59.616894 30.520519
6.1521511 59.555954 27.227421
5.9909143 59.686665 34.324883
6.0296259 59.62252 30.976513
6.0430484 59.614738 30.541147
6.0890923 59.610104 30.15519
5.8985009 59.679779 34.287266
5.9562325 59.617504 30.969213
5.954052 59.608276 30.513351
6.0156097 59.605087 30.148161
5.8694849 59.679066 34.348103
5.8895326 59.613113 30.971136
5.8926606 59.604378 30.522148
5.9439054 59.600231 30.143276
5.7583241 59.670288 34.277794
5.79668 59.606182 30.932434
5.810039 59.598404 30.497515
5.8821316 59.596184 30.14607
5.8798995 59.537468 27.206532
5.9323044 59.461067 23.197302
5.7126865 59.667297 34.279713
5.7356572 59.601738 30.912693
5.7540793 59.594433 30.484703
5.8104224 59.590763 30.112787
5.649138 59.66283 34.26717
5.6612978 59.596283 30.886717
5.6899319 59.589935 30.472652
5.7462068 59.586262 30.100784
5.7531366 59.528442 27.175812
5.5868526 59.659374 34.301308
5.6066685 59.593452 30.926512
5.6149406 59.585197 30.484718
5.6766119 59.58202 30.11969
5.6864882 59.516556 26.801105
5.7321258 59.447441 23.180235
5.5286641 59.656548 34.353207
5.5311246 59.588882 30.948935
5.5448241 59.581127 30.514025
5.6119661 59.578449 30.155811
5.5952129 59.518398 27.19767
5.6243882 59.51313 26.836161
5.660965 59.443169 23.202736
5.4521279 59.651157 34.337681
5.4888144 59.586769 30.983696
5.5181241 59.580456 30.569248
5.5436978 59.573925 30.156147
5.5883489 59.51152 26.875275
5.6318913 59.44207 23.244623
5.4486017 59.651939 34.388687
5.4640675 59.585529 31.003908
5.4775982 59.577755 30.568619
5.5184994 59.572647 30.175964
5.5377584 59.515862 27.261812
5.5557723 59.509594 26.88719
5.5649567 59.502644 26.507664
5.5850801 59.43895 23.243921
5.4528413 59.585419 31.035803
5.4506311 59.576183 30.579552
5.5017333 59.572018 30.200394
5.5590162 59.437496 23.257788
5.3616757 59.646538 34.407028
5.3953981 59.581871 31.049147
5.4036188 59.573601 30.606596
5.428688 59.567028 30.193167
5.490602 59.432972 23.258604
5.2817516 59.641342 34.412628
5.2894039 59.56517 30.564026
5.350987 59.561981 30.198788
5.3822184 59.498383 26.902651
5.3928194 59.426151 23.241884
5.3081884 59.420105 23.220343
5.2626715 59.416821 23.207188
5.1864605 59.404118 22.823423
5.1844687 59.397228 22.484299
5.1555004 59.388149 22.125183
5.1843152 59.384003 21.821026
5.1924391 59.378181 21.501875
3.2939513 59.269886 22.390753
3.2941871 59.263298 22.059334
3.3039215 59.257576 21.739792
3.304986 59.251202 21.416178
10.30534 59.74519 22.889923
10.324594 59.696861 20.400152
10.371586 59.57819 14.28731
9.0706501 59.991718 39.376431
8.9660788 59.984463 39.36055
8.7956457 59.971069 39.256168
8.6862907 59.96357 39.243973
8.5723066 59.955387 39.212963
8.4384022 59.945362 39.155972
8.2814016 59.933548 39.085957
8.2766275 59.919537 38.398693
8.0298643 59.914917 38.988804
7.8543987 59.901176 38.883694
7.7434926 59.893806 38.883266
7.7554827 59.881443 38.222729
7.5944195 59.882431 38.808914
7.4754491 59.860493 38.104153
7.3192096 59.848808 38.038048
7.2314172 59.830193 37.396275
7.2552457 59.78112 34.853947
7.0321908 59.840797 38.59214
7.0471101 59.828812 37.94096
7.0836325 59.819038 37.328751
7.111887 59.808632 36.712387
7.1124849 59.78307 35.427391
6.9036713 59.831787 38.568176
6.8862 59.803535 37.20834
6.9551249 59.784119 36.004162
6.9619341 59.772045 35.375568
6.9823389 59.761391 34.772743
6.7205048 59.831253 39.151386
6.7732778 59.822739 38.548412
6.7669573 59.808746 37.867126
6.8031788 59.798973 37.255825
6.7923894 59.78492 36.58643
6.7814884 59.771042 35.926281
6.827404 59.762634 35.351353
6.8213954 59.749542 34.714199
6.8333783 59.73827 34.108608
6.8703785 59.6936 31.743301
6.588088 59.808147 38.432953
6.6110024 59.796974 37.79583
6.6101046 59.770714 36.480701
6.668036 59.763317 35.916523
6.6903882 59.740192 34.68145
6.6978655 59.728516 34.070507
6.5015783 59.802967 38.46104
6.4570775 59.785358 37.725464
6.4797502 59.774349 37.097492
6.5155082 59.764736 36.495762
6.5087237 59.75127 35.842525
6.5410295 59.741627 35.25095
6.5507011 59.717667 34.016193
6.562912 59.706593 33.419701
6.3175435 59.775467 37.693825
6.3654933 59.766869 37.10265
6.3629131 59.753635 36.446987
6.3689213 59.741386 35.812145
6.4010749 59.731743 35.221004
6.3687162 59.71624 34.550709
6.4150448 59.708199 33.992809
6.4223866 59.684643 32.78616
6.1739101 59.752136 37.001373
6.2049918 59.742115 36.394848
6.2109203 59.729874 35.760643
6.2256832 59.71862 35.146721
6.2365756 59.707157 34.535183
6.2479749 59.695892 33.931808
6.264369 59.685234 33.342106
6.2727132 59.673969 32.749016
6.2773843 59.66251 32.158318
6.0065951 59.739536 36.926373
6.0669112 59.732307 36.362637
6.05581 59.718472 35.705086
6.091804 59.709225 35.121071
6.0639024 59.694157 34.457771
6.1097279 59.686104 33.901016
6.1086006 59.67384 33.289116
6.1124134 59.662178 32.691113
6.113379 59.638672 31.508219
5.8986759 59.745739 37.597191
5.9000549 59.732746 36.94043
5.9266238 59.722321 36.328606
5.923964 59.709286 35.683327
5.9384756 59.698036 35.070324
5.9603295 59.675316 33.857265
5.9759321 59.640747 32.07011
5.7291331 59.746387 38.194481
5.5731645 59.734955 38.140205
5.4234667 59.724117 38.095013
5.2739005 59.713493 38.060028
4.5314531 59.609116 35.29454
4.0446239 59.561127 34.507664
3.9078248 59.51548 32.672443
3.9330549 59.49437 31.528782
3.9448981 59.483936 30.965675
3.9828329 59.476025 30.442192
3.9547474 59.462177 29.840679
3.986623 59.453934 29.320723
3.9560506 59.440136 28.730223
4.0033679 59.433495 28.239252
4.0222898 59.424389 27.719063
4.0297256 59.414352 27.190687
4.0526624 59.374634 25.120647
4.0718708 59.35601 24.121998
3.7741494 59.47142 30.906307
3.7825475 59.460819 30.346151
3.7877679 59.450047 29.788214
3.8141742 59.430321 28.710035
3.822896 59.420216 28.173859
3.8200862 59.409187 27.629744
3.8228493 59.398773 27.09783
3.8832786 59.393578 26.635666
3.8500555 59.380177 26.073769
3.8966954 59.373913 25.604042
3.8706789 59.36137 25.061216
3.8901854 59.352901 24.571115
3.9248757 59.345818 24.10013
3.9449472 59.298386 21.652472
3.6529343 59.418926 28.675316
3.6573126 59.408443 28.134686
3.6740837 59.377991 26.550251
3.6969984 59.369576 26.051594
3.7042444 59.359867 25.540251
3.7306075 59.351925 25.053768
3.7412853 59.342693 24.554861
3.7886598 59.27803 21.151596
3.8062174 59.27 20.689953
3.8214822 59.261837 20.229412
3.5269039 59.367966 26.5375
3.541141 59.358791 26.029644
3.5570123 59.349854 25.52812
3.5398149 59.338108 24.995947
3.6144471 59.265808 21.118488
3.64995 59.259293 20.673214
3.6560757 59.250381 20.20554
3.668977 59.2421 19.746794
3.6704698 59.232937 19.281944
3.6788297 59.224403 18.82579
3.6934702 59.207344 17.920769
3.6998041 59.198818 17.471823
3.3494823 59.376266 27.545069
3.364857 59.367012 27.029394
3.3745244 59.346924 25.988922
3.3859334 59.337608 25.483414
3.3817062 59.327015 24.965815
3.4348063 59.311466 24.008497
3.4540174 59.264164 21.570316
3.4691892 59.255894 21.104691
3.4955449 59.248623 20.651958
3.4926066 59.238968 20.177149
