# .PCD v0.7 - Point Cloud Data file format
VERSION 0.7
FIELDS x y z
SIZE 4 4 4
TYPE F F F
COUNT 1 1 1
WIDTH 1559
HEIGHT 1
VIEWPOINT 0 0 0 1 0 0 0
POINTS 1559
DATA ascii
-63.36087 46.223362 16.834562
-63.341637 46.210293 16.606167
-63.321804 46.218334 16.397034
-63.302307 46.223938 16.18865
-63.283157 46.227112 15.981046
-63.264717 46.219761 15.768414
-63.245872 46.226238 15.568276
-63.227749 46.222218 15.363164
-63.210373 46.207569 15.153316
-63.192104 46.215397 14.961163
-63.174564 46.212727 14.76418
-63.156902 46.216228 14.573414
-63.139542 46.217606 14.383339
-63.122948 46.208382 14.188725
-63.106194 46.205513 14.000175
-63.08876 46.217731 13.822599
-63.07309 46.202168 13.630411
-63.055687 46.219147 13.459002
-63.040096 46.208199 13.273322
-63.023731 46.212727 13.098098
-63.009819 46.180225 12.90452
-62.992332 46.207401 12.744702
-62.976181 46.215237 12.575873
-62.96143 46.203506 12.398514
-62.946365 46.198841 12.226366
-62.931564 46.192375 12.054875
-62.915787 46.202175 11.892588
-62.900223 46.210342 11.730677
-62.886158 46.198696 11.560949
-62.871052 46.20356 11.400002
-62.856823 46.197651 11.235537
-62.842163 46.199276 11.07554
-62.827721 46.19931 10.916002
-62.812805 46.207027 10.760645
-62.799496 46.194649 10.598366
-62.784279 46.208618 10.447388
-62.769241 46.221149 10.296605
-62.755119 46.22287 10.14265
-62.742691 46.204285 9.982482
-62.728992 46.202991 9.8294783
-62.715492 46.20023 9.6768894
-62.702194 46.196014 9.5247307
-62.689095 46.190342 9.3730145
-62.675404 46.192768 9.2246428
-62.661079 46.203373 9.0793781
-62.646919 46.212639 8.9342632
-62.635414 46.191742 8.7814035
-62.621609 46.198284 8.636879
-62.607971 46.203503 8.4925413
-62.595356 46.197727 8.3460197
-62.583797 46.180908 8.1975803
-62.568047 46.211262 8.0607758
-62.555069 46.211231 7.9173093
-62.542263 46.2099 7.7740912
-62.530529 46.197506 7.6291728
-62.518066 46.193569 7.4865713
-62.504845 46.198143 7.3460417
-62.492714 46.19165 7.2039328
-62.480747 46.183884 7.0621305
-62.473732 46.125664 6.9129877
-62.475658 45.977425 6.7520223
-62.459511 46.014935 6.6196418
-62.439518 46.090786 6.4918485
-62.427464 46.08654 6.3533692
-62.412563 46.110733 6.2183957
-62.399784 46.113964 6.0810881
-62.396301 46.026848 5.9354792
-62.383877 46.027611 5.7990637
-62.371593 46.02718 5.6627207
-62.359447 46.025555 5.5264616
-62.347446 46.022739 5.390296
-62.335583 46.018734 5.2542353
-62.322796 46.023476 5.1186967
-62.310135 46.027039 4.98311
-62.299774 46.009541 4.8470168
-62.286293 46.020679 4.7116847
-62.274029 46.020695 4.5761013
-62.261894 46.019531 4.4405107
-62.251007 46.007252 4.3050365
-62.236897 46.023598 4.1691489
-62.22628 46.008957 4.0337992
-62.212402 46.02293 3.8975346
-62.20092 46.015854 3.7618895
-62.188419 46.017521 3.6257513
-62.178364 45.998169 3.4907739
-62.163792 46.017273 3.3531601
-62.151665 46.015354 3.2167282
-62.139664 46.012245 3.0802195
-62.126598 46.017815 2.9426632
-62.114849 46.012299 2.8059459
-62.10202 46.015438 2.6680293
-62.090523 46.007507 2.5311458
-62.077942 46.008213 2.3929121
-62.071583 45.958565 2.2615554
-62.065414 45.907822 2.1308839
-64.266319 46.335934 26.314697
-64.230209 46.30426 25.879644
-64.195259 46.290283 25.47872
-64.161163 46.276623 25.087557
-64.127846 46.257366 24.698183
-64.095284 46.226334 24.302835
-64.063576 46.208488 23.932856
-64.032616 46.191761 23.572374
-64.002335 46.202057 23.251966
-63.972702 46.18853 22.90995
-63.943584 46.202999 22.607342
-63.915146 46.193558 22.283342
-63.887104 46.206398 21.990616
-63.859798 46.195114 21.676828
-63.832771 46.206802 21.393833
-63.806625 46.187286 21.08284
-63.78056 46.198223 20.809467
-63.755211 46.191616 20.522839
-63.729881 46.209442 20.265873
-63.705563 46.19553 19.981684
-63.681164 46.206581 19.726751
-63.657207 46.214397 19.472773
-63.634052 46.204403 19.206106
-63.610626 46.220387 18.967815
-63.588413 46.203773 18.703493
-63.565834 46.213646 18.46711
-63.54388 46.213078 18.225021
-63.521873 46.224663 17.997005
-63.501003 46.210564 17.750454
-63.480057 46.208771 17.517906
-63.459515 46.204128 17.286369
-63.438511 46.22007 17.074615
-63.418747 46.209953 16.844988
-63.399075 46.204952 16.622574
-63.379135 46.213207 16.413242
-63.36021 46.202995 16.192711
-63.340973 46.206272 15.985044
-63.322792 46.19091 15.766514
-63.302765 46.221928 15.583674
-63.28529 46.201683 15.366971
-63.267017 46.203655 15.168297
-63.24865 46.211678 14.975935
-63.231419 46.20084 14.773266
-63.213238 46.212887 14.587764
-63.19577 46.214451 14.397476
-63.179512 46.196918 14.19739
-63.161728 46.211262 14.019063
-63.144676 46.215118 13.83609
-63.128883 46.199734 13.643681
-63.111904 46.208214 13.467097
-63.095181 46.214821 13.291035
-63.079235 46.210804 13.110707
-63.064102 46.19606 12.926362
-63.047081 46.214645 12.761518
-63.031948 46.204933 12.583235
-63.015957 46.211151 12.414721
-63.000778 46.206676 12.242269
-62.985859 46.200405 12.070471
-62.971195 46.192345 11.899345
-62.954948 46.20969 11.741471
-62.940144 46.207287 11.575618
-62.925579 46.203197 11.410332
-62.911896 46.188263 11.241683
-62.89518 46.21759 11.093137
-62.881966 46.199368 10.925628
-62.867649 46.19796 10.766328
-62.852859 46.204269 10.611144
-62.838268 46.209072 10.456304
-62.824585 46.203026 10.298354
-62.809673 46.214195 10.147706
-62.79641 46.205116 9.9906778
-62.782619 46.203945 9.8374329
-62.769028 46.201305 9.6846018
-62.754871 46.206692 9.5352535
-62.742443 46.191643 9.3802395
-62.727097 46.213264 9.2373991
-62.714275 46.204895 9.0861149
-62.701656 46.195091 8.9353142
-62.688423 46.193478 8.7876472
-62.674545 46.200119 8.6428766
-62.662506 46.186131 8.4933529
-62.648972 46.190086 8.3491364
-62.635605 46.19273 8.2051315
-62.622402 46.194061 8.0613499
-62.610241 46.184353 7.9156728
-62.596493 46.192806 7.7745056
-62.58289 46.199993 7.6334271
-62.570343 46.19614 7.4905739
-62.558876 46.181198 7.3462124
-62.545746 46.184566 7.2057266
-62.532772 46.186684 7.0653753
-62.527481 46.10886 6.9129033
-62.526291 45.9902 6.7561736
-62.510109 46.027794 6.6234598
-62.490128 46.103733 6.4953394
-62.477982 46.099556 6.3565192
-62.465004 46.104046 6.2190037
-62.454151 46.087532 6.0794959
-62.446484 46.040062 5.9375958
-62.436005 46.021061 5.7991519
-62.423653 46.020676 5.6626406
-62.412468 46.009174 5.5255423
-62.400402 46.006397 5.3892941
-62.386383 46.022293 5.2541428
-62.374584 46.017143 5.1179399
-62.361862 46.020744 4.9821844
-62.349266 46.023163 4.8463907
-62.3368 46.024399 4.7105689
-62.32555 46.014507 4.574667
-62.312252 46.023315 4.4388819
-62.301277 46.011063 4.3031497
-62.289337 46.007568 4.1674061
-62.275291 46.022755 4.0311146
-62.263599 46.016891 3.8952546
-62.252045 46.009842 3.759439
-62.240623 46.00161 3.6236782
-62.228191 46.00211 3.4873495
-62.214725 46.011322 3.3502033
-62.20253 46.009426 3.2136023
-62.19046 46.006332 3.0769243
-62.178516 46.002037 2.9401798
-62.16552 46.006416 2.8023138
-62.152634 46.009575 2.6642299
-62.139866 46.011505 2.5259385
-62.127213 46.012207 2.3874509
-62.120724 45.962547 2.2558315
-62.115635 45.901974 2.1263943
-64.326897 46.413322 26.467987
-64.290009 46.353428 25.991743
-64.254814 46.340565 25.590097
-64.220413 46.321934 25.190266
-64.186813 46.297562 24.792318
-64.154083 46.279915 24.411995
-64.122055 46.244297 24.01792
-64.090935 46.247486 23.680016
-64.060432 46.220341 23.312819
-64.03064 46.207462 22.970358
-64.001511 46.189831 22.629513
-63.972878 46.200542 22.327848
-63.944836 46.200523 22.019897
-63.917366 46.196354 21.713264
-63.890259 46.208462 21.429983
-63.863899 46.196239 21.125959
-63.837929 46.193794 20.837818
-63.812378 46.19453 20.558098
-63.786858 46.219814 20.307924
-63.762409 46.206371 20.023367
-63.738205 46.203529 19.754141
-63.714489 46.197212 19.486113
-63.690926 46.202019 19.233
-63.667622 46.210976 18.987686
-63.644737 46.216862 18.743305
-63.623093 46.189831 18.473305
-63.601093 46.189407 18.231155
-63.578373 46.223877 18.022629
-63.557163 46.217728 17.782263
-63.536377 46.208603 17.543001
-63.515484 46.212013 17.317514
-63.494968 46.2127 17.092932
-63.47541 46.194973 16.856916
-63.455379 46.198067 16.640482
-63.435074 46.214516 16.436993
-63.415733 46.212601 16.222162
-63.396412 46.216213 16.014149
-63.378124 46.20118 15.795266
-63.359501 46.199867 15.589023
-63.341213 46.196171 15.383634
-63.322109 46.214882 15.195992
-63.304462 46.2066 14.992174
-63.287155 46.195976 14.789288
-63.269348 46.199833 14.598167
-63.251835 46.201561 14.407736
-63.234619 46.201176 14.218017
-63.218147 46.190151 14.023847
-63.199669 46.219868 13.856133
-63.184258 46.196098 13.658386
-63.166744 46.213444 13.486542
-63.150959 46.202862 13.300412
-63.134449 46.207748 13.124743
-63.119766 46.184395 12.935434
-63.10326 46.19429 12.765787
-63.086987 46.202431 12.596584
-63.071503 46.199913 12.423342
-63.056274 46.19558 12.250734
-63.040142 46.20742 12.087472
-63.025402 46.19957 11.916034
-63.010918 46.189938 11.745285
-62.996078 46.18763 11.579353
-62.98085 46.192764 11.418019
-62.966469 46.187126 11.25316
-62.951031 46.198215 11.096642
-62.935787 46.207775 10.940421
-62.922073 46.197289 10.777091
-62.909275 46.175869 10.610781
-62.892601 46.208706 10.466587
-62.878857 46.202805 10.308394
-62.86533 46.195354 10.150736
-62.850578 46.205181 10.000232
-62.836735 46.204147 9.8467417
-62.82309 46.201645 9.6936646
-62.810394 46.188183 9.5379591
-62.797153 46.182732 9.3858337
-62.78334 46.185375 9.2370539
-62.768925 46.19619 9.0913839
-62.755459 46.196079 8.9431381
-62.741371 46.204197 8.7978621
-62.729881 46.182079 8.6450901
-62.715324 46.197128 8.5028973
-62.701736 46.201221 8.358346
-62.690002 46.184605 8.2093992
-62.675907 46.19574 8.0676689
-62.663685 46.186138 7.9217362
-62.651646 46.175198 7.7762203
-62.637142 46.192223 7.6370244
-62.623661 46.198235 7.4958792
-62.613026 46.173595 7.3494663
-62.598957 46.186855 7.2105193
-62.585938 46.189064 7.0699129
-62.580494 46.11132 6.9171653
-62.580975 45.973038 6.7572489
-62.565762 46.000839 6.6230965
-62.54491 46.086704 6.4962749
-62.5308 46.102356 6.3597522
-62.520702 46.077251 6.2186646
-62.506863 46.090481 6.0822105
-62.501072 46.02327 5.9381757
-62.48954 46.014236 5.800488
-62.478161 46.003994 5.6630454
-62.464901 46.012394 5.527204
-62.451763 46.019611 5.3912821
-62.438747 46.025642 5.2552905
-62.426899 46.020554 5.1188273
-62.414139 46.024212 4.9828138
-62.401505 46.026684 4.8467617
-62.390064 46.018028 4.7105293
-62.376617 46.028072 4.5745821
-62.365448 46.017048 4.438498
-62.353329 46.014778 4.3024812
-62.342442 46.001389 4.1666732
-62.328384 46.016624 4.0302138
-62.317764 46.000866 3.8945498
-62.303936 46.013718 3.7577338
-62.292461 46.005516 3.621712
-62.278858 46.015968 3.4844944
-62.265358 46.025204 3.3470051
-62.254261 46.013428 3.2108624
-62.242149 46.010357 3.0739255
-62.229 46.015972 2.935945
-62.2183 46.000614 2.7998624
-62.205387 46.003799 2.661608
-62.191406 46.01561 2.5219104
-62.179905 46.006489 2.3844881
-62.173321 45.956844 2.2526851
-62.169323 45.886471 2.1245558
-64.385361 46.486023 26.61231
-64.347664 46.397831 26.094915
-64.311935 46.361961 25.660624
-64.277451 46.350147 25.268263
-64.243729 46.332726 24.877674
-64.210777 46.309731 24.488926
-64.178665 46.293747 24.117649
-64.14727 46.272522 23.748133
-64.116615 46.252499 23.388107
-64.08667 46.227425 23.029856
-64.057396 46.210423 22.688559
-64.028687 46.215137 22.378941
-64.000656 46.195644 22.048252
-63.97316 46.185081 21.734001
-63.945953 46.204277 21.457876
-63.919437 46.199265 21.160885
-63.893642 46.176434 20.850817
-63.867859 46.191364 20.585278
-63.842636 46.195816 20.313599
-63.817894 46.196747 20.043034
-63.793499 46.201347 19.78059
-63.769711 46.195347 19.51231
-63.746246 46.19318 19.252108
-63.722733 46.20974 19.013384
-63.700157 46.201118 18.755325
-63.677658 46.204147 18.511786
-63.655571 46.204144 18.269247
-63.633469 46.216282 18.040781
-63.612431 46.202736 17.793764
-63.591591 46.193794 17.554369
-63.570156 46.212875 17.341389
-63.550114 46.19825 17.104034
-63.529655 46.204262 16.886433
-63.509262 46.215595 16.675772
-63.489807 46.208549 16.453735
-63.471039 46.19083 16.226742
-63.452026 46.186497 16.012754
-63.43269 46.195866 15.81138
-63.414364 46.186607 15.599159
-63.394951 46.207706 15.410715
-63.376549 46.210205 15.211473
-63.358841 46.202129 15.007439
-63.340282 46.216774 14.820772
-63.323624 46.195763 14.612996
-63.305225 46.214584 14.433015
-63.288799 46.197498 14.232408
-63.271381 46.203747 14.048387
-63.254692 46.199409 13.859859
-63.238293 46.192993 13.67211
-63.22171 46.193184 13.49012
-63.20491 46.200119 13.313686
-63.188362 46.205189 13.137791
-63.173088 46.190807 12.952984
-63.157063 46.192085 12.778376
-63.141289 46.191525 12.604363
-63.125221 46.198048 12.43547
-63.1105 46.184933 12.258204
-63.094917 46.187916 12.090441
-63.079563 46.189175 11.923192
-63.064445 46.188728 11.756475
-63.048958 46.195671 11.594419
-63.03368 46.201 11.43277
-63.019238 46.195545 11.267591
-63.004395 46.19762 11.106884
-62.99041 46.188866 10.94284
-62.975349 46.196987 10.786852
-62.961147 46.194298 10.627558
-62.946484 46.199364 10.472317
-62.932011 46.202923 10.31743
-62.917736 46.20499 10.162911
-62.904362 46.196159 10.005473
-62.890484 46.195229 9.851819
-62.876804 46.192825 9.6985779
-62.862579 46.198448 9.5488205
-62.849281 46.193146 9.3963633
-62.836182 46.18639 9.2443609
-62.821735 46.197327 9.098444
-62.807449 46.206917 8.9526739
-62.795692 46.186337 8.79914
-62.782555 46.183552 8.6513968
-62.767975 46.198711 8.508955
-62.755997 46.183559 8.3593731
-62.742558 46.186398 8.2149496
-62.729279 46.18792 8.0707474
-62.717014 46.178398 7.924644
-62.702351 46.196789 7.7851086
-62.690422 46.184639 7.6395941
-62.676918 46.190727 7.4982805
-62.66711 46.156364 7.3498979
-62.651245 46.189308 7.2142873
-62.639095 46.181778 7.0718012
-62.632607 46.113937 6.9204049
-62.632866 45.975719 6.7602043
-62.618587 45.993736 6.624434
-62.598766 46.069805 6.4961782
-62.58466 46.08551 6.3595729
-62.570667 46.100021 6.2228236
-62.558731 46.09354 6.083899
-62.552814 46.026382 5.9395919
-62.541233 46.017414 5.8016434
-62.528809 46.017151 5.664701
-62.515518 46.02562 5.5285149
-62.503357 46.022964 5.3916607
-62.491337 46.019115 5.2549095
-62.479454 46.014072 5.1182723
-62.4646 46.037663 4.9827409
-62.455063 46.010357 4.8456211
-62.440434 46.031574 4.7097611
-62.430141 46.011829 4.5732694
-62.41787 46.010788 4.4370766
-62.404648 46.018501 4.3007789
-62.394794 45.995205 4.1649022
-62.38073 46.010479 4.0282726
-62.36787 46.014622 3.8916967
-62.357338 45.997711 3.7559009
-62.343609 46.009396 3.6187079
-62.332226 46.000034 3.4824896
-62.318722 46.009312 3.3449161
-62.306458 46.007469 3.2078831
-62.295464 45.99453 3.0716612
-62.282303 46.000179 2.9335964
-62.270409 45.994728 2.7963636
-62.25515 46.01767 2.6556423
-62.244659 45.999916 2.5193043
-62.231953 46.000664 2.3804743
-62.226463 45.9412 2.2498963
-62.218788 45.900291 2.1171913
-64.441902 46.525711 26.706356
-64.405365 46.52158 26.300985
-64.368675 46.451557 25.81739
-64.333412 46.404743 25.376337
-64.299324 46.376068 24.969234
-64.265984 46.335327 24.556339
-64.23362 46.307465 24.169016
-64.202209 46.312172 23.830029
-64.171356 46.29295 23.469398
-64.141235 46.288113 23.133385
-64.111748 46.25246 22.768621
-64.082932 46.238125 22.435871
-64.054741 46.219208 22.104723
-64.027184 46.195747 21.775234
-63.999954 46.208576 21.491434
-63.973537 46.183346 21.172338
-63.947277 46.195339 20.898205
-63.921665 46.189789 20.610796
-63.896576 46.180443 20.324699
-63.87167 46.18866 20.061043
-63.847095 46.200668 19.805382
-63.82336 46.187729 19.529951
-63.799686 46.193085 19.276403
-63.776604 46.187878 19.017097
-63.753632 46.194187 18.772402
-63.731262 46.189972 18.522022
-63.709324 46.182606 18.272774
-63.687412 46.187267 18.037725
-63.665668 46.196682 17.81007
-63.644295 46.203335 17.58325
-63.623535 46.199497 17.350981
-63.602917 46.200626 17.125996
-63.582668 46.199043 16.901941
-63.562794 46.194771 16.678846
-63.542709 46.203735 16.468836
-63.523865 46.186218 16.241636
-63.504154 46.198204 16.039257
-63.484428 46.215981 15.843374
-63.466679 46.190739 15.619195
-63.447575 46.203865 15.424774
-63.429848 46.190029 15.21407
-63.410976 46.206966 15.026624
-63.393528 46.196774 14.82323
-63.376019 46.192654 14.626197
-63.35841 46.194759 14.435329
-63.341511 46.186249 14.23991
-63.324059 46.192623 14.055743
-63.306877 46.196995 13.872182
-63.290421 46.19075 13.684209
-63.274254 46.182438 13.497033
-63.25647 46.206917 13.330225
-63.241329 46.185928 13.139594
-63.224007 46.206799 12.973651
-63.209957 46.172977 12.780028
-63.193634 46.181366 12.610522
-63.177002 46.196918 12.44598
-63.162212 46.183952 12.268481
-63.146027 46.196068 12.104835
-63.131187 46.188484 11.933005
-63.116596 46.179115 11.761862
-63.100491 46.195263 11.603763
-63.085171 46.200729 11.441877
-63.071285 46.186245 11.272508
-63.055786 46.197617 11.115516
-63.042374 46.179764 10.947438
-63.026646 46.197243 10.795005
-63.013702 46.176094 10.628206
-62.997688 46.199867 10.479987
-62.984528 46.184845 10.317919
-62.970226 46.186974 10.163321
-62.95612 46.187611 10.009108
-62.940796 46.205647 9.8617382
-62.927773 46.193913 9.7050276
-62.914238 46.190155 9.5519657
-62.900898 46.184933 9.3993444
-62.887756 46.178257 9.2471762
-62.873291 46.189274 9.1010942
-62.859753 46.189354 8.9524345
-62.846386 46.188046 8.804101
-62.832413 46.194996 8.6586666
-62.820194 46.181301 8.5084667
-62.805748 46.195229 8.3659725
-62.792263 46.198174 8.2212124
-62.778934 46.199802 8.0766735
-62.767441 46.180649 7.9280949
-62.754456 46.179619 7.7842045
-62.740772 46.187054 7.6425381
-62.727238 46.193218 7.5009708
-62.714718 46.18832 7.3577175
-62.703247 46.172318 7.2130466
-62.690174 46.174656 7.0721002
-62.683567 46.106865 6.920527
-62.682705 45.978539 6.7615952
-62.666569 46.016346 6.6283035
-62.649574 46.062881 6.4957838
-62.634518 46.08852 6.3602033
-62.620506 46.103088 6.2231979
-62.609478 46.086758 6.082993
-62.602482 46.029549 5.9394431
-62.591824 46.010712 5.8003864
-62.578388 46.020412 5.6640339
-62.567051 46.009068 5.5262394
-62.553871 46.01638 5.3898883
-62.540806 46.022503 5.2534666
-62.529896 46.007557 5.1161547
-62.516068 46.021236 4.980125
-62.503376 46.023788 4.8436413
-62.492893 46.005264 4.7068195
-62.479416 46.015381 4.5705295
-62.469223 45.994476 4.4341159
-62.454926 46.012157 4.297627
-62.443943 45.998821 4.1613827
-62.430943 46.004181 4.024775
-62.419144 45.998409 3.8883944
-62.405289 46.011311 3.7511499
-62.392635 46.013077 3.6141529
-62.381207 46.003727 3.4776745
-62.36768 46.013012 3.3398433
-62.356506 46.001274 3.2033522
-62.343204 46.008137 3.0651827
-62.333424 45.984116 2.9296949
-62.319214 45.998436 2.790256
-62.306255 46.001644 2.6515727
-62.293404 46.00362 2.512682
-62.281834 45.994514 2.3749142
-62.276245 45.935043 2.2441592
-62.268494 45.894131 2.1112795
-64.497406 46.525127 26.743219
-64.389793 46.490471 25.523617
-64.355118 46.438587 25.083952
-64.321533 46.398926 24.670256
-64.288834 46.359585 24.266558
-64.257187 46.352528 23.911407
-64.226143 46.327682 23.542498
-64.195831 46.304123 23.183079
-64.166222 46.288624 22.840601
-64.137268 46.261772 22.492275
-64.108849 46.276802 22.197899
-64.081192 46.234009 21.84549
-64.054024 46.220318 21.531786
-64.027328 46.21611 21.234148
-64.001373 46.187149 20.916212
-63.975708 46.181831 20.628624
-63.950378 46.186817 20.356525
-63.925209 46.209614 20.106621
-63.900906 46.200569 19.829628
-63.876842 46.202381 19.567757
-63.853233 46.200844 19.306992
-63.830078 46.195976 19.047369
-63.807213 46.195206 18.795641
-63.784779 46.191265 18.545004
-63.762966 46.176643 18.28891
-63.74062 46.196678 18.066706
-63.719452 46.183502 17.819361
-63.697613 46.205688 17.605185
-63.676792 46.20211 17.372646
-63.655876 46.211292 17.153645
-63.635559 46.210018 16.929251
-63.615341 46.213951 16.711933
-63.596603 46.183472 16.471272
-63.577423 46.174053 16.249981
-63.557701 46.186176 16.047462
-63.537647 46.212204 15.85728
-63.519825 46.187145 15.632889
-63.501038 46.192242 15.432559
-63.482559 46.195057 15.232963
-63.464748 46.187298 15.028569
-63.446522 46.193897 14.836065
-63.429352 46.181549 14.633406
-63.411316 46.192226 14.447728
-63.394367 46.183887 14.252088
-63.376884 46.190426 14.0677
-63.360104 46.186378 13.878803
-63.343163 46.188877 13.695719
-63.326946 46.180725 13.508318
-63.30962 46.196651 13.336397
-63.293472 46.193283 13.155237
-63.277103 46.196758 12.979521
-63.262981 46.163048 12.785743
-63.246643 46.171543 12.616083
-63.230526 46.178288 12.446884
-63.214638 46.183292 12.278161
-63.19952 46.177574 12.105584
-63.183537 46.188107 11.942216
-63.169464 46.169811 11.766645
-63.153351 46.186062 11.608389
-63.138603 46.182491 11.442312
-63.122883 46.195564 11.284724
-63.109184 46.179501 11.115792
-63.093872 46.189404 10.959016
-63.078747 46.197777 10.802548
-63.065098 46.186039 10.639139
-63.050373 46.191315 10.483495
-63.036503 46.18573 10.324734
-63.020821 46.206738 10.176669
-63.00666 46.207546 10.022046
-62.99408 46.187984 9.8613701
-62.978912 46.204708 9.7140026
-62.965328 46.201077 9.5606117
-62.951935 46.195984 9.4076586
-62.939472 46.17989 9.252264
-62.925735 46.181435 9.1031237
-62.911415 46.191177 8.9570236
-62.898014 46.189964 8.8084402
-62.885567 46.177734 8.6576357
-62.873318 46.164085 8.5073519
-62.859669 46.168381 8.3623829
-62.84618 46.171352 8.2176237
-62.832035 46.18272 8.0753078
-62.818855 46.183079 7.9309177
-62.805 46.191875 7.788825
-62.793819 46.170094 7.6409178
-62.780273 46.1763 7.4992657
-62.767738 46.171444 7.355927
-62.75536 46.165291 7.2128806
-62.742268 46.167683 7.071764
-62.73555 46.09993 6.9200153
-62.734505 45.971638 6.7609048
-62.717484 46.019363 6.6288114
-62.6996 46.075832 6.4973173
-62.687317 46.071884 6.3578086
-62.675182 46.0667 6.2185006
-62.660362 46.089993 6.0824709
-62.655167 46.013 5.9367867
-62.644474 45.99419 5.7976432
-62.63007 46.013847 5.6619678
-62.617718 46.012463 5.5246754
-62.606487 45.999947 5.3868866
-62.593422 46.0061 5.2503786
-62.579468 46.021 5.1142263
-62.568657 46.004887 4.9768643
-62.555958 46.007462 4.8402939
-62.542351 46.018795 4.7038498
-62.529888 46.01899 4.5671449
-62.517551 46.017994 4.4304323
-62.50639 46.005863 4.2938275
-62.493252 46.012432 4.1570239
-62.481293 46.007862 4.020349
-62.46946 46.002102 3.8837075
-62.456673 46.005085 3.7466569
-62.444004 46.006866 3.6094868
-62.433643 45.987606 3.4734616
-62.41901 46.006821 3.334831
-62.406693 46.004993 3.1973662
-62.394493 46.001961 3.0598245
-62.382412 45.997719 2.9222162
-62.369324 46.002148 2.7834923
-62.356342 46.005348 2.6445506
-62.345764 45.987598 2.5078661
-62.333015 45.98835 2.3686936
-62.328495 45.919033 2.2391679
-62.319515 45.887943 2.1047096
-64.547096 46.521832 26.782158
-64.515007 46.744137 26.682056
-64.406433 46.553852 25.271727
-64.371765 46.441414 24.76269
-64.339027 46.409271 24.366112
-64.307159 46.384155 23.987057
-64.276054 46.360081 23.617584
-64.245728 46.350243 23.272833
-64.216003 46.315994 22.906984
-64.186989 46.296436 22.565639
-64.158585 46.292179 22.248343
-64.130875 46.249931 21.895514
-64.103607 46.250378 21.596052
-64.07692 46.23996 21.290604
-64.050842 46.218517 20.979391
-64.025276 46.19986 20.676949
-64.000107 46.191257 20.390238
-63.975067 46.207325 20.132994
-63.950874 46.191429 19.848778
-63.926964 46.186268 19.579809
-63.903389 46.184921 19.318911
-63.879837 46.202297 19.079493
-63.857124 46.194485 18.820724
-63.834869 46.18338 18.563173
-63.812527 46.19157 18.326633
-63.790756 46.189274 18.084473
-63.769398 46.183971 17.843378
-63.748016 46.191063 17.616158
-63.727451 46.179916 17.377157
-63.706108 46.204819 17.170593
-63.686558 46.18021 16.927433
-63.666138 46.192112 16.716227
-63.646038 46.201546 16.505733
-63.627399 46.176479 16.27206
-63.607693 46.188869 16.069262
-63.588596 46.190823 15.861278
-63.570465 46.174038 15.642575
-63.550716 46.203926 15.459195
-63.532913 46.190525 15.247983
-63.5144 46.199581 15.054479
-63.497265 46.181412 14.845161
-63.478973 46.194416 14.658579
-63.461716 46.188484 14.46186
-63.444366 46.188831 14.271256
-63.427303 46.187069 14.081381
-63.410103 46.191792 13.89737
-63.393166 46.194515 13.713984
-63.376492 46.195259 13.53124
-63.360996 46.176605 13.339384
-63.343006 46.20834 13.177397
-63.327106 46.203278 12.996558
-63.31245 46.178612 12.807125
-63.296104 46.187359 12.637078
-63.280495 46.185436 12.462983
-63.264606 46.190643 12.293946
-63.248943 46.194111 12.125402
-63.234051 46.186829 11.953097
-63.219406 46.177753 11.781478
-63.204441 46.175999 11.614676
-63.189129 46.181675 11.452471
-63.174019 46.185734 11.290687
-63.159115 46.188183 11.12934
-63.145031 46.179798 10.96465
-63.129932 46.188282 10.808019
-63.116283 46.176655 10.644443
-63.101582 46.182037 10.488633
-63.08707 46.185913 10.333177
-63.072742 46.188286 10.178087
-63.058609 46.189167 10.023379
-63.04398 46.198002 9.8722925
-63.031601 46.177006 9.7120209
-63.015934 46.201904 9.5678082
-63.003971 46.177891 9.4086456
-62.990067 46.180954 9.2589531
-62.977802 46.163479 9.1039362
-62.962029 46.192471 8.9632082
-62.949387 46.181755 8.8117247
-62.936172 46.179249 8.6633081
-62.923912 46.165703 8.5127659
-62.909489 46.179779 8.369935
-62.896793 46.173176 8.2225266
-62.883469 46.174927 8.0777321
-62.868679 46.194832 7.9374466
-62.85812 46.164734 7.786797
-62.844448 46.172302 7.6447892
-62.830917 46.178596 7.5028791
-62.818378 46.173824 7.3592801
-62.807716 46.148129 7.2125487
-62.792912 46.170231 7.0745964
-62.784359 46.122238 6.9256587
-62.784031 45.984184 6.7646408
-62.769753 46.002403 6.6281009
-62.751057 46.068806 6.4978089
-62.738785 46.064915 6.3581243
-62.724812 46.079582 6.22086
-62.712811 46.073238 6.0814137
-62.705662 46.016113 5.9375029
-62.69495 45.99736 5.7980938
-62.681534 46.007153 5.6613941
-62.669197 46.005821 5.5239253
-62.656017 46.013222 5.3871388
-62.643936 46.009491 5.2497783
-62.633976 45.984676 5.1116962
-62.618187 46.018318 4.9760666
-62.606495 46.010998 4.838903
-62.594944 46.00248 4.7018833
-62.581482 46.012661 4.5651584
-62.569157 46.011703 4.4282684
-62.557999 45.999611 4.2914848
-62.544884 46.006214 4.1545053
-62.531879 46.011616 4.017375
-62.518986 46.015823 3.8801043
-62.507278 46.008896 3.7431552
-62.495693 46.000774 3.6062608
-62.485325 45.981541 3.4700561
-62.471828 45.990871 3.3319638
-62.458431 45.998981 3.1936104
-62.446247 45.995972 3.0558918
-62.434177 45.991753 2.9181066
-62.421112 45.996204 2.7792075
-62.408154 45.999424 2.64009
-62.397572 45.981689 2.5032275
-62.382565 46.002151 2.3612452
-62.379105 45.922981 2.2327654
-62.37125 45.882065 2.0995305
-64.588928 46.492004 26.791082
-64.557068 46.708523 26.682932
-64.38295 46.4813 24.499142
-64.350594 46.400398 24.049557
-64.319717 46.402653 23.710323
-64.289368 46.380806 23.349644
-64.259705 46.360451 22.998335
-64.230698 46.315395 22.626259
-64.202362 46.31179 22.308487
-64.174652 46.283676 21.969948
-64.147491 46.271286 21.655222
-64.120857 46.261505 21.349281
-64.094833 46.240696 21.037573
-64.069313 46.222664 20.734629
-64.044266 46.20763 20.440321
-64.019669 46.195797 20.154512
-63.995571 46.180206 19.870094
-63.971649 46.182568 19.607832
-63.948296 46.174286 19.339825
-63.925133 46.177246 19.086645
-63.902245 46.184414 18.841234
-63.880077 46.173592 18.583473
-63.857494 46.197102 18.359907
-63.835796 46.19519 18.117407
-63.814499 46.190273 17.875969
-63.79361 46.182365 17.635626
-63.772907 46.179226 17.402735
-63.752354 46.181046 17.17713
-63.731682 46.195847 16.964825
-63.712337 46.176544 16.728722
-63.692608 46.178219 16.512032
-63.672943 46.185337 16.302198
-63.653885 46.181953 16.087219
-63.63517 46.176037 15.873174
-63.615864 46.192085 15.677402
-63.597477 46.189514 15.470792
-63.579414 46.184559 15.265053
-63.562023 46.168926 15.054653
-63.54319 46.192612 14.872746
-63.526066 46.180733 14.669558
-63.508507 46.183426 14.478021
-63.490841 46.192482 14.292452
-63.474236 46.182446 14.097079
-63.45752 46.178799 13.907722
-63.439816 46.19894 13.734261
-63.423634 46.191265 13.546242
-63.406841 46.198948 13.36882
-63.391209 46.187248 13.182299
-63.375389 46.182308 13.001374
-63.358871 46.193096 12.8305
-63.345036 46.157749 12.637134
-63.329014 46.164814 12.467538
-63.312187 46.18803 12.307278
-63.297112 46.182697 12.13414
-63.282284 46.17556 11.961668
-63.267151 46.175694 11.794076
-63.252243 46.174114 11.627028
-63.236996 46.17997 11.46458
-63.223103 46.165871 11.294635
-63.207695 46.177624 11.137078
-63.193066 46.178604 10.976016
-63.178036 46.187252 10.819138
-63.164429 46.175789 10.655308
-63.150421 46.172005 10.495694
-63.135975 46.17601 10.340069
-63.121719 46.178509 10.184809
-63.106987 46.188927 10.03324
-63.093094 46.188469 9.8786745
-63.08007 46.177063 9.7213707
-63.066566 46.173622 9.5677185
-63.051846 46.187756 9.4204664
-63.037987 46.190983 9.2704344
-63.025745 46.173668 9.1150723
-63.012245 46.174046 8.9658175
-62.999664 46.163414 8.8142405
-62.984264 46.189903 8.6734228
-62.971264 46.186165 8.5250139
-62.958435 46.181049 8.3769674
-62.945782 46.174568 8.2292967
-62.934093 46.157005 8.0797892
-62.919395 46.176994 7.9394174
-62.907249 46.166477 7.7927809
-62.893639 46.17416 7.6505127
-62.880165 46.180565 7.5083413
-62.868511 46.1661 7.3626776
-62.855335 46.169941 7.2209063
-62.843159 46.162685 7.0776367
-62.836338 46.095093 6.9254212
-62.835033 45.966942 6.7658176
-62.819965 45.995098 6.6305614
-62.802307 46.051712 6.4988222
-62.788292 46.067669 6.3614416
-62.775299 46.072525 6.2228031
-62.764271 46.056355 6.082149
-62.756187 46.009201 5.9390702
-62.744576 46.000443 5.8003297
-62.732162 46.000389 5.6625996
-62.719883 45.999126 5.52495
-62.706772 46.006596 5.3879857
-62.694748 46.002934 5.2504435
-62.682858 45.998066 5.1130142
-62.669125 46.01189 4.9763737
-62.657486 46.004631 4.8390279
-62.644978 46.006123 4.7019849
-62.632595 46.00642 4.5649228
-62.620327 46.00552 4.4278526
-62.608185 46.003426 4.2907839
-62.597198 45.990192 4.1539159
-62.58427 45.995655 4.0166931
-62.571453 45.99992 3.8793299
-62.560856 45.983109 3.7427349
-62.548275 45.984978 3.6052957
-62.534737 45.99556 3.4671242
-62.522377 45.99501 3.3293903
-62.511215 45.983345 3.1923647
-62.498005 45.990284 3.0536692
-62.484894 45.995998 2.9147341
-62.474102 45.980717 2.7776814
-62.461216 45.983986 2.6384718
-62.448441 45.986019 2.4990549
-62.435772 45.986813 2.3594418
-62.432266 45.907673 2.2308493
-62.423286 45.876617 2.0960248
-64.635368 46.486492 26.831726
-64.602783 46.655987 26.658962
-64.397697 46.398354 24.088228
-64.367104 46.426704 23.779417
-64.336769 46.40559 23.418217
-64.307114 46.379425 23.058817
-64.278175 46.38126 22.738823
-64.249809 46.345409 22.382919
-64.222099 46.318062 22.043781
-64.194992 46.292843 21.713785
-64.168419 46.276825 21.400082
-64.142372 46.263493 21.095154
-64.116745 46.260048 20.806026
-64.091835 46.231651 20.496904
-64.067085 46.234631 20.224661
-64.043076 46.212589 19.932636
-64.019592 46.18668 19.642164
-63.996166 46.186089 19.380676
-63.973438 46.167465 19.106756
-63.950775 46.1675 18.854425
-63.928223 46.179283 18.616489
-63.906536 46.165569 18.359644
-63.884766 46.171333 18.123659
-63.862991 46.189461 17.90152
-63.84235 46.174179 17.654507
-63.821499 46.179039 17.427732
-63.801003 46.181164 17.201849
-63.780865 46.180569 16.976887
-63.760593 46.193073 16.765121
-63.74115 46.187195 16.541956
-63.722332 46.170631 16.313818
-63.70306 46.175495 16.104605
-63.684399 46.169811 15.890339
-63.664558 46.202412 15.705899
-63.647148 46.175541 15.481816
-63.629147 46.170765 15.275925
-63.61079 46.180225 15.082047
-63.594105 46.154106 14.866856
-63.575268 46.184258 14.6908
-63.558495 46.170319 14.488281
-63.541279 46.171051 14.297293
-63.523949 46.178207 14.112224
-63.506874 46.18335 13.927752
-63.490475 46.177864 13.738858
-63.473499 46.187641 13.560693
-63.457638 46.178101 13.373252
-63.441162 46.184017 13.19628
-63.424923 46.188065 13.01986
-63.409866 46.172581 12.83468
-63.395088 46.15509 12.650396
-63.379612 46.153431 12.476053
-63.362362 46.185741 12.32007
-63.346813 46.189575 12.151045
-63.333054 46.164604 11.969698
-63.316906 46.182999 11.810338
-63.30257 46.172531 11.638848
-63.287369 46.178555 11.476156
-63.274071 46.15546 11.302002
-63.258724 46.167343 11.144282
-63.242382 46.196148 10.994453
-63.229774 46.167969 10.82229
-63.215607 46.16589 10.66201
-63.201641 46.162231 10.502227
-63.18536 46.194424 10.356862
-63.173042 46.16898 10.191005
-63.158371 46.179516 10.039268
-63.145187 46.169735 9.8813009
-63.130867 46.177349 9.7302036
-63.117393 46.174049 9.5762968
-63.102726 46.188316 9.428793
-63.090309 46.172592 9.272707
-63.076679 46.174496 9.1228848
-63.064663 46.155819 8.9679079
-63.049931 46.174114 8.8241873
-63.037548 46.162201 8.6727715
-63.023109 46.177837 8.5293179
-63.011082 46.163147 8.3786993
-62.997704 46.166439 8.2332497
-62.983704 46.178123 8.0902481
-62.972202 46.159317 7.940877
-62.959297 46.15863 7.7962055
-62.94574 46.166401 7.6537633
-62.93232 46.172897 7.5114169
-62.919865 46.16832 7.3673763
-62.908398 46.15263 7.221909
-62.894577 46.165104 7.0818095
-62.888557 46.087757 6.9277697
-62.887997 45.949821 6.766499
-62.873016 45.97805 6.6311574
-62.853722 46.054489 6.501915
-62.841541 46.050755 6.3618712
-62.828606 46.055679 6.2231417
-62.816704 46.049477 6.0834208
-62.808601 46.002388 5.9401522
-62.796097 46.003616 5.8020868
-62.784653 45.99371 5.663322
-62.772415 45.992512 5.5254936
-62.759361 46.00005 5.3883519
-62.747375 45.996445 5.2506299
-62.734554 46.001587 5.1134424
-62.723797 45.985634 4.9755335
-62.710247 45.998325 4.8386769
-62.698776 45.989922 4.7012939
-62.685448 46.000221 4.5642138
-62.673225 45.999378 4.4269638
-62.662136 45.987385 4.2898145
-62.649147 45.994095 4.1524787
-62.636261 45.999607 4.0149908
-62.623489 46.003914 3.8773627
-62.612907 45.987144 3.7404978
-62.600368 45.989048 3.602793
-62.58794 45.989746 3.4649787
-62.574562 45.999157 3.3263586
-62.563423 45.987522 3.1890647
-62.551338 45.984592 3.0509861
-62.538284 45.990345 2.9118733
-62.525333 45.994862 2.7725317
-62.513588 45.988274 2.6341116
-62.500854 45.99033 2.4944308
-62.488228 45.991142 2.3545535
-62.484653 45.912006 2.2256796
-62.47567 45.880959 2.0905848
-64.687828 46.479473 26.861097
-64.655174 46.637447 26.672037
-64.449982 46.381134 24.100613
-64.419746 46.448128 23.837759
-64.389549 46.45998 23.514219
-64.359818 46.447819 23.169214
-64.33065 46.411076 22.803307
-64.302216 46.409218 22.48414
-64.274376 46.355907 22.114609
-64.247177 46.324593 21.776684
-64.220497 46.316067 21.469721
-64.194359 46.303425 21.164192
-64.168762 46.28669 20.860144
-64.143761 46.258846 20.550531
-64.118736 46.283695 20.298897
-64.094872 46.240871 19.98527
-64.071205 46.222729 19.701202
-64.047707 46.222725 19.439146
-64.024895 46.204685 19.16465
-64.002693 46.175686 18.884859
-63.980125 46.187805 18.646599
-63.958401 46.174435 18.389423
-63.936779 46.172951 18.146584
-63.915375 46.17609 17.911261
-63.894531 46.168655 17.670504
-63.873482 46.181473 17.449852
-63.852974 46.183861 17.223696
-63.833271 46.167828 16.986076
-63.813255 46.172581 16.768049
-63.793327 46.182709 16.556921
-63.773972 46.182365 16.340542
-63.75576 46.155293 16.107317
-63.735699 46.19025 15.922201
-63.717323 46.182396 15.708467
-63.699593 46.16383 15.490011
-63.680328 46.192219 15.3065
-63.663578 46.160484 15.084391
-63.645523 46.167866 14.891071
-63.627743 46.173096 14.698408
-63.610233 46.176182 14.506422
-63.592999 46.177135 14.315137
-63.576042 46.175972 14.124576
-63.559361 46.172707 13.93476
-63.542553 46.175972 13.750757
-63.526829 46.159912 13.557456
-63.509274 46.185253 13.389589
-63.494099 46.165119 13.197857
-63.477879 46.169243 13.021358
-63.461433 46.18034 12.850095
-63.446617 46.163044 12.6655
-63.431118 46.161572 12.490845
-63.415367 46.167225 12.32125
-63.39983 46.171131 12.152145
-63.384514 46.173309 11.983547
-63.369938 46.1647 11.811275
-63.354538 46.172497 11.647943
-63.340424 46.160397 11.476931
-63.325436 46.164864 11.314576
-63.310654 46.167717 11.152655
-63.296066 46.168961 10.991182
-63.28286 46.150074 10.822736
-63.267502 46.166653 10.669651
-63.252914 46.172447 10.513181
-63.239128 46.16737 10.353582
-63.224285 46.179497 10.201303
-63.211525 46.161938 10.039297
-63.196388 46.180542 9.8909397
-63.18272 46.178829 9.7363615
-63.168564 46.185135 9.5852718
-63.154572 46.190018 9.4344521
-63.142818 46.164852 9.2752132
-63.127792 46.185978 9.1308575
-63.11573 46.167423 8.975543
-63.103874 46.147381 8.8208857
-63.089314 46.16441 8.677166
-63.075623 46.170483 8.5309782
-63.062828 46.165539 8.3825855
-63.050201 46.159225 8.2345667
-63.036983 46.161263 8.0891657
-63.02314 46.171715 7.9461393
-63.011002 46.161373 7.799067
-62.996651 46.178997 7.6583419
-62.98563 46.156227 7.5099864
-62.971554 46.171299 7.3694654
-62.959236 46.165493 7.2254558
-62.947079 46.158394 7.0817485
-62.940121 46.090942 6.9290752
-62.938519 45.962914 6.7689948
-62.923561 45.991219 6.6333094
-62.906082 46.047985 6.5011501
-62.892147 46.064075 6.3633356
-62.880085 46.059166 6.2231436
-62.869061 46.043114 6.0821314
-62.860897 45.996063 5.9386849
-62.850216 45.977493 5.7987313
-62.836941 45.987469 5.6615038
-62.823776 45.996246 5.5241828
-62.809788 46.013763 5.3873763
-62.799671 45.990322 5.2482858
-62.786858 45.995499 5.1109233
-62.773205 46.009422 4.973845
-62.763519 45.982353 4.835557
-62.750095 45.993881 4.6984091
-62.736774 46.004211 4.5610671
-62.726528 45.983494 4.4235778
-62.713436 45.991428 4.2861419
-62.700451 45.998161 4.1485434
-62.688583 45.993748 4.0110664
-62.676838 45.988136 3.8736222
-62.664188 45.991261 3.735775
-62.652683 45.98325 3.598341
-62.640259 45.983967 3.4603515
-62.6269 45.993393 3.3215566
-62.615749 45.98177 3.1840866
-62.6026 45.988754 3.0449529
-62.58955 45.994511 2.9055791
-62.578762 45.979259 2.7680821
-62.565929 45.982563 2.6284342
-62.552116 45.994492 2.4873533
-62.542786 45.96574 2.351151
-62.538017 45.896461 2.2208717
-62.527893 45.875252 2.0842025
-64.744301 46.4618 26.861105
-64.711517 46.607983 26.655867
-64.505783 46.36367 24.100315
-64.475769 46.449936 23.860426
-64.445389 46.449078 23.521425
-64.415749 46.469711 23.214138
-64.386452 46.446598 22.862864
-64.357941 46.48531 22.587889
-64.329811 46.453125 22.239681
-64.302338 46.402527 21.878714
-64.27552 46.360615 21.534494
-64.24926 46.334721 21.213945
-64.223534 46.311466 20.902269
-64.198212 46.305164 20.613525
-64.173386 46.295059 20.326111
-64.149124 46.27401 20.0331
-64.125122 46.270779 19.762362
-64.101669 46.256767 19.485989
-64.078583 46.246517 19.217777
-64.056068 46.225418 18.944139
-64.033768 46.215702 18.685272
-64.012054 46.195187 18.421061
-63.990475 46.186443 18.171307
-63.969315 46.174572 17.922741
-63.948391 46.167282 17.681791
-63.92786 46.157013 17.441965
-63.906506 46.190571 17.240841
-63.887341 46.151176 16.984388
-63.866611 46.179676 16.78466
-63.846615 46.189995 16.573257
-63.827919 46.165813 16.338655
-63.80859 46.171005 16.129023
-63.789837 46.165653 15.914336
-63.77029 46.190418 15.723697
-63.752457 46.172028 15.504965
-63.734371 46.167564 15.298645
-63.716282 46.169029 15.098778
-63.697834 46.18494 14.910657
-63.680645 46.173584 14.706805
-63.663425 46.168343 14.509262
-63.645782 46.177864 14.323099
-63.628757 46.176819 14.132319
-63.611626 46.182251 13.947402
-63.595142 46.177048 13.75806
-63.57893 46.169765 13.569507
-63.56258 46.169128 13.386658
-63.546486 46.166523 13.20449
-63.530209 46.170753 13.027764
-63.514168 46.173119 12.851608
-63.49836 46.173634 12.67604
-63.483727 46.154476 12.492059
-63.468414 46.151237 12.317879
-63.451862 46.173145 12.157406
-63.437492 46.157364 11.980024
-63.421844 46.166901 11.816072
-63.405872 46.183887 11.656622
-63.392204 46.162777 11.481258
-63.377171 46.167336 11.318666
-63.362885 46.161072 11.152628
-63.347691 46.171597 10.994797
-63.333252 46.171322 10.833551
-63.319008 46.169453 10.672787
-63.304371 46.175323 10.516075
-63.290524 46.170319 10.356236
-63.277493 46.154362 10.193531
-63.263428 46.155617 10.038156
-63.249546 46.15538 9.883173
-63.234554 46.172592 9.7348928
-63.221676 46.159946 9.5775089
-63.207668 46.164814 9.4266911
-63.193825 46.16827 9.2761555
-63.180149 46.170315 9.1259174
-63.166637 46.170956 8.9759893
-63.153996 46.160583 8.8237362
-63.140827 46.158413 8.674551
-63.127827 46.154854 8.5257149
-63.113522 46.169277 8.3820343
-63.100838 46.16301 8.2337666
-63.087566 46.165089 8.0881128
-63.074451 46.165844 7.9426899
-63.062256 46.155525 7.7954521
-63.04945 46.153625 7.6506109
-63.036007 46.160206 7.5079236
-63.023499 46.155704 7.3635421
-63.011147 46.149902 7.2194505
-62.998127 46.152634 7.0772915
-62.992699 46.065495 6.9213729
-62.989239 45.957153 6.7642365
-62.975967 45.965733 6.6256304
-62.955978 46.052132 6.4973221
-62.943741 46.048462 6.3568473
-62.930767 46.053448 6.2176862
-62.918804 46.047306 6.0775342
-62.911423 45.990345 5.932898
-62.897987 46.001541 5.795341
-62.887379 45.98175 5.6553769
-62.875103 45.980591 5.5172019
-62.861107 45.998104 5.3803072
-62.849998 45.984592 5.2416444
-62.837154 45.989765 5.1041093
-62.823479 46.003681 4.9668574
-62.812767 45.986549 4.82865
-62.799313 45.99807 4.6912408
-62.787903 45.988487 4.5534921
-62.774666 45.997608 4.4158812
-62.762516 45.995575 4.2781987
-62.751484 45.982395 4.1407156
-62.738579 45.987907 4.0028801
-62.726791 45.982277 3.8652656
-62.714108 45.985382 3.7272463
-62.701534 45.987278 3.5891075
-62.689068 45.987965 3.4508595
-62.676712 45.987438 3.3125134
-62.664471 45.985703 3.1740794
-62.652336 45.982746 3.0355685
-62.641376 45.968681 2.8979595
-62.62735 45.983074 2.7573032
-62.615555 45.97646 2.6185389
-62.604958 45.958755 2.4809678
-62.592316 45.959564 2.3409183
-62.587429 45.890236 2.2104819
-62.576149 45.878811 2.0721614
-64.806999 46.457657 26.863716
-64.773834 46.586105 26.634171
-64.567253 46.365654 24.110058
-64.537216 46.45203 23.869968
-64.506798 46.46418 23.546047
-64.476814 46.458839 23.208235
-64.447456 46.455467 22.879438
-64.4189 46.507675 22.61912
-64.390968 46.671127 22.484875
-64.362877 46.581787 22.077911
-64.335587 46.507233 21.695654
-64.309013 46.441139 21.330425
-64.283066 46.390911 20.989082
-64.257629 46.35714 20.671137
-64.232567 46.347527 20.383125
-64.208122 46.319782 20.082548
-64.183914 46.316975 19.811258
-64.16024 46.303379 19.534336
-64.137131 46.278843 19.25201
-64.114189 46.27285 18.991375
-64.091927 46.248611 18.718641
-64.069603 46.250954 18.473749
-64.048103 46.227509 18.210314
-64.026901 46.208344 17.954781
-64.005791 46.201336 17.713377
-63.985439 46.175858 17.460453
-63.96476 46.178402 17.233969
-63.944832 46.16251 16.996035
-63.924656 46.167419 16.777674
-63.904808 46.169739 16.560156
-63.885052 46.177505 16.349489
-63.866096 46.166687 16.127764
-63.847237 46.161343 15.912947
-63.828167 46.169807 15.710624
-63.809387 46.175961 15.509
-63.791477 46.163292 15.296849
-63.772987 46.17308 15.102398
-63.755085 46.17234 14.903095
-63.737473 46.16935 14.704592
-63.72015 46.164116 14.506912
-63.703121 46.156658 14.31008
-63.685665 46.164074 14.124495
-63.668091 46.178059 13.94462
-63.651505 46.172863 13.755137
-63.635979 46.148243 13.556517
-63.618755 46.164955 13.383451
-63.602154 46.171112 13.20595
-63.585781 46.175392 13.028999
-63.571384 46.142456 12.833981
-63.553741 46.178364 12.676824
-63.538982 46.159245 12.492627
-63.523567 46.156044 12.318221
-63.507431 46.16901 12.153159
-63.491978 46.171284 11.984177
-63.476234 46.180893 11.819911
-63.462223 46.161556 11.643688
-63.447422 46.158642 11.476409
-63.432842 46.15403 11.309707
-63.417934 46.156933 11.147471
-63.402122 46.176697 10.993275
-63.388153 46.167179 10.828079
-63.374401 46.156006 10.663527
-63.359119 46.171169 10.510287
-63.345184 46.166161 10.350294
-63.331448 46.15958 10.190828
-63.317299 46.160854 10.035212
-63.303329 46.160633 9.8799877
-63.288906 46.168396 9.7283144
-63.274647 46.174728 9.5768976
-63.261204 46.170116 9.4227734
-63.24794 46.164032 9.2690983
-63.234188 46.166065 9.1186981
-63.220604 46.166691 8.9686079
-63.207874 46.156296 8.8161964
-63.194626 46.154106 8.6668501
-63.181545 46.150528 8.5178528
-63.167908 46.155251 8.3716097
-63.154419 46.158638 8.2255726
-63.141823 46.150974 8.0775309
-63.127892 46.16143 7.9341655
-63.116371 46.141323 7.7847152
-63.10273 46.149155 7.6417623
-63.089222 46.155704 7.4989057
-63.075848 46.16098 7.3561568
-63.064201 46.14534 7.2101054
-63.050312 46.157875 7.0694036
-63.046318 46.051003 6.9101973
-63.044312 45.922874 6.7501268
-63.027672 45.970871 6.6170778
-63.007713 46.057259 6.488472
-62.994541 46.06345 6.3489408
-62.983212 46.048615 6.2072182
-62.972034 46.03252 6.0658789
-62.964523 45.975498 5.9211898
-62.952812 45.966797 5.7818456
-62.937668 45.99659 5.6457973
-62.926205 45.985462 5.5066047
-62.913975 45.983051 5.3682671
-62.900032 45.999317 5.2310367
-62.888969 45.984547 5.0923243
-62.87524 45.998417 4.9548965
-62.863499 45.99118 4.8167706
-62.849983 46.002647 4.6790996
-62.838486 45.993004 4.5410995
-62.826153 45.992111 4.4032464
-62.814907 45.980068 4.2655015
-62.801834 45.986725 4.1275578
-62.789852 45.982227 3.989743
-62.777992 45.976528 3.8519619
-62.765247 45.979568 3.7137721
-62.752609 45.981396 3.5754633
-62.740078 45.982014 3.4370463
-62.727657 45.981415 3.2985315
-62.715343 45.979603 3.1599298
-62.703144 45.976574 3.0212517
-62.691055 45.972328 2.882508
-62.679077 45.966862 2.7437093
-62.666157 45.970051 2.6037204
-62.653336 45.972 2.4635255
-62.643841 45.943138 2.327091
-62.638813 45.873734 2.1966076
-62.626373 45.872066 2.0567207
-64.86879 46.464115 26.871134
-64.835655 46.592644 26.641354
-64.627411 46.352768 24.093349
-64.597305 46.432587 23.845541
-64.566933 46.457436 23.536903
-64.536926 46.46505 23.214161
-64.507462 46.468281 22.892708
-64.47879 46.513912 22.624687
-64.451012 46.690979 22.504929
-64.368088 46.544384 21.43627
-64.341621 46.543957 21.143972
-64.316017 46.455009 20.767916
-64.290733 46.431953 20.46489
-64.266151 46.383335 20.14259
-64.241974 46.352062 19.843025
-64.217949 46.353302 19.579353
-64.194611 46.329117 19.296482
-64.171463 46.323486 19.035284
-64.149185 46.284649 18.748707
-64.126816 46.279709 18.496786
-64.105125 46.256435 18.232983
-64.083008 46.27565 18.009319
-64.062157 46.246014 17.748049
-64.041588 46.22081 17.494617
-64.021271 46.200226 17.248856
-64.000801 46.200172 17.022959
-63.980877 46.189491 16.791901
-63.961533 46.168045 16.555916
-63.94191 46.167767 16.339138
-63.922379 46.172997 16.129166
-63.903397 46.167671 15.914149
-63.885006 46.151649 15.694326
-63.865616 46.174114 15.504087
-63.847591 46.161411 15.29181
-63.829605 46.154545 15.086118
-63.811321 46.162045 14.892299
-63.793934 46.150562 14.688328
-63.775558 46.17057 14.506647
-63.758747 46.154625 14.304349
-63.741558 46.153469 14.113435
-63.723564 46.175976 13.93859
-63.707619 46.153484 13.738902
-63.690468 46.163441 13.560135
-63.672764 46.188938 13.391642
-63.656853 46.17767 13.204152
-63.639977 46.190762 13.031705
-63.62458 46.175545 12.845715
-63.608589 46.176071 12.669772
-63.594166 46.147991 12.480941
-63.578217 46.153683 12.310886
-63.562943 46.148628 12.136979
-63.546951 46.159828 11.972264
-63.531151 46.169376 11.807919
-63.516041 46.168167 11.63985
-63.502163 46.146976 11.464286
-63.485424 46.178986 11.313303
-63.47147 46.16354 11.142936
-63.456669 46.164829 10.980914
-63.440964 46.183052 10.826772
-63.427658 46.162598 10.658282
-63.414021 46.149761 10.49416
-63.397694 46.182102 10.34803
-63.384441 46.166145 10.184865
-63.370804 46.15799 10.025706
-63.356754 46.157726 9.8703241
-63.342266 46.165447 9.7184849
-63.328568 46.162239 9.5638504
-63.314407 46.16708 9.4126215
-63.300411 46.170502 9.2616777
-63.287899 46.153358 9.105422
-63.273575 46.163513 8.9579735
-63.260757 46.153069 8.8054075
-63.246052 46.170116 8.661005
-63.232872 46.166531 8.5116787
-63.220566 46.151875 8.3603306
-63.207008 46.155209 8.2141275
-63.195053 46.137768 8.0637112
-63.180332 46.15789 7.922389
-63.167217 46.157246 7.7768788
-63.154255 46.155277 7.6316242
-63.141438 46.151997 7.4866366
-63.127224 46.167019 7.3455081
-63.114693 46.161152 7.2009196
-63.103107 46.144146 7.0550151
-63.098118 46.047024 6.8973351
-63.094257 45.93853 6.7400813
-63.078407 45.97662 6.605298
-63.061798 46.023438 6.4712796
-63.046909 46.04932 6.3342113
-63.0355 46.034401 6.1924176
-63.023388 46.028137 6.0520229
-63.013145 46.000793 5.9099927
-63.002201 45.982109 5.7693839
-62.989651 45.982052 5.6307049
-62.977222 45.980774 5.4921074
