# .PCD v0.7 - Point Cloud Data file format
VERSION 0.7
FIELDS x y z
SIZE 4 4 4
TYPE F F F
COUNT 1 1 1
WIDTH 1560
HEIGHT 1
VIEWPOINT 0 0 0 1 0 0 0
POINTS 1560
DATA ascii
-68.134567 46.399471 10.869225
-68.113976 46.432308 10.449361
-68.103401 46.403049 10.019581
-68.082504 46.438206 9.6019373
-68.070099 46.42091 9.1767921
-68.05677 46.409634 8.7538862
-68.039322 46.423996 8.3356266
-68.033638 46.366142 7.9089746
-68.012672 46.402561 7.4952078
-67.998695 46.396152 7.0769753
-67.970222 46.296074 5.8205428
-67.960396 46.265266 5.4042568
-67.878571 46.221909 2.9283137
-68.99971 46.815411 30.707861
-68.980186 46.810894 30.144268
-68.872871 46.744709 26.857759
-68.854332 46.742752 26.332989
-68.524017 46.521938 16.137848
-68.494469 46.505219 15.239465
-68.480774 46.49062 14.792024
-68.461929 46.510151 14.355855
-68.448166 46.496971 13.912982
-68.436584 46.470123 13.468892
-68.402122 46.491039 12.604321
-68.389626 46.471516 12.167761
-68.360626 46.459431 11.305666
-68.345596 46.457317 10.877687
-68.331215 46.451397 10.450408
-68.319 46.431934 10.022202
-68.265862 46.384689 8.3283453
-68.249115 46.395416 7.9107308
-68.223671 46.36668 7.0720482
-68.205612 46.386131 6.6575546
-68.178635 46.275223 5.4035525
-68.099922 46.212444 2.9272351
-68.073067 46.195961 2.1046841
-68.060509 46.182404 1.6936485
-69.225937 46.797451 30.690088
-69.103745 46.691071 26.823095
-68.334839 46.215218 3.3361807
-69.452209 46.793983 30.685524
-69.433739 46.780884 30.117153
-69.326836 46.705387 26.828325
-69.305855 46.720974 26.313116
-68.627289 46.234077 5.3977447
-69.684258 46.747223 30.654661
-69.660263 46.776649 30.11215
-69.533112 46.708141 26.304108
-68.851761 46.221958 5.3964529
-69.904289 46.769241 30.661943
-69.07428 46.219246 5.3926992
-70.131714 46.723557 30.625582
-70.025467 46.629841 27.299067
-69.998589 46.69463 26.806068
-69.29847 46.205894 5.385829
-70.356873 46.719631 30.615181
-70.251564 46.617035 27.284422
-70.228142 46.655392 26.777704
-69.525002 46.191864 5.3791537
-70.456352 46.615158 26.749447
-70.636086 46.378708 18.316113
-70.622429 46.355881 17.849934
-70.606201 46.356907 17.394642
-70.553391 46.40089 16.055758
-70.487 46.298458 13.819057
-70.461349 46.387199 13.405236
-70.101334 46.176365 2.4841118
-70.800888 46.329777 16.473064
-70.779167 46.384598 16.041414
-70.726799 46.29538 14.24606
-70.709732 46.310825 13.812817
-70.696388 46.293335 13.373191
-70.681412 46.291168 12.93924
-70.67128 46.246246 12.497494
-70.654053 46.265282 12.071905
-70.638397 46.270767 11.644752
-70.622116 46.282169 11.220144
-70.607414 46.28001 10.794212
-70.594315 46.264252 10.367247
-70.579468 46.264263 9.9445
-70.566208 46.250702 9.5207891
-70.550064 46.26284 9.1023302
-71.044777 46.312321 16.904108
-71.027878 46.323597 16.457422
-70.927002 46.25771 13.351123
-70.909004 46.284489 12.924257
-70.899818 46.229778 12.48044
-70.880676 46.2682 12.059171
-70.867241 46.254166 11.628025
-70.852173 46.255749 11.201675
-70.838631 46.243729 10.774176
-70.823425 46.247444 10.351027
-70.807602 46.257195 9.9301004
-70.793304 46.253391 9.5080404
-70.779457 46.245842 9.0866184
-70.766068 46.23455 8.6658678
-70.750954 46.239235 8.2484331
-70.740662 46.20079 7.8265147
-70.723137 46.227722 7.413641
-70.70713 46.241169 6.9996595
-70.695976 46.21143 6.581986
-70.683052 46.197815 6.1669269
-71.289246 46.307892 17.345068
-71.274796 46.294907 16.888416
-71.258011 46.306126 16.441895
-71.200706 46.261402 14.65232
-71.172623 46.238167 13.771051
-71.153366 46.278488 13.346099
-71.141518 46.24715 12.905573
-71.126152 46.250595 12.475078
-71.110245 46.259869 12.047398
-71.095795 46.255547 11.618329
-71.086891 46.198528 11.180541
-71.067253 46.245075 10.764478
-71.055199 46.219395 10.336123
-71.04052 46.219284 9.9138012
-71.0242 46.235062 9.4952097
-71.013512 46.19796 9.0695305
-70.994926 46.235828 8.6561613
-70.986176 46.181351 8.2309027
-70.966316 46.231636 7.8204622
-70.954239 46.209198 7.4016695
-70.938354 46.222622 6.9878569
-70.927132 46.192837 6.5703607
-70.912079 46.198997 6.1572156
-71.518951 46.307346 17.339258
-71.444191 46.276005 15.091425
-71.430336 46.260952 14.64651
-71.401253 46.247402 13.767659
-71.373077 46.227375 12.895269
-71.358719 46.221088 12.462783
-71.341927 46.240067 12.037433
-71.326515 46.245476 11.610525
-71.314468 46.217743 11.178543
-71.297974 46.235008 10.756845
-71.286819 46.19952 10.326845
-71.269203 46.22884 9.9096365
-71.257935 46.195518 9.4831495
-71.241135 46.217407 9.0666695
-71.225739 46.22578 8.6489563
-71.21476 46.191013 8.2263947
-71.199173 46.201855 7.8109975
-71.185005 46.199162 7.3947253
-71.75193 46.29755 17.327589
-71.730469 46.360535 16.895037
-71.676147 46.275623 15.082848
-71.636665 46.208332 13.749432
-71.620514 46.219593 13.317733
-71.602959 46.24633 12.891191
-71.591309 46.210903 12.452057
-71.578285 46.19091 12.018493
-71.561989 46.205982 11.594001
-71.547966 46.197708 11.166172
-71.535301 46.175781 10.737372
-71.518364 46.199005 10.318285
-71.502762 46.208694 9.8977795
-71.487556 46.214649 9.4777098
-71.461205 46.185814 8.6348438
-71.446236 46.190449 8.2178364
-71.432625 46.18153 7.8000102
-71.419411 46.168922 7.3827839
-71.391243 46.162399 6.5531273
-71.376266 46.168552 6.1402407
-71.251312 45.992676 2.0281417
-71.88311 46.221695 14.176614
-71.853874 46.209446 13.302763
-71.839027 46.207012 12.869575
-71.82547 46.190895 12.435104
-71.810585 46.190292 12.00586
-71.795212 46.195568 11.579379
-71.781136 46.187222 11.151639
-71.767456 46.175018 10.724747
-71.74881 46.217823 10.309112
-71.735916 46.198029 9.8835039
-71.724342 46.164577 9.4572906
-71.695114 46.165096 8.6194506
-71.679237 46.179539 8.2039137
-71.664642 46.180443 7.7873883
-71.650421 46.177673 7.3712912
-71.496407 45.990761 2.4243486
-71.469238 45.977467 1.6069087
-72.651375 46.576912 30.430597
-72.631073 46.588333 29.879675
-72.599976 46.489079 28.724751
-72.526283 46.479752 26.589413
-72.48896 46.494797 25.560682
-72.472153 46.480869 25.042315
-72.248306 46.328758 18.225447
-72.148384 46.207077 15.038552
-72.129463 46.2495 14.609707
-72.114967 46.239796 14.168617
-72.097626 46.264683 13.738266
-72.08477 46.237213 13.296758
-72.071518 46.215359 12.858838
-72.052872 46.257584 12.437214
-72.026711 46.213577 11.570376
-72.01255 46.205212 11.142468
-71.997932 46.202782 10.717222
-71.98455 46.186718 10.29096
-71.968987 46.196304 9.8705378
-71.955505 46.182472 9.447444
-71.940674 46.184566 9.028101
-71.927071 46.173077 8.6078787
-71.913849 46.157852 8.1883669
-71.898361 46.168571 7.7732244
-71.870201 46.159256 6.9416695
-71.855766 46.159027 6.5275664
-71.838722 46.02853 5.6911511
-71.824486 46.02729 5.2799358
-71.742622 45.984447 2.8201973
-72.913956 46.502148 30.948963
-72.891922 46.536469 30.406889
-72.760468 46.518101 26.609314
-72.057037 46.023014 5.2769341
-71.976425 45.960445 2.8168802
-71.962669 45.954128 2.4082401
-71.934357 45.950756 1.5912371
-73.128418 46.548653 30.429354
-73.022629 46.414825 27.093739
-72.999977 46.479187 26.602543
-72.178452 45.98901 2.0067348
-72.167763 45.945812 1.598268
-73.361038 46.531635 30.440315
-73.254341 46.407928 27.109335
-73.233093 46.454842 26.608854
-73.215042 46.452156 26.086784
-72.525284 45.980175 5.2925606
-72.402016 45.910431 1.609172
-73.588051 46.501808 30.437057
-73.458031 46.47007 26.629662
-72.754265 45.966446 5.2985024
-73.833015 46.458458 30.982483
-73.812653 46.476479 30.430063
-72.950607 45.99268 4.4829946
-74.042961 46.493767 30.456627
-73.935837 46.38184 27.130241
-73.915886 46.420437 26.625084
-73.897194 46.436035 26.112078
-73.212936 45.955009 5.3076344
-73.182259 45.992935 4.4893475
-74.280663 46.42416 30.432261
-74.150703 46.412189 26.636209
-74.133247 46.401272 26.109516
-73.460434 45.934464 5.7241817
-73.445732 45.943977 5.3140926
-73.415215 45.982155 4.4958115
-73.323662 45.868607 1.6314965
-74.236778 46.230743 22.030579
-73.67852 45.93235 5.3154049
-73.648163 45.970688 4.4971256
-74.187538 46.159657 13.76777
-74.172485 46.162205 13.3334
-73.910309 45.910324 5.3104835
-73.864639 45.977524 4.0838046
-73.823753 45.952705 2.854682
-73.80999 45.947269 2.4455926
-73.798538 45.898319 2.0366497
-74.350418 46.002316 11.573849
-74.321365 46.002865 10.724545
-74.30632 46.017078 10.304408
-74.140724 45.907455 5.3042674
-74.579529 46.017345 11.574992
-74.536385 46.012646 10.301308
-74.522385 46.003433 9.87819
-74.480392 45.982735 8.617815
-74.437317 45.997875 7.3717108
-74.42424 45.972397 6.9546742
-74.409744 45.983006 6.5422974
-74.395409 45.989994 6.1300983
-74.370956 45.903419 5.3001146
-75.045174 46.207314 18.711346
-74.88327 46.01984 13.727795
-74.854431 46.001198 12.857087
-74.797142 45.974892 11.139933
-74.782463 45.983131 10.717433
-74.767296 46.007263 10.298937
-74.753281 45.998096 9.8757334
-74.739449 45.985126 9.45331
-74.72477 45.99802 9.0361195
-74.711617 45.967621 8.6137114
-74.696922 45.982983 8.1988602
-74.683083 45.974838 7.7818031
-74.668694 45.982857 7.3676028
-74.654823 45.97728 6.9526491
-74.640747 45.977993 6.5391426
-74.627556 45.955151 6.1242537
-74.602791 45.868595 5.2946229
-75.084869 46.005184 12.853432
-75.012505 45.997082 10.714743
-74.998581 45.981876 10.289064
-74.983665 46.002266 9.8708811
-74.969765 45.989315 9.448287
-74.956024 45.972572 9.0265074
-74.942146 45.961948 8.6069613
-74.927513 45.977314 8.1920204
-74.913933 45.959251 7.7736659
-74.899582 45.967262 7.3594642
-74.885689 45.961681 6.9445114
-74.872566 45.932537 6.5281482
-74.858322 45.939533 6.1161199
-74.833176 45.852947 5.2865033
-74.751022 45.815742 2.8292987
-75.33062 45.981472 13.272151
-75.315758 45.989578 12.841786
-75.300812 46.003521 12.414285
-75.243607 45.971455 10.701285
-75.229134 45.975887 10.279152
-75.215042 45.966671 9.8559523
-75.199844 46.003029 9.4413109
-75.186783 45.956619 9.0148678
-75.172348 45.965755 8.5980902
-75.158554 45.951374 8.1790838
-75.144379 45.953106 7.7632399
-75.130859 45.931293 7.3455791
-75.115868 45.965424 6.934948
-75.102882 45.926304 6.5174675
-75.0895 45.9034 6.1027613
-75.063141 45.846615 5.2755809
-75.604134 45.985115 14.57191
-75.545242 45.973404 12.828519
-75.53054 45.977528 12.398861
-75.47245 45.984509 10.693454
-75.45919 45.929848 10.260712
-75.444466 45.950123 9.8426886
-75.429848 45.966679 9.4249325
-75.416176 45.939964 9.0016079
-75.402634 45.909447 8.5793056
-75.387505 45.954445 8.1684113
-75.373772 45.936298 7.7499795
-75.359276 45.95417 7.3368073
-75.345779 45.928627 6.9196157
-75.331726 45.929245 6.5061083
-75.318932 45.876419 6.0886531
-75.863205 46.011253 15.456614
-75.848267 46.000954 15.011182
-75.833221 46.005795 14.572095
-75.81855 45.987194 14.128929
-75.804008 45.964447 13.687037
-75.789337 45.957031 13.251101
-75.716339 45.958115 11.106285
-75.701614 45.976154 10.685159
-75.687614 45.951023 10.257512
-75.673889 45.912151 9.8293209
-75.659164 45.938538 9.4132843
-75.644684 45.951344 8.9959106
-75.630966 45.920834 8.5733566
-75.617035 45.906361 8.1544437
-75.603027 45.898083 7.7374816
-75.588768 45.905975 7.3233614
-75.574051 45.940048 6.9126277
-75.560699 45.900852 6.49508
-75.546715 45.897797 6.082015
-75.97538 45.800613 5.2391005
-75.918739 45.833042 3.5999885
-75.904793 45.824699 3.1901948
-75.891144 45.792778 2.780345
-75.877571 45.757275 2.3711362
-75.863548 45.758194 1.9625363
-76.202293 45.788929 5.231811
-77.770508 46.251339 30.96031
-76.851967 45.76577 4.4021339
-76.767059 45.745548 1.9433231
-77.078346 45.789452 4.409687
-77.910446 45.933308 15.466413
-77.896027 45.962238 15.030342
-78.046669 45.911678 12.826643
-78.000282 45.835938 11.518795
-77.985748 45.838676 11.09226
-77.970879 45.827728 10.664606
-77.942337 45.843548 9.8201389
-77.927299 45.821098 9.3948193
-77.913536 45.844269 8.9777746
-77.812233 45.783855 6.0546017
-78.2593 45.877529 12.386321
-78.05378 45.787254 6.4649024
-78.48896 45.866772 12.384031
-78.81118 45.873402 15.006898
-79.749649 45.666882 8.9047499
-79.673782 45.647392 6.8110905
-64.257202 46.64724 9.1647568
-64.813942 46.697933 12.960335
-64.270844 46.588997 7.1174645
-64.509148 46.577892 8.0633764
-64.421288 46.59774 7.1401463
-64.503235 46.585209 7.456665
-64.475288 46.566849 7.1460385
-64.731621 46.598484 9.3746319
-64.329948 46.563644 5.0439334
-64.315697 46.568565 4.894331
-64.301521 46.572178 4.7446837
-64.291603 46.504616 4.5938201
-64.383881 46.564163 5.0525966
-64.370232 46.559238 4.9023833
-64.355515 46.57296 4.7528224
-64.342033 46.565411 4.6027021
-64.314743 46.556351 4.302927
-64.276016 46.507999 3.8545895
-64.263733 46.482632 3.7058899
-64.25029 46.47591 3.5567183
-64.235634 46.487816 3.4065647
-64.222336 46.478477 3.2573438
-64.437645 46.545326 5.0525122
-64.423424 46.550434 4.9025621
-64.408714 46.564213 4.75283
-64.395782 46.546734 4.602356
-64.366707 46.56773 4.3024168
-64.285431 46.529335 3.4024003
-64.273361 46.500088 3.253777
-64.260757 46.479507 3.1048896
-64.685417 46.544136 7.1755686
-64.487221 46.546677 5.0493469
-64.472389 46.561787 4.8994927
-64.459274 46.545643 4.7486238
-64.445702 46.538162 4.5982456
-64.430511 46.559315 4.4482908
-64.418243 46.529236 4.2979555
-64.540283 46.51815 5.044405
-64.525955 46.523293 4.8942037
-64.511154 46.537102 4.7442212
-64.496407 46.549599 4.5940294
-64.482277 46.550797 4.4435501
-64.469345 46.530712 4.2930503
-64.551147 46.481281 4.5866694
-64.536469 46.492458 4.4366298
-64.521301 46.512306 4.286407
-64.64814 46.462189 3.979738
-64.633736 46.468201 3.8287628
-64.619385 46.472893 3.6776474
-64.606209 46.456306 3.5272579
-64.793503 46.553318 5.0484457
-64.77961 46.548771 4.8963184
-64.765793 46.542885 4.7443171
-64.755005 46.475754 4.5913281
-64.727371 46.467319 4.289114
-64.685699 46.459732 3.8360896
-64.671402 46.464539 3.6847978
-64.657715 46.458042 3.5337968
-64.643547 46.460197 3.3823442
-64.62999 46.451054 3.2313797
-64.614807 46.47047 3.0784512
-64.845917 46.544495 5.0495377
-64.832031 46.540005 4.897233
-64.817749 46.544167 4.7453308
-64.804489 46.527023 4.5930119
-64.789856 46.538509 4.4413242
-64.776764 46.518703 4.2894011
-64.738083 46.451344 3.8357491
-64.710121 46.449749 3.5331037
-64.696503 46.441978 3.3819807
-64.682411 46.442848 3.2303329
-64.667259 46.462311 3.0772328
-64.895874 46.516285 5.0410261
-64.880112 46.551701 4.8901725
-64.866661 46.535873 4.7373786
-64.852371 46.538681 4.5852699
-64.824944 46.520329 4.2809625
-64.79985 46.456707 3.9779825
-64.743042 46.463345 3.3710124
-64.729927 46.444229 3.220124
-64.715805 46.443726 3.0681262
-64.95713 46.47179 5.1769347
-64.939491 46.548359 5.0282454
-64.925797 46.533791 4.8750863
-64.911293 46.537846 4.7227635
-64.897308 46.530582 4.5702233
-64.8834 46.521984 4.4178333
-64.869576 46.512051 4.265604
-64.843643 46.458237 3.9621735
-64.825562 46.53418 3.8084805
-64.755417 46.504414 3.0467141
-65.002502 46.47377 5.1635394
-64.986046 46.520329 5.0132494
-64.971336 46.525642 4.8608093
-64.956238 46.539604 4.7085853
-64.943001 46.512287 4.55545
-64.928947 46.503601 4.4029899
-64.91497 46.493584 4.2506919
-64.886284 46.489529 3.9462836
-64.813614 46.495953 3.1834435
-64.798607 46.505169 3.0298245
-65.047821 46.484905 5.1566548
-65.032158 46.51149 5.0051436
-65.017815 46.506802 4.8521862
-65.00267 46.520744 4.6998763
-64.988457 46.513374 4.5470109
-64.974327 46.504665 4.3942966
-64.961197 46.474644 4.241745
-64.932388 46.470535 3.9371727
-64.91613 46.50642 3.7838714
-64.900864 46.520981 3.6306059
-64.887146 46.504261 3.4783437
-64.871971 46.516132 3.3247492
-64.857361 46.516682 3.1714857
-64.845436 46.466072 3.0216045
-65.296028 46.527836 7.3278513
-65.279739 46.573242 7.1781321
-65.091621 46.485371 5.1550627
-65.076408 46.502018 5.0028563
-65.061234 46.51733 4.8504176
-65.047394 46.501347 4.6969752
-65.032761 46.503998 4.5441937
-65.018188 46.50531 4.3913889
-65.005501 46.465324 4.2385702
-64.975319 46.49123 3.9331243
-64.960518 46.497177 3.7801695
-64.94577 46.501781 3.6270757
-64.931068 46.505039 3.4738545
-64.91642 46.506954 3.3205183
-64.903366 46.477612 3.1688998
-64.890923 46.436996 3.0184035
-65.138588 46.455639 5.1541328
-65.122635 46.492298 5.0027981
-65.108757 46.477711 4.8491335
-65.093277 46.501724 4.6968222
-65.077827 46.524406 4.5441284
-65.064148 46.505791 4.3907051
-65.052353 46.445873 4.2376065
-65.021362 46.491848 3.9316394
-65.006607 46.497837 3.7784197
-64.993332 46.472534 3.6260953
-64.97821 46.485821 3.4724381
-64.963608 46.487778 3.31901
-64.94957 46.478416 3.1660829
-64.937126 46.437832 3.0153124
-65.156433 46.438026 4.8480515
-65.140648 46.47208 4.6960912
-65.125717 46.484825 4.5432162
-65.111679 46.476246 4.3899603
-65.09903 46.436359 4.2368507
-65.068207 46.482433 3.930532
-65.053978 46.478485 3.7773886
-65.039345 46.483177 3.6239367
-65.023796 46.506481 3.4694986
-65.011185 46.468567 3.3176942
-64.996712 46.469219 3.1640682
-64.983788 46.438633 3.0124187
-65.145538 46.426949 4.2367268
-65.115372 46.463142 3.9302201
-65.100327 46.479218 3.7764733
-65.086693 46.463989 3.6234334
-65.071732 46.477367 3.469332
-65.058228 46.459457 3.3164821
-65.043839 46.460155 3.162674
-65.030968 46.429611 3.0108345
-65.138359 46.414898 3.6267638
-65.123077 46.438347 3.4724083
-65.107819 46.460426 3.3175888
-65.093513 46.461189 3.1635103
-65.080696 46.430702 3.0113885
-65.720604 46.51923 9.4743986
-65.510933 46.53841 7.2021909
-65.1315 46.401997 3.0137575
-65.360687 46.444019 5.0076818
-65.347168 46.429752 4.8530827
-65.423759 46.428246 5.1536851
-65.408211 46.475227 5.0014749
-65.39547 46.44099 4.8456244
-65.381035 46.455326 4.6917887
-65.367371 46.448338 4.5373683
-65.354156 46.43 4.382997
-65.778419 46.527458 8.6035414
-65.735031 46.491508 8.1047754
-65.46627 46.481556 5.1039701
-65.451454 46.509148 4.9502873
-65.385078 46.427071 4.1758013
-65.370895 46.436581 4.0216641
-65.354805 46.494698 3.8665433
-65.342644 46.451553 3.7129121
-65.328979 46.447025 3.5586579
-65.315376 46.441154 3.4044495
-65.301819 46.433933 3.2502983
-65.287895 46.435341 3.0956178
-65.274887 46.415459 2.9422147
-66.022591 46.52557 10.754993
-66.006935 46.537537 10.585501
-65.991432 46.529125 10.409331
-65.976006 46.528362 10.237215
-65.960693 46.525917 10.065598
-65.945427 46.531254 9.8977413
-65.930138 46.553959 9.7365751
-65.914978 46.565655 9.5723801
-65.899811 46.585346 9.4114141
-66.043289 46.507195 10.386942
-66.02774 46.515678 10.218235
-66.012245 46.531975 10.053184
-65.996948 46.518326 9.8786125
-65.981773 46.502953 9.7047386
-65.966492 46.523937 9.5438604
-65.951332 46.533886 9.3800611
-65.936325 46.532734 9.213604
-65.921249 46.549187 9.0532169
-66.032997 46.491043 9.6819239
-66.017662 46.502354 9.51789
-66.002281 46.531216 9.3600426
-65.987206 46.520355 9.1905384
-65.972244 46.507862 9.0216293
-65.957138 46.52261 8.8615112
-65.942101 46.535881 8.7015171
-65.927429 46.518688 8.5339842
-66.035042 46.477928 9.1618433
-66.019714 46.513222 9.0071201
-66.004707 46.50864 8.8413067
-65.989464 46.54108 8.6864872
-65.974792 46.514122 8.5161743
-65.960052 46.504906 8.3516169
-65.945091 46.523281 8.194705
-65.93029 46.530506 8.0355072
-65.915558 46.536278 7.876502
-66.053154 46.47097 8.8291044
-66.023499 46.466675 8.5015774
-66.008392 46.505844 8.3494959
-65.993599 46.514538 8.1899405
-65.978966 46.512043 8.0282717
-65.964081 46.537308 7.8735914
-65.949593 46.531887 7.7124057
-65.935318 46.515194 7.5495691
-65.921143 46.49699 7.3873053
-65.906479 46.516575 7.2331028
-65.684578 46.394661 4.7504578
-65.669167 46.45092 4.6010518
-66.04248 46.471897 8.193778
-66.028191 46.450031 8.0275812
-66.013596 46.465599 7.8709426
-65.998703 46.509068 7.7207303
-65.984062 46.531658 7.5659666
-65.970352 46.484241 7.3973742
-65.9561 46.484325 7.2392511
-65.941635 46.502651 7.0849643
-65.927505 46.499905 6.9271975
-65.913452 46.495735 6.7697139
-65.667061 46.393044 3.9988484
-65.651207 46.462799 3.8469963
-66.005676 46.44022 7.2519417
-65.990936 46.48822 7.1031485
-65.976761 46.495544 6.9469123
-65.962944 46.481735 6.7875295
-65.650398 46.379097 3.2537911
-65.634315 46.45229 3.098377
-66.014137 46.428589 6.7963314
-68.293083 46.758293 26.405504
-68.347435 46.742149 26.388063
-68.396622 46.746899 26.405499
-68.429817 46.72934 26.40328
-68.170677 46.684917 22.141546
-68.164505 46.654022 21.496904
-68.159637 46.666275 20.911173
-68.442139 46.69244 22.314283
-68.486526 46.685383 22.315081
-68.530632 46.686832 22.321369
-68.054893 46.531715 16.411469
-68.035233 46.517189 16.166527
-68.576988 46.670246 22.317282
-68.024986 46.48983 15.465538
-67.988106 46.469921 15.006906
-68.523865 46.660255 21.069477
-68.091995 46.527962 15.724449
-68.055473 46.530815 15.273277
-68.036972 46.519917 15.043824
-68.01857 46.50642 14.815441
-67.999557 46.473099 14.578062
-67.982086 46.471722 14.361994
-67.964005 46.45055 14.136985
-68.672813 46.659061 22.3284
-68.135208 46.495285 15.705239
-68.046753 46.543236 14.619786
-68.028778 46.533573 14.39793
-68.011246 46.53017 14.181964
-67.993111 46.506889 13.957239
-67.975761 46.498699 13.743195
-67.957832 46.470505 13.520747
-67.940346 46.448715 13.304139
-67.923286 46.433475 13.093165
-67.858635 46.431572 12.2972
-67.842575 46.42366 12.098951
-67.826584 46.413692 11.901492
-68.723053 46.668762 22.339628
-68.180885 46.481224 15.69408
-67.98793 46.51371 13.333481
-67.971039 46.507668 13.12625
-67.953903 46.490459 12.915433
-67.936867 46.470985 12.70563
-67.919312 46.431183 12.488332
-67.903374 46.434376 12.293357
-67.886917 46.417351 12.090772
-67.871399 46.425632 11.901228
-67.855652 46.422832 11.708225
-67.839973 46.418068 11.515893
-67.82489 46.429852 11.331833
-67.808807 46.402695 11.133319
-67.793335 46.392109 10.943115
-68.771439 46.663754 22.337368
-68.2257 46.475193 15.688944
-67.981941 46.518532 12.724544
-67.964523 46.487953 12.510911
-67.948128 46.482292 12.311049
-67.932106 46.483673 12.116058
-67.914688 46.437313 11.901571
-67.898819 46.434544 11.708259
-67.883018 46.42981 11.515617
-67.867012 46.413872 11.31988
-67.851875 46.423779 11.136127
-67.836266 46.413246 10.945533
-67.821228 46.419495 10.762771
-67.80574 46.405201 10.573525
-67.790337 46.389011 10.385065
-67.77523 46.380379 10.200705
-67.760193 46.36993 10.017001
-67.74543 46.367172 9.8371038
-68.267334 46.476246 15.691119
-67.956955 46.512074 11.93192
-67.940941 46.509602 11.737738
-67.924149 46.477493 11.53264
-67.907188 46.433971 11.324933
-67.891418 46.425385 11.133378
-67.875977 46.424183 10.946171
-67.860596 46.421124 10.759548
-67.845512 46.425594 10.576985
-67.830238 46.41888 10.391505
-67.815262 46.419777 10.209956
-67.800552 46.428379 10.032108
-67.785004 46.397305 9.8420916
-67.770187 46.392891 9.6622324
-67.755013 46.367645 9.4769897
-67.740311 46.359726 9.2983971
-67.725853 46.359695 9.1231756
-67.711258 46.348381 8.9456654
-67.696899 46.345024 8.7713909
-68.854675 46.648518 22.338753
-68.305977 46.467995 15.689629
-67.947006 46.481255 11.342903
-67.931442 46.482143 11.154405
-67.915405 46.462517 10.959239
-67.899193 46.431549 10.761448
-67.884079 46.436073 10.578558
-67.868523 46.419994 10.389383
-67.853043 46.402027 10.201011
-67.838326 46.410587 10.023078
-67.823196 46.39846 9.839241
-67.808777 46.413105 9.6652203
-67.793755 46.397472 9.4825325
-67.779411 46.408787 9.3091955
-67.764503 46.389683 9.1277237
-67.749474 46.3592 8.9442997
-67.73526 46.365517 8.7723169
-67.720726 46.350895 8.5955391
-67.706413 46.344284 8.4218569
-67.692154 46.336052 8.2486591
-69.217323 46.700924 26.391438
-68.886147 46.648315 22.361282
-68.339745 46.472569 15.705431
-67.919907 46.46294 10.593311
-67.904877 46.465851 10.410381
-67.889412 46.448101 10.221347
-67.873795 46.419003 10.029925
-67.859161 46.425964 9.8520002
-67.844131 46.412189 9.6683521
-67.829376 46.40617 9.488368
-67.814873 46.408001 9.3118172
-67.800804 46.427361 9.1412554
-67.786369 46.425903 8.9653654
-67.771606 46.403496 8.7846661
-67.757271 46.398693 8.6098356
-67.742981 46.392246 8.4354734
-67.728088 46.345314 8.2521095
-67.714226 46.355 8.083642
-67.700089 46.343643 7.9109459
-67.685997 46.330681 7.7387786
-69.235527 46.680054 26.41927
-67.937538 46.479679 10.430766
-67.907433 46.461681 10.059072
-67.892014 46.430962 9.8679667
-67.8769 46.407848 9.6809235
-67.862297 46.401985 9.5006742
-67.848145 46.413544 9.3267393
-67.833824 46.413876 9.1502476
-67.819542 46.412544 8.9741774
-67.804932 46.390259 8.7932873
-67.791275 46.414581 8.625905
-67.777115 46.408321 8.4511061
-67.762833 46.390709 8.2744141
-67.748764 46.381165 8.1006794
-67.734741 46.369999 7.9274578
-67.720482 46.337681 7.7505207
-67.706703 46.333057 7.5805745
-67.693359 46.356297 7.4168682
-67.679512 46.338787 7.2455883
-67.665833 46.329544 7.076674
-67.652092 46.308903 6.9064941
-68.395737 46.484741 15.768827
-68.379539 46.530334 15.56789
-67.940529 46.47543 10.08009
-67.925735 46.463932 9.894804
-67.911003 46.450623 9.7102032
-67.896332 46.435513 9.5263052
-67.881927 46.428188 9.3460112
-67.867569 46.419136 9.1662865
-67.853271 46.408367 8.9871483
-67.83902 46.395889 8.8086128
-67.825363 46.410717 8.6383419
-67.811203 46.394917 8.4608068
-67.797592 46.40657 8.2910614
-67.784004 46.416679 8.1214743
-67.770126 46.405739 7.947638
-67.756447 46.40295 7.776453
-67.742516 46.379017 7.6015568
-67.728653 46.353447 7.4273863
-67.715096 46.345898 7.2576966
-67.701584 46.3368 7.0884204
-67.688217 46.336014 6.9212708
-68.422722 46.48502 15.791201
-67.929497 46.4515 9.5413485
-67.873001 46.422192 8.8245487
-67.858772 46.398529 8.6435585
-67.845131 46.402199 8.4707699
-67.831184 46.38485 8.2935276
-67.817932 46.404751 8.1261415
-67.804382 46.403645 7.9543309
-67.790863 46.400959 7.7828755
-67.777512 46.406487 7.6138325
-67.764053 46.400677 7.4430456
-67.750877 46.412949 7.276401
-67.737236 46.38438 7.1026793
-67.723885 46.373905 6.9331284
-68.45417 46.50634 15.817567
-68.436684 46.518635 15.594554
-67.86602 46.42313 8.3037863
-67.852348 46.413967 8.1289072
-67.83857 46.393425 7.9523253
-67.825439 46.410305 7.784946
-67.812027 46.406105 7.613512
-67.798378 46.380722 7.4385481
-67.785309 46.392998 7.2718086
-67.772247 46.403786 7.1051393
-67.758965 46.393372 6.935153
-68.475006 46.516605 15.601314
-68.146828 46.488369 11.409964
-67.84967 46.416161 7.6124673
-67.835991 46.390812 7.4371676
-67.822762 46.393295 7.2682147
-67.809433 46.384415 7.0977192
-67.796257 46.383835 6.929347
-67.847794 46.414101 7.0991564
-67.834412 46.403725 6.9285779
-68.55407 46.512196 15.614192
-68.593628 46.519451 15.624598
-68.261436 46.459175 11.402843
-68.628967 46.484543 15.608275
-68.298927 46.468433 11.406911
-68.662521 46.47261 15.611588
-68.333176 46.448277 11.403271
-68.696632 46.463566 15.628745
-68.731407 46.466106 15.664672
-69.587578 46.678047 26.440695
-69.180817 46.626221 21.130472
-68.764069 46.452141 15.689475
-69.618088 46.648685 26.448643
-67.966599 46.323765 4.7595596
-67.953781 46.28273 4.5920029
-67.941071 46.250202 4.4256506
-67.92849 46.236195 4.2605739
-69.656876 46.633167 26.457651
-67.954391 46.310223 4.0923476
-67.941704 46.273331 3.9265566
-67.929062 46.234982 3.7614412
-67.916534 46.225193 3.5969236
-68.865677 46.506706 15.536936
-68.194855 46.280846 6.7570963
-67.940727 46.323376 3.4250114
-67.92804 46.270687 3.2604704
-67.915413 46.226563 3.0965369
-68.922951 46.421623 15.731679
-68.909157 46.501175 15.548756
-68.234665 46.2896 6.7598271
-67.92804 46.2733 2.7593472
-68.94944 46.493916 15.563466
-68.932152 46.503574 15.338398
-68.273102 46.357014 6.7750487
-68.99942 46.413898 15.76904
-68.985168 46.485363 15.580374
-68.968315 46.503754 15.360271
-68.308952 46.374657 6.7841911
-69.033371 46.412998 15.792782
-69.019211 46.484707 15.603835
-68.693817 46.447735 11.346497
-69.864594 46.676567 26.344612
-69.55838 46.622566 22.313126
-69.049324 46.458664 15.611718
-69.080811 46.433098 15.618777
-69.066376 46.49464 15.424195
-69.032013 46.499821 14.968998
-69.015121 46.502998 14.745165
-68.760506 46.446655 11.376628
-69.531548 46.608135 21.098537
-69.118355 46.443497 15.643819
-69.1026 46.479694 15.433289
-68.796288 46.433754 11.382777
-69.566833 46.587749 21.098475
-69.153267 46.423435 15.642404
-68.831848 46.441753 11.390976
-69.18338 46.413616 15.643872
-69.101257 46.494465 14.5491
-68.863197 46.441662 11.392969
-69.624847 46.592808 21.138077
-69.213448 46.418144 15.66011
-69.199104 46.480171 15.464606
-69.182182 46.488777 15.238241
-68.894066 46.430553 11.395426
-69.244186 46.429195 15.684509
-69.229912 46.491474 15.488635
-68.925674 46.436699 11.408225
-69.684265 46.591667 21.184187
-69.27626 46.442535 15.705377
-68.9571 46.425858 11.410132
-69.718056 46.597607 21.200138
-69.309837 46.442352 15.710507
-69.294731 46.487843 15.503633
-68.99115 46.435898 11.414295
-69.342041 46.445942 15.712635
-69.309334 46.483555 15.267758
-69.023148 46.423141 11.403229
-68.680672 46.325432 6.7786112
-68.552483 46.221886 5.052083
-68.710114 46.272781 6.7253041
-68.584518 46.287052 5.0143318
-69.799294 46.580818 21.143091
-68.745438 46.273296 6.7234964
-68.620605 46.287666 5.00986
-69.432419 46.454594 15.681355
-68.780647 46.264133 6.7193818
-69.46563 46.429283 15.670426
-68.518074 46.212753 2.6218874
-69.502708 46.424938 15.663888
-68.552811 46.21323 2.6036594
-69.541977 46.441021 15.662305
-68.587311 46.183628 2.5815127
-69.581024 46.447731 15.656162
-69.868416 46.446651 18.986553
-69.622284 46.441063 15.652115
-69.885284 46.425716 18.71032
-69.807671 46.449776 17.658657
-69.658981 46.42049 15.651131
-69.89534 46.427643 18.467062
-69.87516 46.421402 18.192976
-69.857521 46.452251 17.949545
-69.836472 46.423477 17.666039
-69.816483 46.407619 17.395618
-69.691917 46.454723 15.694456
-69.883911 46.405704 17.950645
-69.864548 46.401402 17.68462
-69.846695 46.418476 17.437004
-69.8284 46.424511 17.184509
-69.722839 46.459999 15.727483
-69.859169 46.408833 17.211435
-69.842018 46.428822 16.970888
-69.82489 46.446125 16.731043
-69.807327 46.452385 16.486469
-69.755356 46.463188 15.763535
-69.856499 46.399139 16.73325
-69.838104 46.388771 16.477816
-69.82299 46.434322 16.261324
-69.806053 46.443775 16.023756
-69.789154 46.4506 15.787001
-69.874374 46.380135 16.494917
-69.856529 46.375435 16.245848
-69.841019 46.410172 16.024462
-69.8237 46.408554 15.782459
-69.806885 46.412769 15.546619
-69.894463 46.373535 16.252754
-69.877563 46.382996 16.015182
-69.859344 46.364315 15.76269
-69.842987 46.37693 15.532167
-69.828438 46.421406 15.322749
-69.811676 46.420555 15.088373
-69.7967 46.451851 14.874702
-69.780006 46.446037 14.641894
-69.914711 46.35973 15.999652
-69.897789 46.366428 15.762896
-69.879997 46.353409 15.51665
-69.864494 46.380581 15.297029
-69.848564 46.396797 15.072842
-69.832657 46.41061 14.849276
-69.816345 46.413315 14.621492
-69.801346 46.439865 14.408899
-69.905647 46.381969 15.297914
-69.888252 46.372284 15.058465
-69.871346 46.368622 14.825028
-69.854492 46.362404 14.592543
-69.840263 46.406273 14.389743
-69.824745 46.421677 14.172905
-69.79335 46.436802 13.7364
-69.908798 46.341728 14.814286
-69.892715 46.352901 14.591526
-69.876663 46.361702 14.36944
-69.861061 46.376957 14.152758
-69.844635 46.372242 13.927387
-69.829918 46.400688 13.721121
-69.814384 46.409184 13.506213
-69.783394 46.419498 13.078329
-69.907471 46.333813 14.360465
-69.892326 46.35783 14.14848
-69.875488 46.344242 13.918407
-69.860802 46.372639 13.712133
-69.844048 46.354279 13.483809
-69.830605 46.405247 13.291735
-69.800087 46.420231 12.86911
-69.92128 46.347172 14.149885
-69.905418 46.351326 13.9289
-69.889999 46.362041 13.713208
-69.874191 46.36158 13.493661
-69.858826 46.367786 13.279299
-69.844284 46.389797 13.074223
-69.828163 46.37355 12.852576
-69.814049 46.400398 12.652726
-69.78392 46.402405 12.233814
-69.915825 46.320362 13.708567
-69.901421 46.346699 13.502498
-69.886215 46.353012 13.287968
-69.871033 46.357105 13.074097
-69.856667 46.37709 12.869379
-69.841919 46.385941 12.660892
-69.826805 46.383553 12.448894
-69.812477 46.397312 12.245637
-69.944092 46.314865 13.741761
-69.91436 46.339233 13.316146
-69.898125 46.316605 13.089066
-69.884705 46.354866 12.892842
-69.869324 46.345806 12.675864
-69.855133 46.361847 12.472024
-69.84095 46.375854 12.26861
-69.827148 46.39703 12.069569
-69.929024 46.307732 13.128996
-69.914963 46.328308 12.923985
-69.89975 46.319603 12.706824
-69.885338 46.326859 12.498737
-69.870567 46.322865 12.287213
-69.856949 46.344257 12.088266
-69.842957 46.354485 11.885765
-69.829704 46.38121 11.6913
-69.787132 46.375435 11.080777
-69.929512 46.312824 12.743526
-69.915283 46.320465 12.535116
-69.901077 46.325996 12.327285
-69.886513 46.320251 12.116103
-69.873077 46.339996 11.917308
-69.858925 46.339302 11.711254
-69.845863 46.364384 11.516984
-69.83139 46.350357 11.308402
-69.818336 46.371597 11.114864
-69.515945 46.205627 6.7356319
-69.930931 46.297611 12.3403
-69.916527 46.29203 12.129024
-69.903992 46.330353 11.937897
-69.889984 46.329887 11.731591
-69.876717 46.345909 11.53337
-69.863098 46.350693 11.331871
-69.849144 46.344154 11.127357
-69.83522 46.335579 10.92356
-69.821999 46.343788 10.727277
-69.552521 46.289913 6.7636871
-69.924492 46.277435 11.724849
-69.911247 46.293438 11.526792
-69.898354 46.316826 11.332724
-69.88546 46.33836 11.138866
-69.871529 46.329926 10.934822
-69.858299 46.338272 10.738294
-69.844749 46.335293 10.538886
-69.831871 46.349289 10.346539
-69.818672 46.351971 10.151348
-69.804848 46.333755 9.9505186
-69.950684 46.268616 11.531194
-69.922897 46.267002 11.125356
-69.909554 46.277241 10.928591
-69.896904 46.304382 10.73902
-69.884232 46.329746 10.54955
-69.870895 46.334415 10.35374
-69.857567 46.337208 10.158393
-69.844566 46.347645 9.966588
-69.830627 46.327644 9.7661772
-69.81765 46.334389 9.575304
-69.93502 46.249977 10.736872
-69.92157 46.256516 10.540956
-69.908455 46.270622 10.348719
-69.895668 46.292393 10.159928
-69.882874 46.312405 9.9712877
-69.869118 46.30204 9.77386
-69.85601 46.308899 9.5829163
-69.843826 46.342731 9.4007893
-69.830414 46.336464 9.2076073
-69.817307 46.338005 9.017642
-69.803925 46.32811 8.8255253
-69.538673 46.255913 4.9960623
-69.948204 46.245411 10.35481
-69.9347 46.24831 10.159642
-69.908051 46.258049 9.7737513
-69.895523 46.284084 9.5887041
-69.882362 46.289246 9.3980474
-69.869507 46.302227 9.2105093
-69.856651 46.313477 9.0232019
-69.844086 46.332657 8.8387098
-69.830643 46.321106 8.6468554
-69.817787 46.32716 8.4604187
-69.804375 46.31205 8.2696428
-69.563507 46.176388 4.8191009
-69.551796 46.207737 4.6448822
-69.932617 46.251316 9.5876198
-69.918854 46.237331 9.3913183
-69.906044 46.250298 9.2039471
-69.892624 46.24226 9.0114975
-69.879807 46.25172 8.8247719
-69.867577 46.27882 8.6432819
-69.855881 46.323692 8.4665365
-69.842751 46.318401 8.2778215
-69.829361 46.301617 8.0873508
-69.778069 46.2953 7.3474097
-69.941742 46.218784 9.1996269
-69.928947 46.230019 9.0124855
-69.915558 46.220207 8.8204498
-69.902763 46.227943 8.6339846
-69.889977 46.233963 8.4477987
-69.877464 46.247993 8.2642241
-69.865494 46.27985 8.0852547
-69.827835 46.307098 7.5354304
-69.815018 46.303055 7.3506432
-69.944046 46.234192 8.6427603
-69.930321 46.21122 8.4490299
-69.918335 46.244751 8.2700129
-69.905762 46.257206 8.0863295
-69.892624 46.248474 7.8985009
-69.879501 46.238007 7.7111831
-69.867447 46.265007 7.5323052
-69.854843 46.27079 7.3494987
-69.842735 46.294594 7.1705222
-69.830116 46.297119 6.9879875
-69.817245 46.288139 6.8040605
-69.531487 46.177044 2.7023175
-69.972153 46.2062 8.4609785
-69.958923 46.200985 8.2724361
-69.945992 46.203766 8.0866098
-69.93306 46.204842 7.9011068
-69.920128 46.20422 7.7159429
-69.907463 46.211708 7.5331163
-69.895317 46.237171 7.3542838
-69.882126 46.221729 7.1680751
-69.869934 46.243973 6.9893427
-69.857239 46.244911 6.807229
-69.97258 46.190552 7.9102612
-69.959877 46.199833 7.7270021
-69.933907 46.193802 7.357244
-69.921188 46.198093 7.1747494
-69.908714 46.210583 6.9942131
-69.895973 46.211609 6.8121028
-70.012131 46.187775 7.914885
-69.999702 46.206917 7.7334433
-69.947754 46.188499 6.9940877
-70.076622 46.191936 8.2882814
-70.03746 46.186157 7.7274184
-70.062012 46.183197 7.5382509
-70.04908 46.179428 7.3528666
-70.086952 46.178368 7.3501163
-70.133942 46.184731 6.9707456
-70.246216 46.18354 8.075141
-70.279282 46.182507 8.0726852
-70.274063 46.173496 6.9869547
-72.154716 46.478321 26.412527
-72.175468 46.467422 26.444109
-72.202522 46.459019 26.4867
-72.00737 46.344658 18.479738
-71.968964 46.318398 17.904732
-71.949509 46.296062 17.616556
-71.912849 46.274883 17.066334
-71.89563 46.27647 16.803774
-71.956841 46.345554 16.842222
-71.935959 46.293526 16.548512
-71.919487 46.306416 16.298019
-71.901382 46.290794 16.033073
-71.883301 46.272194 15.769405
-71.865761 46.259315 15.511977
-71.84877 46.252312 15.260592
-71.831261 46.233791 15.005492
-71.814812 46.23008 14.761045
-71.781921 46.214787 14.275084
-71.765999 46.212173 14.038095
-71.734154 46.199455 13.56682
-71.687897 46.189259 12.879279
-71.954208 46.352661 16.064581
-71.934341 46.308414 15.785174
-71.916664 46.295681 15.527232
-71.90007 46.297554 15.280179
-71.881882 46.270443 15.019713
-71.848198 46.251816 14.526113
-71.832138 46.25185 14.287722
-71.815056 46.231499 14.041265
-71.799011 46.226433 13.804789
-71.781967 46.200859 13.560611
-71.767433 46.217899 13.338845
-71.750908 46.196373 13.100967
-71.735374 46.190571 12.872385
-71.720337 46.191574 12.648655
-71.705292 46.190308 12.425646
-71.689766 46.177563 12.19955
-71.645554 46.172134 11.544868
-71.959763 46.338749 15.551495
-71.942688 46.332119 15.29898
-71.925079 46.313957 15.042758
-71.874962 46.287106 14.304371
-71.858955 46.284786 14.066298
-71.841415 46.25304 13.815965
-71.824921 46.236591 13.575629
-71.808434 46.217594 13.336393
-71.792961 46.214237 13.106578
-71.776993 46.19939 12.873528
-71.762497 46.209587 12.653462
-71.747505 46.208389 12.430049
-71.733467 46.223385 12.215036
-71.717979 46.208488 11.989225
-71.703445 46.209881 11.771697
-71.687035 46.171818 11.540473
-72.013718 46.339012 15.810631
-71.898529 46.308483 14.083585
-71.881645 46.285885 13.83716
-71.865791 46.278664 13.600572
-71.850449 46.278015 13.369147
-71.833595 46.247715 13.126095
-71.817757 46.233067 12.892483
-71.801926 46.215988 12.659886
-71.787079 46.214878 12.436143
-71.771744 46.202282 12.209316
-71.756889 46.196629 11.987163
-71.742981 46.207329 11.773127
-71.727638 46.187962 11.548825
-71.714172 46.203739 11.339526
-71.699753 46.198738 11.12375
-71.684883 46.182194 10.905345
-71.670464 46.172928 10.691091
-72.054939 46.314907 15.81122
-71.909683 46.291039 13.617635
-71.894386 46.290581 13.385813
-71.879082 46.287731 13.154797
-71.864265 46.291622 12.928677
-71.847961 46.265743 12.691292
-71.832657 46.255764 12.462917
-71.816864 46.234219 12.231619
-71.801567 46.219547 12.005151
-71.785316 46.183983 11.772301
-71.771919 46.20195 11.562248
-71.757568 46.199181 11.345533
-71.743668 46.203659 11.132928
-71.729294 46.196659 10.917529
-71.715363 46.196987 10.706116
-71.702766 46.223682 10.50481
-71.687469 46.191513 10.285064
-71.67395 46.195259 10.078472
-72.089699 46.266674 15.798087
-71.851006 46.276844 12.260654
-71.835297 46.262424 12.033648
-71.82103 46.273567 11.818578
-71.805321 46.254635 11.593243
-71.788666 46.214714 11.361896
-71.773918 46.209946 11.145565
-71.759155 46.203049 10.929943
-71.74485 46.203476 10.718306
-71.729172 46.173439 10.497733
-71.715744 46.188698 10.293711
-71.701408 46.182983 10.083967
-71.688377 46.203915 9.8836374
-71.674011 46.194252 9.6749468
-71.660492 46.201801 9.4724503
-71.645683 46.178577 9.2622976
-71.969231 46.238415 15.834717
-71.959267 46.34734 15.644964
-71.658768 46.271229 11.216311
-71.643532 46.255013 10.996546
-71.629234 46.255508 10.784167
-71.613548 46.225525 10.562879
-71.599236 46.22184 10.351934
-71.583565 46.187538 10.132617
-71.570137 46.198833 9.9290218
-71.556686 46.208221 9.7257547
-71.541473 46.177292 9.5118389
-71.528419 46.192421 9.3122835
-71.514908 46.19606 9.1103621
-71.500954 46.188148 8.9063425
-71.487411 46.188019 8.7053213
-71.474251 46.195744 8.5070629
-71.461067 46.201656 8.3090868
-71.446259 46.166733 8.1027746
-72.030075 46.285606 15.8315
-72.016434 46.342373 15.611683
-71.579079 46.237267 9.2934999
-71.563522 46.202164 9.0807352
-71.54969 46.203709 8.8789778
-71.535004 46.183983 8.672842
-71.521973 46.201191 8.4767361
-71.50808 46.197144 8.2762871
-71.49498 46.210766 8.080596
-71.481049 46.203064 7.8809347
-71.46711 46.193527 7.6817765
-71.453545 46.191978 7.4850273
-71.439949 46.188644 7.2886438
-72.084518 46.300724 15.803997
-71.536804 46.197182 8.0412521
-71.52298 46.198959 7.8435812
-71.509132 46.198936 7.646246
-71.495262 46.197124 7.4492626
-71.467453 46.188137 7.0564179
-71.452782 46.161255 6.8573585
-72.135078 46.291771 15.77707
-71.522934 46.195648 7.2269115
-72.182732 46.308521 15.785589
-73.104309 46.436783 26.545448
-71.610634 46.026749 4.9269004
-72.592094 46.320259 18.678301
-72.643921 46.320889 18.989006
-71.587944 46.023796 3.2174351
-71.574684 46.00288 3.0272224
-72.682266 46.320992 18.988724
-71.606308 46.016483 2.818145
-73.369194 46.40839 26.570412
-71.735191 46.005932 2.7414443
-73.420258 46.415726 26.553576
-73.459892 46.435585 26.567039
-73.489876 46.402145 26.562498
-72.970886 46.307598 18.93301
-72.194733 46.003559 5.1593227
-72.234344 46.008038 5.1604958
-72.989334 46.273113 15.770591
-72.154831 45.949364 2.660713
-72.244232 45.977173 2.6796854
-72.290154 45.970932 2.6883874
-72.336685 45.964691 2.6997895
-72.382813 45.948639 2.7037656
-72.430588 45.952637 2.6978989
-72.478226 45.936493 2.6902668
-73.476555 46.273331 18.758701
-72.526596 45.940311 2.6870134
-73.51841 46.275074 18.787807
-72.57711 45.934113 2.6866565
-72.916298 46.008316 6.8664927
-73.496635 46.178276 14.46543
-73.483871 46.195683 14.225348
-73.488922 46.17836 12.811283
-73.476006 46.179165 12.575595
-73.463654 46.18689 12.344337
-73.492233 46.155182 12.11181
-73.4674 46.159332 11.652344
-73.4655 46.151718 10.753197
-73.247032 45.992786 6.8691993
-73.295166 45.965988 6.8675966
-73.345673 45.988712 6.8735991
-73.222893 45.947712 4.631031
-73.214256 45.990307 4.4322305
-73.39502 45.96307 6.8676763
-73.240265 45.914661 4.0205455
-73.218941 45.917709 3.6193113
-73.208908 45.931583 3.4189506
-73.199265 45.953697 3.2184322
-73.190994 46.004025 3.0174134
-73.177246 45.942734 2.8170216
-73.594406 46.005707 9.620225
-73.571655 46.010349 9.1880217
-73.23822 45.918228 3.0035927
-73.596893 46.003284 8.7479362
-73.584435 45.983974 8.5298405
-73.573738 45.991837 8.3190889
-73.563576 46.007542 8.1107264
-73.552711 46.011597 7.900476
-73.611969 45.982639 8.1017179
-73.600037 45.967098 7.8873405
-73.590462 45.988754 7.6813469
-73.578987 45.979149 7.4698124
-73.569237 45.997093 7.264081
-73.558197 45.993534 7.0550299
-73.628441 45.960995 7.475173
-73.606796 45.955864 7.0566792
-74.144783 45.92318 7.0062876
-74.288361 45.923588 7.3819613
-74.276329 45.921757 7.169683
-74.337952 45.916595 7.1561289
-74.386086 45.90427 6.9459376
-74.660286 45.895279 7.4233141
-75.473045 45.993176 13.766414
-75.456375 45.977448 13.508049
-75.41024 45.960426 12.758517
-75.425667 45.986809 12.037795
-75.41256 46.000275 11.80319
-75.395569 45.973972 11.555695
-75.378448 45.945194 11.309353
-75.364929 45.951706 11.076899
-75.30761 45.936562 10.147014
-75.279076 45.925323 9.6889153
-75.264618 45.916462 9.4608545
-75.250023 45.905457 9.2334805
-75.072517 45.859737 6.7316232
-75.035484 45.874702 6.0950871
-75.020859 45.852859 5.8804688
-75.1371 45.85989 6.7324686
-75.098877 45.865135 6.0936036
-74.878654 45.807316 2.5297258
-74.865799 45.803883 2.3217571
-75.198776 45.859478 6.7370481
-75.159721 45.855072 6.0958319
-74.953209 45.809479 2.7356646
-75.260925 45.868496 6.7442355
-75.221474 45.854477 6.1003799
-75.32579 45.897072 6.7543135
-75.270477 45.842052 5.8900528
-75.38784 45.906124 6.7614908
-75.445114 45.84856 6.7459583
-75.347939 45.886452 5.0400367
-75.334435 45.875298 4.8270578
-75.320793 45.862267 4.6144543
-75.177994 45.786064 2.3004253
-75.335106 45.894054 3.7381885
-75.322327 45.891445 3.5270367
-75.308517 45.877033 3.3158433
-75.293694 45.850819 3.1048861
-75.528328 45.828159 6.0245447
-75.478386 45.837151 5.1715369
-75.603584 45.83556 6.2022057
-75.589844 45.824959 5.9858994
-75.546631 45.902145 5.1382504
-75.387581 45.806671 2.5933216
-75.843552 45.92588 6.7641897
-75.593407 45.853497 2.687072
-75.898697 45.83707 6.7041097
-75.870399 45.813457 6.2662039
-75.810379 45.854031 5.1935458
-75.653648 45.806129 2.636518
-76.035126 45.832104 6.8242149
-75.995094 45.811947 6.1675525
-76.059624 45.80106 6.1167803
-76.078491 45.811722 5.2027402
-75.93248 45.835987 2.6332538
-76.195808 45.799419 6.0081096
-76.045654 45.758377 2.2822428
-76.371384 45.844826 5.1534257
-76.207359 45.756752 2.5667226
-76.500793 45.793655 6.1786695
-76.487595 45.793419 5.9597559
-76.679832 45.849579 6.751451
-76.428833 45.78159 2.6115756
-76.655556 45.787342 5.168828
-76.778313 45.787498 6.0196991
-76.733894 45.828938 5.146791
-77.360954 45.984852 14.659868
-77.345299 45.979961 14.390336
-77.427544 45.906506 14.574257
-77.40097 45.928509 14.05367
-77.386009 45.92651 13.790468
-77.3759 45.958282 13.543866
-77.36042 45.951096 13.282213
-76.745605 45.770859 2.6643288
-77.468521 45.889896 13.974225
-77.456177 45.905293 13.719218
-77.442268 45.90905 13.460925
-77.401596 45.923317 12.698223
-77.521423 45.870232 13.654487
-77.466171 45.876553 12.630432
-77.430176 45.913017 11.892262
-77.413338 45.88929 11.636285
-77.402756 45.909901 11.397569
-77.390617 45.918869 11.156047
-77.375648 45.906681 10.908931
-77.034935 45.786247 4.9397645
-77.025276 45.805004 4.7219234
-77.529106 45.85252 12.335418
-77.501442 45.848747 11.835015
-77.487228 45.843204 11.585987
-77.476715 45.86338 11.3474
-77.462006 45.853096 11.099774
-77.449677 45.859287 10.859096
-77.434479 45.84428 10.613046
-77.425591 45.874344 10.382286
-77.415146 45.892792 10.148826
-77.615913 45.855076 12.296445
-77.600685 45.844788 12.04219
-77.573463 45.844772 11.546327
-77.560135 45.845867 11.301082
-77.550552 45.872841 11.065839
-77.534058 45.850449 10.815666
-77.522636 45.86348 10.578317
-77.506989 45.845829 10.332797
-77.493744 45.844852 10.09376
-77.480263 45.841633 9.855341
-77.466537 45.836178 9.6175613
-77.456543 45.857262 9.3880129
-77.439697 45.828224 9.1464415
-77.430542 45.854675 8.9200382
-77.417183 45.850151 8.6868687
-77.747337 45.855278 12.993259
-77.708946 45.884075 12.242713
-77.690643 45.854717 11.981271
-77.676147 45.850727 11.731089
-77.661392 45.844303 11.481706
-77.646378 45.835464 11.233147
-77.633812 45.843052 10.9916
-77.605225 45.832447 10.504309
-77.595947 45.861649 10.273108
-77.582375 45.860184 10.033758
-77.567215 45.846935 9.7923651
-77.55584 45.860104 9.5595312
-77.540192 45.842373 9.3195314
-77.51622 45.857948 8.8560896
-77.49987 45.833611 8.6182089
-77.448112 45.83091 7.6988935
-77.437233 45.844528 7.4738612
-77.82238 45.856937 12.66575
-77.80838 45.859692 12.413157
-77.792732 45.850697 12.157831
-77.778198 45.848495 11.906814
-77.763397 45.843849 11.656579
-77.751076 45.855507 11.413591
-77.734375 45.836678 11.161691
-77.7229 45.853077 10.923028
-77.709801 45.8578 10.681772
-77.696442 45.860249 10.441081
-77.681465 45.850929 10.198172
-77.666237 45.83931 9.9560385
-77.656219 45.863598 9.7252522
-77.640495 45.847504 9.4843988
-77.625893 45.838734 9.2468538
-77.613762 45.846985 9.0147705
-77.601387 45.853119 8.7830601
-77.58606 45.83783 8.5473137
-77.573196 45.839714 8.3165798
-77.534508 45.84256 7.6289225
-78.008293 45.867985 14.44629
-77.886856 45.848186 12.356165
-77.875282 45.86652 12.111119
-77.860649 45.863892 11.859785
-77.830582 45.851315 11.359502
-77.82209 45.888393 11.126181
-77.805 45.866779 10.87469
-77.791817 45.871078 10.633096
-77.775604 45.854145 10.386338
-77.764671 45.872868 10.151638
-77.75071 45.870373 9.9118166
-77.732361 45.836975 9.6647835
-77.722038 45.858658 9.4340963
-77.705956 45.839863 9.1937933
-77.692375 45.838055 8.9590797
-77.68129 45.853363 8.7294683
-77.667221 45.847282 8.4956999
-77.652901 45.839062 8.2625198
-77.988167 45.855381 12.85157
-77.943672 45.843155 12.085437
-77.930626 45.849594 11.837366
-77.887032 45.83585 11.090787
-77.872902 45.832764 10.845521
-77.862701 45.855709 10.609791
-77.846642 45.838558 10.362874
-77.834511 45.847557 10.125204
-77.820724 45.844826 9.8852921
-77.806679 45.839844 9.6460152
-77.795166 45.851788 9.4124384
-77.780609 45.842396 9.1743279
-77.767197 45.840412 8.9392681
-77.754913 45.845905 8.7070246
-77.74099 45.83963 8.4729986
-77.72821 45.840889 8.2416592
