# .PCD v0.7 - Point Cloud Data file format
VERSION 0.7
FIELDS x y z
SIZE 4 4 4
TYPE F F F
COUNT 1 1 1
WIDTH 1559
HEIGHT 1
VIEWPOINT 0 0 0 1 0 0 0
POINTS 1559
DATA ascii
-65.83123 46.344276 14.412339
-65.70269 46.376366 13.061581
-65.565666 46.281776 11.555766
-65.548897 46.307373 11.39039
-65.532394 46.31284 11.217639
-65.516121 46.307293 11.041668
-65.499985 46.299984 10.866311
-65.483757 46.309669 10.698573
-65.467896 46.298935 10.524334
-65.451904 46.305328 10.35742
-65.43602 46.31012 10.190861
-65.42025 46.313313 10.02467
-65.404755 46.305405 9.8557796
-65.388863 46.324474 9.6964569
-64.756012 46.233643 2.9147532
-65.924507 46.313293 14.799802
-65.905014 46.309887 14.592774
-65.886002 46.338696 14.406815
-65.867493 46.417603 14.251003
-65.756195 46.388458 13.064122
-65.617622 46.27578 11.548182
-65.600632 46.310596 11.386456
-65.583878 46.32534 11.217205
-65.567589 46.301205 11.033628
-65.551277 46.293865 10.858128
-65.534889 46.303516 10.690235
-65.518852 46.292744 10.515853
-65.502571 46.308537 10.352111
-65.486656 46.30386 10.182073
-65.470871 46.297531 10.012568
-65.454903 46.308582 9.8497705
-65.439194 46.308563 9.6842108
-65.422722 46.354794 9.5336275
-65.407013 46.36134 9.3713255
-65.935814 46.311478 14.39762
-65.91732 46.390358 14.241796
-65.898262 46.389381 14.041245
-65.879379 46.386227 13.841461
-65.860802 46.407307 13.656715
-65.805641 46.369934 13.059474
-65.666306 46.275711 11.550751
-65.649399 46.29211 11.381162
-65.632515 46.316139 11.215561
-65.616135 46.292038 11.031833
-65.599556 46.303413 10.863312
-65.582985 46.322529 10.698583
-65.566833 46.311878 10.5238
-65.550713 46.308926 10.353004
-65.534706 46.304306 10.182727
-65.5187 46.307518 10.01614
-65.502945 46.299622 9.8468618
-65.486847 46.318707 9.6871281
-65.470665 46.345882 9.530386
-65.45472 46.362041 9.3707476
-65.439217 46.357502 9.2057304
-65.424019 46.341766 9.0385113
-65.408562 46.34375 8.8770838
-65.39299 46.353912 8.7184658
-65.922302 46.34639 13.833642
-65.903793 46.367462 13.64897
-65.88549 46.404312 13.473998
-65.867043 46.377258 13.26691
-65.84893 46.392521 13.083583
-65.709564 46.27269 11.559371
-65.69268 46.289223 11.389541
-65.675957 46.294823 11.216238
-65.659363 46.298714 11.04337
-65.642883 46.300903 10.870955
-65.626617 46.29203 10.69552
-65.610291 46.300213 10.527544
-65.594185 46.297352 10.356582
-65.578323 46.28336 10.182894
-65.56221 46.29612 10.019382
-65.546326 46.297821 9.8530111
-65.530556 46.297935 9.6870394
-65.513786 46.363426 9.5418587
-65.498344 46.350971 9.3733187
-65.483566 46.308052 9.1971531
-65.467674 46.330849 9.04074
-65.452034 46.342567 8.8817177
-65.436684 46.343143 8.7203531
-65.421646 46.332523 8.5569115
-65.928726 46.283535 13.426582
-65.911049 46.398216 13.293839
-65.892845 46.378101 13.091956
-65.874924 46.391621 12.908881
-65.857109 46.394272 12.721867
-65.736938 46.285233 11.400224
-65.720383 46.27243 11.219212
-65.703773 46.285721 11.04991
-65.687263 46.297367 10.880897
-65.670952 46.298012 10.708699
-65.654755 46.29697 10.536985
-65.638786 46.284817 10.362445
-65.622726 46.289856 10.195071
-65.606651 46.302776 10.031227
-65.591072 46.285614 9.8583632
-65.575058 46.304913 9.6982126
-65.528152 46.315483 9.2073135
-65.497078 46.330963 8.8860464
-65.481964 46.321953 8.7220125
-65.467384 46.292 8.5536566
-65.451454 46.328491 8.4024372
-65.421066 46.338921 8.0861149
-65.406006 46.341976 7.9282699
-65.917946 46.341328 12.899622
-65.900269 46.352962 12.717124
-65.882744 46.389832 12.547944
-65.847984 46.376724 12.172382
-65.797318 46.264236 11.581524
-65.78051 46.290325 11.415021
-65.763893 46.296268 11.241143
-65.74752 46.281879 11.060391
-65.731079 46.293678 10.89113
-65.714661 46.313213 10.725664
-65.698601 46.302975 10.550124
-65.682571 46.300426 10.378573
-65.666885 46.27729 10.201046
-65.650772 46.299809 10.040195
-65.635109 46.292294 9.8701534
-65.619301 46.302216 9.7066698
-65.602859 46.358421 9.5580101
-65.51181 46.299873 8.5627146
-65.495743 46.346222 8.4134884
-65.45089 46.340591 7.9338803
-65.436447 46.32272 7.7720222
-65.90731 46.338314 12.353806
-65.890129 46.362663 12.180965
-65.873039 46.376179 12.004252
-65.856293 46.28701 11.784153
-65.839622 46.269016 11.597363
-65.822914 46.295296 11.430535
-65.806473 46.282883 11.248855
-65.790016 46.296547 11.078895
-65.773849 46.280548 10.898497
-65.757538 46.300205 10.732863
-65.74131 46.318287 10.567385
-65.72554 46.297089 10.388754
-65.709717 46.293015 10.217461
-65.693901 46.296761 10.049863
-65.678078 46.308414 9.8857288
-65.662849 46.280373 9.7098198
-65.646408 46.346226 9.5640001
-65.540504 46.305588 8.4112406
-65.901031 46.281109 11.799225
-65.884415 46.272522 11.616077
-65.867851 46.289787 11.445107
-65.851463 46.286842 11.26691
-65.835304 46.263496 11.081982
-65.819016 46.284943 10.915881
-65.803009 46.276703 10.739426
-65.786911 46.294907 10.573862
-65.770973 46.302113 10.405132
-65.755325 46.288788 10.230246
-65.739815 46.273735 10.056051
-65.72422 46.275993 9.8887405
-65.708733 46.276653 9.7218246
-65.692444 46.342663 9.5757723
-65.586937 46.312828 8.4234962
-65.896393 46.281708 11.280993
-65.880264 46.267857 11.099466
-65.864128 46.280178 10.929457
-65.848152 46.28149 10.756245
-65.832352 46.271706 10.580091
-65.816452 46.288456 10.41461
-65.800812 46.284729 10.242799
-65.785469 46.260368 10.065166
-65.769974 46.262768 9.8976812
-65.754463 46.273102 9.7335978
-65.633392 46.310501 8.4331903
-65.891586 46.279552 10.763142
-65.875832 46.279285 10.59015
-65.86026 46.267899 10.414314
-65.844582 46.283138 10.248922
-65.829254 46.268372 10.074203
-65.813759 46.280415 9.9094677
-65.798561 46.271835 9.7389402
-65.782471 46.347664 9.5953236
-65.889488 46.254982 10.240484
-65.87397 46.27813 10.078445
-65.858864 46.261734 9.9040937
-65.843796 46.253162 9.7334719
-65.827789 46.338566 9.5926676
-65.88591 46.270134 9.6942043
-67.187378 46.377762 23.660978
-67.125839 46.370911 22.973614
-67.096359 46.374004 22.646952
-67.067574 46.379543 22.328966
-67.039467 46.387741 22.019531
-67.010048 46.363991 21.682684
-66.98288 46.370808 21.383152
-66.956345 46.380787 21.09189
-66.930046 46.386993 20.801781
-66.902908 46.367821 20.492102
-66.877831 46.380901 20.218323
-66.852974 46.390511 19.945574
-66.827995 46.389282 19.66716
-66.803917 46.399399 19.403315
-66.77845 46.368694 19.107479
-66.755463 46.387081 18.859102
-66.732056 46.387199 18.598614
-66.708565 46.376408 18.332851
-66.68618 46.385483 18.087399
-66.663712 46.383797 17.836607
-66.642273 46.402561 17.605524
-66.619934 46.387032 17.35063
-66.598854 46.400154 17.121304
-66.577446 46.394585 16.880772
-66.556244 46.386131 16.641335
-66.536179 46.407219 16.426447
-66.515579 46.401409 16.194799
-66.495392 46.40107 15.969911
-66.47538 46.398121 15.745955
-66.455551 46.392574 15.522961
-66.436096 46.392799 15.306456
-66.416626 46.38216 15.085395
-66.397522 46.377419 14.870733
-66.379082 46.395718 14.672835
-66.34198 46.391563 14.258058
-66.305527 46.378208 13.846685
-65.66127 46.290451 6.6340327
-65.634933 46.245243 6.3222218
-65.620094 46.294853 6.1769648
-65.606499 46.29361 6.0249376
-65.593224 46.281082 5.8719654
-65.581375 46.21748 5.7141457
-65.567757 46.222084 5.5642705
-65.554482 46.215408 5.4135728
-65.540688 46.227329 5.2646747
-65.526329 46.257889 5.1170683
-65.286171 46.225456 2.4273417
-65.272873 46.221176 2.2774258
-65.260071 46.205639 2.1285005
-67.449692 46.399612 25.890203
-67.312386 46.388622 24.36932
-67.279259 46.377491 23.999039
-67.24826 46.38755 23.660551
-67.216675 46.379711 23.308504
-67.185837 46.373753 22.965488
-67.155724 46.3699 22.631386
-67.126755 46.375214 22.313353
-67.098457 46.383198 22.003866
-67.070023 46.380116 21.688478
-67.042259 46.379879 21.381615
-67.014763 46.375595 21.076101
-66.98867 46.388756 20.792913
-66.961319 46.369423 20.483147
-66.935707 46.375099 20.202394
-66.911758 46.406528 19.949947
-66.884842 46.368313 19.63768
-66.861313 46.393036 19.38722
-66.836624 46.384659 19.111147
-66.813156 46.395477 18.855976
-66.789253 46.387909 18.588842
-66.766502 46.400032 18.342159
-66.743042 46.385952 18.077389
-66.721283 46.407524 17.845264
-66.69883 46.402817 17.595253
-66.677139 46.410862 17.358629
-66.654831 46.392231 17.104731
-66.634041 46.410515 16.882111
-66.611908 46.37788 16.62466
-66.591965 46.406933 16.415545
-66.57074 46.384697 16.172218
-66.550873 46.400574 15.958755
-66.530495 46.389263 15.729036
-66.510307 46.375256 15.500425
-66.491127 46.391998 15.294912
-66.471695 46.389656 15.079147
-66.433517 46.386127 14.655614
-66.359711 46.385399 13.839174
-65.710892 46.255226 6.610527
-65.68322 46.25922 6.3058429
-65.668777 46.288921 6.1576161
-65.655075 46.28756 6.0054259
-65.641434 46.284847 5.8534222
-65.628899 46.241013 5.6974802
-65.615952 46.215672 5.5443344
-65.602562 46.208874 5.3934779
-65.588959 46.210709 5.2436295
-65.573372 46.281033 5.0986648
-65.344353 46.249207 2.5515804
-65.332619 46.206261 2.4048033
-65.318344 46.221725 2.2528896
-65.30497 46.215961 2.1026797
-67.375351 46.402981 24.365393
-67.310226 46.394917 23.648827
-67.278816 46.393475 23.304144
-67.246819 46.373878 22.946207
-67.217773 46.390083 22.63406
-67.187698 46.381596 22.301266
-67.159599 46.396275 21.99888
-67.130501 46.386051 21.676186
-67.102097 46.378551 21.362131
-67.075165 46.388195 21.070639
-67.04808 46.386898 20.773335
-67.022018 46.396172 20.491163
-66.996178 46.401836 20.21011
-66.969833 46.389221 19.916658
-66.944473 46.387608 19.638088
-66.920052 46.397366 19.37406
-66.895836 46.403831 19.111053
-66.870819 46.384293 18.829548
-66.847702 46.399323 18.581799
-66.823814 46.388271 18.31576
-66.800774 46.389385 18.063662
-66.778847 46.410809 17.831392
-66.755615 46.390224 17.568899
-66.734337 46.413818 17.344513
-66.711807 46.395012 17.090515
-66.690865 46.413147 16.86775
-66.669029 46.396458 16.622032
-66.626991 46.386848 16.157513
-66.606964 46.402588 15.943902
-66.586632 46.39938 15.719694
-66.566689 46.401894 15.502004
-66.50766 46.386131 14.848796
-65.758949 46.269875 6.5912194
-65.731216 46.263721 6.2844954
-65.71666 46.293293 6.1359854
-65.702827 46.291794 5.9835482
-65.689049 46.28894 5.8312984
-65.677086 46.215122 5.6720924
-65.663757 46.199562 5.5199223
-65.649979 46.202564 5.3698459
-65.635979 46.214214 5.2205939
-65.390305 46.219799 2.5263898
-65.376732 46.216496 2.3761251
-65.364052 46.191982 2.2277508
-65.350136 46.195984 2.0764976
-67.459991 46.387852 24.698936
-67.426147 46.381199 24.326962
-67.361778 46.385395 23.625643
-67.329353 46.370289 23.26609
-67.298615 46.370419 22.930443
-67.269936 46.393188 22.625551
-67.239738 46.38451 22.292656
-67.211128 46.392105 21.982941
-67.181923 46.381638 21.660204
-67.154663 46.395046 21.367352
-67.12722 46.397549 21.06859
-67.100037 46.396152 20.771111
-67.072311 46.376419 20.461164
-67.047173 46.396336 20.193842
-67.020737 46.383503 19.900347
-66.995285 46.381683 19.621723
-66.971146 46.398716 19.364269
-66.945793 46.382469 19.081402
-66.922073 46.392937 18.826035
-66.897865 46.384983 18.558744
-66.87455 46.389069 18.305479
-66.851112 46.382301 18.046942
-66.829132 46.403561 17.814589
-66.806099 46.39064 17.558231
-66.783882 46.390388 17.315369
-66.762138 46.395184 17.079582
-66.740021 46.381142 16.832787
-66.718925 46.388321 16.604933
-66.698006 46.392841 16.377932
-66.677246 46.394714 16.151812
-66.656662 46.393959 15.926601
-66.576294 46.373386 15.040834
-66.557205 46.385162 14.836505
-65.805557 46.25399 6.5701461
-65.7929 46.187164 6.4072061
-65.7771 46.277287 6.2673359
-65.763145 46.277012 6.1146421
-65.749039 46.285305 5.9633093
-65.735435 46.272392 5.8097954
-65.72287 46.218323 5.6526065
-65.709465 46.202637 5.5001965
-65.695107 46.225441 5.3515396
-65.681831 46.207077 5.1995902
-65.434753 46.220036 2.5015171
-65.421104 46.216568 2.3510001
-65.407928 46.201828 2.2014115
-65.394798 46.185783 2.0519526
-67.571297 46.385578 25.470066
-67.469215 46.381866 24.348595
-67.403709 46.366653 23.624308
-67.372818 46.371555 23.286999
-67.342201 46.371883 22.951103
-67.31321 46.388058 22.638638
-67.282257 46.365784 22.291031
-67.255081 46.394161 22.002846
-67.225983 46.383888 21.679859
-67.198006 46.383392 21.372583
-67.171516 46.400185 21.087725
-67.142822 46.370289 20.762157
-67.117592 46.39389 20.493572
-67.091385 46.392246 20.205359
-67.066185 46.401592 19.931971
-67.04007 46.38525 19.639544
-67.015312 46.387535 19.368536
-66.990768 46.386406 19.09868
-66.966789 46.389469 18.836527
-66.942337 46.373997 18.562586
-66.919792 46.393539 18.32193
-66.896111 46.379196 18.056807
-66.874237 46.400578 17.824236
-66.85128 46.387772 17.567667
-66.829147 46.387638 17.324589
-66.808083 46.408482 17.100658
-66.786308 46.402676 16.859476
-66.764175 46.377842 16.607601
-66.743614 46.390545 16.386276
-66.723198 46.4007 16.165691
-66.702179 46.383656 15.928816
-66.682343 46.396889 15.715623
-66.642403 46.391048 15.274889
-66.622574 46.380138 15.053234
-66.602921 46.366676 14.832628
-66.565331 46.383511 14.425731
-65.854355 46.245277 6.5636883
-65.841301 46.198227 6.4034696
-65.826027 46.268566 6.2605147
-65.798286 46.266644 5.9549465
-65.784294 46.273582 5.8035345
-65.771492 46.229458 5.6471043
-65.758102 46.213776 5.4943466
-65.744057 46.226624 5.3444943
-65.730804 46.208252 5.1922841
-65.48494 46.210716 2.4902189
-65.471344 46.207207 2.3395236
-65.457794 46.202366 2.1887734
-65.445114 46.176331 2.0401263
-67.507278 46.382671 24.409288
-67.475105 46.38483 24.053453
-67.442757 46.3755 23.691641
-67.411636 46.374496 23.346409
-67.350708 46.365196 22.667889
-67.321777 46.370789 22.349129
-67.292664 46.365215 22.024488
-67.265961 46.390209 21.737078
-67.23735 46.376278 21.415184
-67.210678 46.386478 21.122982
-67.182602 46.364227 20.804085
-67.157997 46.39555 20.54208
-67.131218 46.379894 20.239794
-67.10585 46.382328 19.959362
-67.081444 46.395996 19.693546
-67.056137 46.383953 19.408777
-67.032509 46.398346 19.151735
-67.008003 46.386841 18.876078
-66.984421 46.387115 18.614672
-66.961037 46.384151 18.354399
-66.938194 46.385712 18.101606
-66.915543 46.384182 17.849884
-66.893707 46.39529 17.611622
-66.871437 46.387741 17.362003
-66.849953 46.393085 17.125639
-66.828644 46.395626 16.8902
-66.806946 46.379242 16.643913
-66.786278 46.384239 16.416395
-66.766037 46.394756 16.195517
-66.745171 46.378082 15.958328
-66.72525 46.383396 15.739221
-66.705719 46.39452 15.52648
-66.685867 46.386524 15.303492
-66.666412 46.384373 15.086924
-66.64711 46.379765 14.871256
-65.90406 46.223373 6.5711598
-65.875626 46.266716 6.2705245
-65.86145 46.286411 6.1199293
-65.847702 46.284931 5.9667892
-65.834641 46.252281 5.8105326
-65.821693 46.21822 5.6549935
-65.808632 46.192707 5.5011134
-65.794724 46.205669 5.3511705
-65.781326 46.19738 5.1996059
-65.766495 46.247597 5.0523
-65.752144 46.276585 4.9030485
-65.537125 46.211712 2.4933996
-65.524025 46.198334 2.3433249
-65.510185 46.203526 2.1914065
-65.497986 46.167633 2.0435407
-67.615067 46.384148 25.233595
-67.547791 46.373409 24.478142
-67.515343 46.369926 24.11433
-67.452736 46.367867 23.413994
-67.422089 46.363018 23.069851
-67.392181 46.360268 22.734608
-67.363876 46.373531 22.422693
-67.334488 46.361935 22.090338
-67.306671 46.366783 21.781054
-67.279526 46.374588 21.48016
-67.251762 46.364269 21.166428
-67.22509 46.364113 20.868149
-67.199043 46.36729 20.578094
-67.173225 46.36673 20.289272
-67.149185 46.391808 20.028854
-67.123787 46.384064 19.742373
-67.098999 46.380104 19.463905
-67.073708 46.357578 19.173532
-67.050804 46.37674 18.92387
-67.027367 46.377605 18.662121
-67.004814 46.390594 18.414276
-66.981758 46.385101 18.154678
-66.958908 46.3764 17.896278
-66.937859 46.403759 17.67005
-66.914772 46.373173 17.401569
-66.893738 46.386963 17.170973
-66.872559 46.390041 16.935177
-66.850975 46.374207 16.688509
-66.830154 46.371616 16.454788
-66.810051 46.382595 16.233625
-66.790092 46.391033 16.013222
-66.769768 46.380428 15.782348
-66.74987 46.375427 15.558133
-66.730385 46.376198 15.34039
-66.711044 46.374489 15.123516
-66.692085 46.378773 14.912875
-65.953026 46.229382 6.5915923
-65.925148 46.253372 6.2875547
-65.910904 46.283184 6.1380835
-65.897621 46.262062 5.9822779
-65.884026 46.259411 5.8292265
-65.87133 46.215622 5.6722713
-65.857674 46.220177 5.5209126
-65.844734 46.193516 5.3670454
-65.830956 46.205353 5.2168212
-65.817696 46.195927 5.0651383
-65.804001 46.20512 4.914897
-65.790337 46.212997 4.7645774
-65.777237 46.199581 4.6133537
-65.763382 46.214809 4.463418
-65.748436 46.2687 4.3142443
-65.735176 46.261318 4.1632209
-65.588531 46.212879 2.5050123
-65.575882 46.189697 2.3555384
-65.562134 46.195053 2.2034433
-65.549591 46.16925 2.0543013
-67.440681 46.36491 22.805792
-67.411095 46.358475 22.471567
-67.382233 46.354435 22.146112
-67.354927 46.366943 21.843622
-67.326988 46.361431 21.528103
-67.299721 46.358826 21.221083
-67.273109 46.359341 20.922424
-67.245918 46.341537 20.611246
-67.220581 46.348724 20.329079
-67.196243 46.36697 20.061632
-67.170921 46.359695 19.774944
-67.14621 46.356194 19.496269
-67.122459 46.364162 19.232054
-67.098892 46.368847 18.968884
-67.075157 46.36264 18.700333
-67.053032 46.383785 18.458622
-67.029694 46.371098 18.192348
-67.007233 46.370667 17.939924
-66.985283 46.375 17.69479
-66.962875 46.360584 17.438391
-66.941605 46.366871 17.201466
-66.921097 46.386353 16.977434
-66.899254 46.362972 16.724478
-66.878487 46.360825 16.490467
-66.858452 46.372231 16.269024
-66.838821 46.389301 16.054045
-66.817741 46.354408 15.805888
-66.798424 46.366341 15.592647
-66.779472 46.384232 15.385592
-66.740555 46.362465 14.941153
-66.721565 46.356251 14.72579
-66.703163 46.364685 14.521768
-66.684685 46.362297 14.313294
-66.666542 46.366222 14.110717
-66.003281 46.225788 6.6080894
-65.975327 46.260063 6.3049283
-65.961655 46.26033 6.1512542
-65.947678 46.279079 6.0001669
-65.934105 46.276634 5.8466768
-65.921959 46.203213 5.6861424
-65.908554 46.197987 5.5336618
-65.894569 46.221291 5.383986
-65.881477 46.203419 5.2309241
-65.868011 46.20414 5.0796556
-65.854347 46.213509 4.9290709
-65.841209 46.201588 4.7773776
-65.827629 46.208309 4.6268191
-65.814339 46.20372 4.475863
-65.801369 46.187813 4.3247819
-65.787361 46.21056 4.1746831
-65.773926 46.212006 4.0240545
-65.760529 46.212128 3.873415
-65.746277 46.240917 3.7224953
-65.640373 46.193752 2.5159247
-65.627373 46.180672 2.3654637
-65.613678 46.186165 2.2131958
-65.60038 46.18037 2.0617568
-67.973549 46.423405 28.32036
-67.518837 46.357815 23.184355
-67.488548 46.349678 22.84099
-67.459908 46.357384 22.521088
-67.431496 46.360828 22.202492
-67.403328 46.360039 21.885256
-67.375397 46.355038 21.569424
-67.349007 46.367111 21.276176
-67.322815 46.375389 20.984062
-67.294357 46.336643 20.651617
-67.270264 46.366112 20.389702
-67.245132 46.370346 20.10817
-67.21981 46.363605 19.821091
-67.194717 46.353184 19.53536
-67.170601 46.354107 19.264221
-67.147789 46.37431 19.013855
-67.123695 46.360996 18.738434
-67.100174 46.351875 18.470795
-67.077209 46.347141 18.210775
-67.056129 46.37812 17.983284
-67.033524 46.367252 17.725342
-67.011765 46.368999 17.480921
-66.989861 46.359863 17.231457
-66.968765 46.363697 16.995169
-66.948128 46.372784 16.765751
-66.927063 46.362991 16.525461
-66.906746 46.366638 16.297886
-66.887146 46.384045 16.082628
-66.867119 46.382515 15.856726
-66.846733 46.361767 15.620638
-66.827301 46.363281 15.402308
-66.78936 46.375763 14.978961
-66.770355 46.369961 14.763149
-66.751503 46.361725 14.548279
-66.733452 46.376812 14.349762
-66.051361 46.23317 6.6198206
-66.023743 46.247936 6.3132153
-66.00959 46.278061 6.1632628
-65.996132 46.267185 6.0081148
-65.982559 46.264858 5.8544488
-65.970352 46.191555 5.6936994
-65.957344 46.166534 5.5391345
-65.943001 46.209854 5.3912024
-65.929482 46.212029 5.2395153
-65.916008 46.212868 5.0878983
-65.902802 46.202396 4.9357557
-65.88942 46.200565 4.7844005
-65.876091 46.197403 4.6331496
-65.862556 46.202908 4.4823613
-65.849319 46.197098 4.3312683
-65.835861 46.199959 4.1804867
-65.822983 46.181503 4.0295119
-65.809044 46.201714 3.8788674
-65.795982 46.190617 3.7281406
-65.782684 46.188194 3.577424
-65.768501 46.214428 3.4259439
-65.755882 46.189381 3.2757225
-65.741089 46.232925 3.1228433
-65.727249 46.245163 2.9707217
-65.700294 46.245663 2.6670492
-65.688606 46.194092 2.5190005
-65.67524 46.191036 2.3674009
-65.661911 46.186646 2.2157435
-65.649353 46.161041 2.0661249
-68.02372 46.462112 28.425493
-67.982063 46.440212 27.949421
-67.940254 46.405373 27.467594
-67.627655 46.376778 23.935472
-67.595863 46.365395 23.573669
-67.535507 46.361553 22.892019
-67.506409 46.362957 22.564415
-67.477554 46.359974 22.238234
-67.449402 46.359585 21.920692
-67.421486 46.35498 21.604553
-67.394684 46.360355 21.303953
-67.368515 46.368958 21.011591
-67.341728 46.359371 20.706562
-67.316406 46.367596 20.423576
-67.290886 46.364876 20.13493
-67.266373 46.373222 19.86105
-67.24205 46.378117 19.588259
-67.217155 46.364574 19.303396
-67.193611 46.370068 19.039568
-67.17025 46.372288 18.776815
-67.146362 46.355904 18.502369
-67.1241 46.366978 18.254684
-67.102005 46.375053 18.007917
-67.079056 46.356636 17.743498
-67.057976 46.374393 17.511135
-67.036392 46.373535 17.267385
-67.014351 46.353756 17.012697
-66.993744 46.363064 16.783068
-66.972977 46.361591 16.548418
-66.952385 46.357349 16.314774
-66.932236 46.358562 16.087875
-66.913078 46.381897 15.878826
-66.893219 46.378014 15.653584
-66.873772 46.379875 15.434816
-66.854225 46.370853 15.211484
-66.815849 46.353615 14.773221
-66.797699 46.371136 14.573812
-66.097099 46.241558 6.6254325
-66.069771 46.236706 6.3153648
-66.055656 46.266895 6.1652436
-66.042038 46.26601 6.0111332
-66.028633 46.253815 5.8560777
-66.016197 46.190517 5.6961818
-66.002975 46.175518 5.5423055
-65.98925 46.18903 5.3914275
-65.975952 46.181286 5.2388701
-65.962296 46.192139 5.0879464
-65.948883 46.191692 4.9363217
-65.935287 46.199894 4.7853122
-65.921951 46.196789 4.6337981
-65.908432 46.202343 4.4827485
-65.89518 46.196579 4.3313913
-65.881729 46.199486 4.1803479
-65.868576 46.191071 4.0291939
-65.854652 46.211323 3.8782034
-65.841576 46.200264 3.7271247
-65.82798 46.207874 3.5758846
-65.814995 46.194168 3.4250143
-65.801758 46.189137 3.2740049
-65.788254 46.192772 3.1226075
-65.775093 46.185089 2.9716146
-65.76165 46.186066 2.8200831
-65.74823 46.185707 2.6684587
-65.735527 46.164085 2.5183151
-65.721489 46.180984 2.3649774
-65.70816 46.17662 2.2131438
-65.695229 46.160976 2.062305
-68.033661 46.472195 28.047142
-67.99456 46.46817 27.604731
-67.953064 46.427601 27.124451
-67.915756 46.422695 26.702017
-67.877174 46.393238 26.257887
-67.806328 46.378174 25.453899
-67.643089 46.354717 23.604456
-67.554581 46.367062 22.609064
-67.524803 46.350777 22.268066
-67.496201 46.343792 21.943113
-67.469627 46.360546 21.648108
-67.443253 46.373478 21.354185
-67.417084 46.38261 21.06139
-67.389412 46.359142 20.742079
-67.364098 46.36776 20.458776
-67.34021 46.394741 20.196995
-67.313652 46.366791 19.88888
-67.288544 46.357128 19.602495
-67.264816 46.366299 19.337305
-67.240891 46.364613 19.066612
-67.217155 46.359535 18.797123
-67.194725 46.374096 18.548092
-67.17173 46.37019 18.287262
-67.149277 46.370842 18.033888
-67.127342 46.376244 17.787798
-67.10524 46.370789 17.536556
-67.083321 46.362282 17.286463
-67.062233 46.366737 17.049551
-67.040665 46.352291 16.801722
-67.02021 46.35915 16.572718
-67.000206 46.37149 16.350359
-66.980621 46.389484 16.134466
-66.960022 46.37204 15.896626
-66.940155 46.368378 15.671166
-66.920723 46.370457 15.452181
-66.90168 46.378445 15.23948
-66.882523 46.375607 15.022163
-66.844872 46.371105 14.595493
-66.82637 46.369564 14.386044
-66.789787 46.35952 13.969685
-66.771904 46.359764 13.767731
-66.143669 46.239719 6.630857
-66.1166 46.215244 6.3174906
-66.102379 46.255413 6.1685934
-66.088448 46.274448 6.0167422
-66.07486 46.272282 5.8624673
-66.062515 46.199142 5.701077
-66.048912 46.204132 5.5487647
-66.035721 46.187862 5.3947558
-66.022217 46.190155 5.2427197
-66.008949 46.181141 5.090055
-65.995117 46.200714 4.9394774
-65.981949 46.189018 4.7870727
-65.968613 46.18597 4.6353827
-65.954865 46.201572 4.4845099
-65.941605 46.195869 4.3328891
-65.928146 46.198833 4.1815844
-65.91523 46.180477 4.030076
-65.901596 46.190784 3.8789124
-65.888245 46.189774 3.7276587
-65.874649 46.19743 3.5762451
-65.861366 46.193764 3.4249382
-65.848122 46.188774 3.2736654
-65.834915 46.182461 3.1224384
-65.821747 46.174824 2.9712684
-65.808304 46.175842 2.8195622
-65.794891 46.175522 2.6677628
-65.780838 46.193794 2.5143244
-65.768143 46.170876 2.3639305
-65.754814 46.166546 2.2119212
-65.741165 46.170815 2.0588272
-68.084839 46.499107 28.160736
-68.044594 46.484428 27.701624
-68.0047 46.463078 27.244621
-67.96463 46.428989 26.7819
-67.927094 46.412823 26.35298
-67.8899 46.390507 25.926086
-67.855141 46.387276 25.532288
-67.722122 46.358665 24.020277
-67.660271 46.353115 23.319433
-67.629982 46.34655 22.975054
-67.601364 46.355789 22.654148
-67.571571 46.340084 22.312838
-67.5448 46.361473 22.016264
-67.517769 46.372002 21.713612
-67.490501 46.371502 21.405104
-67.463013 46.35981 21.090975
-67.436203 46.35117 20.785311
-67.410049 46.345791 20.48797
-67.385773 46.365829 20.219213
-67.361259 46.375134 19.944633
-67.336525 46.373535 19.664461
-67.3116 46.360889 19.378933
-67.288055 46.367252 19.11445
-67.264305 46.362724 18.844561
-67.242241 46.385483 18.601549
-67.218864 46.374443 18.333904
-67.196754 46.3834 18.086401
-67.173401 46.358047 17.815004
-67.152672 46.384487 17.588112
-67.130386 46.36861 17.331459
-67.109612 46.381554 17.100134
-67.088333 46.375706 16.857738
-67.067535 46.375057 16.622313
-67.0466 46.363491 16.38209
-67.026726 46.373657 16.1602
-67.006409 46.364788 15.927784
-66.967644 46.380627 15.493768
-66.947792 46.363892 15.264335
-66.929153 46.378239 15.057515
-66.909866 46.364857 14.835448
-66.890984 46.357468 14.619675
-66.854347 46.361271 14.206223
-66.189285 46.256008 6.6470656
-66.162544 46.202198 6.3286314
-66.147942 46.272243 6.1835179
-66.134727 46.241833 6.0251284
-66.12085 46.259655 5.8731251
-66.108284 46.196598 5.7125607
-66.095184 46.171875 5.5570974
-66.081467 46.185604 5.4057097
-66.068138 46.17807 5.2526226
-66.054298 46.1991 5.1018906
-66.041061 46.188885 4.9490376
-66.027672 46.187302 4.7969809
-66.014328 46.184383 4.6450267
-66.001251 46.170139 4.4928298
-65.987312 46.19453 4.3420157
-65.974091 46.187622 4.1902671
-65.960915 46.179379 4.0386672
-65.947792 46.169811 3.8872287
-65.933922 46.188908 3.7357318
-65.920601 46.186684 3.5842252
-65.907593 46.173138 3.4329913
-65.894066 46.178253 3.2812889
-65.880859 46.17205 3.1298821
-65.867683 46.16452 2.9785316
-65.853935 46.175621 2.8260527
-65.840515 46.1754 2.6739912
-65.827126 46.173843 2.5218472
-65.814087 46.160988 2.370491
-65.800079 46.176659 2.2164145
-65.786766 46.17107 2.064007
-68.087738 46.488243 27.795691
-68.049019 46.480095 27.354071
-68.007339 46.429058 26.866932
-67.969872 46.413956 26.437506
-67.933258 46.398918 26.017906
-67.89856 46.396774 25.623552
-67.643684 46.353062 22.718861
-67.61441 46.345039 22.38435
-67.585854 46.339455 22.058594
-67.558441 46.343536 21.748581
-67.530792 46.336468 21.432827
-67.50515 46.353752 21.146538
-67.478821 46.352989 20.847418
-67.452698 46.348335 20.549627
-67.427635 46.354446 20.266823
-67.402763 46.356956 19.985182
-67.378494 46.363316 19.711426
-67.353615 46.351254 19.425552
-67.330116 46.358177 19.160746
-67.306419 46.35421 18.890514
-67.283279 46.354523 18.627934
-67.260696 46.359303 18.372841
-67.238281 46.360966 18.118786
-67.216042 46.359528 17.865805
-67.194664 46.370773 17.626226
-67.173096 46.371235 17.381435
-67.151695 46.368767 17.137682
-67.129807 46.347301 16.883116
-67.10907 46.347 16.647543
-67.088799 46.352062 16.418762
-67.068672 46.354465 16.190865
-67.048698 46.354229 15.963877
-67.029442 46.367943 15.749002
-67.009743 46.362568 15.523775
-66.990471 46.362984 15.304986
-66.971596 46.369347 15.092441
-66.952858 46.373341 14.880652
-66.933495 46.3494 14.653981
-66.914787 46.339977 14.438855
-66.897163 46.362598 14.245
-66.878723 46.348537 14.031562
-66.232704 46.271435 6.6680775
-66.205933 46.218082 6.3487248
-66.191658 46.268513 6.2006049
-66.177895 46.277988 6.0468574
-66.164612 46.25631 5.8896751
-66.151711 46.213329 5.7309084
-66.138763 46.17886 5.5740113
-66.125412 46.172859 5.4205117
-66.111931 46.175461 5.2680411
-66.098129 46.196671 5.1170659
-66.084908 46.186626 4.9639392
-66.071548 46.185215 4.8116164
-66.058434 46.172478 4.6589417
-66.044952 46.178379 4.507288
-66.031494 46.182953 4.3555851
-66.018295 46.176205 4.2036519
-66.004669 46.188114 4.0520797
-65.991554 46.178703 3.9002807
-65.977974 46.187958 3.748518
-65.964935 46.175892 3.596899
-65.95195 46.162498 3.4454746
-65.938736 46.157772 3.2939277
-65.924995 46.171696 3.1415942
-65.911842 46.16431 2.9899724
-65.89843 46.165577 2.8378286
-65.88443 46.185448 2.6842387
-65.871681 46.164089 2.533267
-65.858025 46.171291 2.3800237
-65.844376 46.177139 2.2265472
-65.831085 46.17168 2.0738714
-68.123772 46.502018 27.895535
-68.085281 46.495022 27.453312
-68.04493 46.457329 26.981367
-68.006577 46.43119 26.535482
-67.969643 46.411053 26.107443
-67.934624 46.403641 25.704762
-67.898857 46.377834 25.288498
-67.866508 46.384632 24.920242
-67.679359 46.33992 22.766552
-67.622368 46.334454 22.112822
-67.594681 46.332176 21.795307
-67.568108 46.339821 21.493349
-67.541306 46.336403 21.185621
-67.515152 46.336136 20.886234
-67.489212 46.331982 20.588171
-67.465164 46.353191 20.318729
-67.439621 46.341564 20.023191
-67.41552 46.348396 19.749166
-67.391602 46.35178 19.476252
-67.368256 46.359276 19.21104
-67.344688 46.355885 18.940397
-67.320938 46.341454 18.664557
-67.298882 46.354385 18.415543
-67.276611 46.356544 18.161137
-67.25486 46.363419 17.914022
-67.233269 46.367321 17.667875
-67.211494 46.360336 17.416643
-67.189552 46.342327 17.160563
-67.169449 46.361347 16.935562
-67.148827 46.36161 16.699484
-67.127731 46.342823 16.452782
-67.107735 46.345627 16.224588
-67.088181 46.354015 16.002968
-67.069054 46.368164 15.78773
-67.049187 46.354889 15.556605
-67.030037 46.355686 15.337512
-67.011017 46.353996 15.119292
-66.992401 46.358311 14.907274
-66.973412 46.34322 14.685577
-66.955307 46.351299 14.480442
-66.93708 46.348526 14.270907
-66.919212 46.352085 14.067229
-66.90168 46.362129 13.869207
-66.866318 46.349518 13.460646
-66.276802 46.267685 6.682982
-66.250496 46.184986 6.3588138
-66.236244 46.245457 6.2120509
-66.222725 46.245155 6.0569744
-66.209114 46.253403 5.9032302
-66.196411 46.200649 5.743094
-66.183525 46.166332 5.585988
-66.169937 46.180393 5.434092
-66.156372 46.193127 5.2820768
-66.143181 46.184582 5.128509
-66.12986 46.184658 4.9758277
-66.116577 46.183395 4.8232346
-66.10334 46.18079 4.670742
-66.090141 46.176846 4.5183616
-66.076767 46.181557 4.3663926
-66.063873 46.164948 4.213984
-66.050346 46.176991 4.0622377
-66.037071 46.177711 3.9102759
-66.024078 46.167103 3.7583699
-66.010872 46.165157 3.6064992
-65.997444 46.171883 3.4544144
-65.984039 46.177269 3.3021867
-65.970924 46.171329 3.1502354
-65.957565 46.174046 2.997844
-65.944519 46.165443 2.845926
-65.931213 46.165485 2.6934178
-65.917633 46.174152 2.5400703
-65.904366 46.171497 2.3873181
-65.891136 46.167503 2.2345052
-65.87793 46.162159 2.0816429
-68.078629 46.504894 27.106794
-68.040565 46.480042 26.660067
-68.002838 46.448742 26.215548
-67.967033 46.429878 25.7966
-67.932068 46.4114 25.387398
-67.898438 46.399956 24.995497
-67.831543 46.354057 24.209743
-67.80127 46.35923 23.861034
-67.711403 46.339554 22.816595
-67.65583 46.349087 22.176474
-67.627464 46.333492 21.844193
-67.601578 46.348736 21.548916
-67.574997 46.345924 21.24073
-67.548195 46.331886 20.926998
-67.522057 46.320957 20.621716
-67.498665 46.349861 20.358829
-67.474167 46.353424 20.076452
-67.44986 46.353397 19.795271
-67.425743 46.349804 19.515322
-67.401817 46.342663 19.236649
-67.377701 46.324406 18.952797
-67.356071 46.348438 18.709002
-67.333832 46.354141 18.453213
-67.311752 46.356716 18.198454
-67.289124 46.340553 17.932304
-67.268089 46.352573 17.692163
-67.2472 46.361736 17.452881
-67.225105 46.336159 17.190407
-67.205185 46.355518 16.965118
-67.184425 46.348038 16.722862
-67.164452 46.353935 16.493355
-67.144623 46.35717 16.264719
-67.124924 46.357754 16.036987
-67.105957 46.372265 15.821383
-67.085968 46.351036 15.584347
-67.067261 46.360523 15.3704
-67.047859 46.342342 15.141038
-67.029678 46.355389 14.934092
-67.011093 46.349125 14.717308
-66.992897 46.348984 14.506632
-66.974823 46.346504 14.296781
-66.939735 46.360683 13.894454
-66.922028 46.35141 13.686999
-66.293854 46.182671 6.3679152
-66.279877 46.233353 6.2195787
-66.266479 46.233158 6.0643177
-66.252998 46.241516 5.9103928
-66.23996 46.218689 5.7532659
-66.227295 46.174557 5.5947127
-66.213974 46.17878 5.4415655
-66.200691 46.181652 5.2884712
-66.187782 46.163235 5.1339879
-66.174057 46.193336 4.9831271
-66.161247 46.172211 4.8290682
-66.147934 46.179688 4.6768551
-66.134651 46.185833 4.52458
-66.122002 46.16066 4.3713765
-66.108582 46.174126 4.2194781
-66.094948 46.196259 4.0674968
-66.08223 46.177067 3.915025
-66.069099 46.17654 3.7627866
-66.056 46.174679 3.6105554
-66.042938 46.171486 3.458343
-66.030159 46.156967 3.3064773
-66.01664 46.171089 3.1536188
-66.003395 46.173878 3.0009565
-65.990173 46.175327 2.8481858
-65.977554 46.155483 2.696645
-65.964096 46.164223 2.5431163
-65.950951 46.16164 2.3901777
-65.937523 46.167667 2.2362545
-65.924423 46.162384 2.0831184
-68.182243 46.487465 28.003408
-68.073372 46.49424 26.735697
-68.036415 46.469978 26.298473
-67.999268 46.433155 25.855658
-67.965057 46.421688 25.453749
-67.930626 46.398136 25.046064
-67.897003 46.375298 24.648039
-67.864685 46.359951 24.267113
-67.745361 46.347919 22.87225
-67.716728 46.341671 22.536591
-67.635384 46.345341 21.588669
-67.608994 46.342979 21.280155
-67.582809 46.336575 20.973036
-67.557693 46.340633 20.681122
-67.532356 46.333637 20.383619
-67.508049 46.337509 20.101036
-67.484741 46.352627 19.833031
-67.460388 46.34198 19.546112
-67.437027 46.342735 19.27372
-67.414619 46.355259 19.015507
-67.391602 46.349327 18.745384
-67.369141 46.347725 18.482882
-67.346855 46.34288 18.221542
-67.325821 46.358265 17.980089
-67.304214 46.355038 17.727135
-67.28347 46.364582 17.487499
-67.261848 46.347363 17.230677
-67.241409 46.351089 16.993055
-67.220139 46.327774 16.738731
-67.200638 46.342014 16.514885
-67.180649 46.337326 16.280281
-67.161407 46.346344 16.058065
-67.142296 46.352825 15.836636
-67.123016 46.348461 15.610491
-67.104164 46.349865 15.390787
-67.085167 46.340355 15.166569
-67.066856 46.345215 14.95401
-67.04866 46.347706 14.742226
-67.030586 46.347847 14.53124
-67.012634 46.345646 14.321075
-66.995277 46.358418 14.121785
-66.336166 46.170898 6.3741398
-66.322105 46.241493 6.228313
-66.308792 46.241417 6.0726967
-66.295395 46.249889 5.9184198
-66.282814 46.197353 5.7576981
-66.270088 46.16325 5.6000223
-66.256721 46.177521 5.4475975
-66.243683 46.170521 5.2934175
-66.230537 46.172134 5.1402049
-66.217422 46.172398 4.9870677
-66.204178 46.181297 4.8345752
-66.191132 46.178875 4.6815381
-66.178322 46.165119 4.5282283
-66.165169 46.170002 4.3758078
-66.152039 46.173553 4.2233472
-66.138947 46.175766 4.0708594
-66.126091 46.166645 3.9183192
-66.112602 46.186184 3.765794
-66.099823 46.174393 3.613343
-66.087082 46.16127 3.4610841
-66.073898 46.166801 3.3084052
-66.060722 46.170994 3.1555939
-66.048103 46.153873 3.003634
-66.034714 46.165367 2.8501947
-66.021896 46.15556 2.6978035
-66.008247 46.17432 2.543262
-65.995186 46.171783 2.389966
-65.98185 46.177849 2.2356889
-65.969139 46.162659 2.0832009
-68.22541 46.478226 28.057802
-68.081436 46.482033 26.375031
-68.044304 46.446087 25.931698
-68.010124 46.435467 25.529282
-67.975708 46.412766 25.121078
-67.94313 46.403713 24.737736
-67.908806 46.363152 24.325989
-67.878281 46.363007 23.968967
-67.678848 46.339607 21.630026
-67.652939 46.344852 21.328211
-67.626785 46.338997 21.020708
-67.600838 46.329117 20.71464
-67.576385 46.337132 20.430527
-67.55294 46.356239 20.161079
-67.527596 46.334915 19.859076
-67.504494 46.347031 19.59185
-67.481155 46.348293 19.319063
-67.457207 46.330967 19.034449
-67.435005 46.340591 18.777056
-67.412201 46.331669 18.507914
-67.389954 46.327148 18.246363
-67.368965 46.342838 18.004711
-67.347397 46.339928 17.751545
-67.326347 46.341858 17.505606
-67.305786 46.348808 17.266718
-67.284691 46.336891 17.016829
-67.264755 46.346184 16.785835
-67.244308 46.336533 16.544041
-67.225601 46.364895 16.332138
-67.205742 46.35799 16.098
-67.186043 46.348351 15.864927
-67.167374 46.360962 15.649553
-67.148247 46.354412 15.423951
-67.129257 46.345272 15.199358
-67.110962 46.350494 14.986431
-67.092514 46.34483 14.769033
-67.074203 46.336716 14.552579
-67.056526 46.343376 14.347279
-67.038467 46.330505 14.13264
-67.00415 46.349976 13.735643
-66.952995 46.345634 13.135527
-66.936295 46.345837 12.94006
-66.380501 46.16864 6.3839931
-66.366508 46.239357 6.2379413
-66.353203 46.239407 6.0820632
-66.339714 46.257935 5.9286971
-66.326981 46.215473 5.7686806
-66.314484 46.16161 5.6085596
-66.301285 46.166035 5.4549708
-66.287971 46.179073 5.3022552
-66.274979 46.170834 5.1479573
-66.261559 46.191162 4.9958549
-66.248657 46.180214 4.8418055
-66.235451 46.187881 4.6889782
-66.222633 46.174232 4.5353107
-66.209488 46.179218 4.3825417
-66.19696 46.152878 4.2290883
-66.183479 46.175179 4.0767665
-66.170425 46.176147 3.9239984
-66.157616 46.165783 3.7712708
-66.144402 46.174076 3.6184571
-66.131432 46.171036 3.4657073
-66.118256 46.176647 3.31268
-66.104843 46.190907 3.1591263
-66.092461 46.163872 3.0072005
-66.079353 46.165459 2.8539839
-66.065994 46.175671 2.7000155
-66.052925 46.174557 2.5465288
-66.039871 46.172089 2.3929682
-66.027138 46.158318 2.2402596
-66.01445 46.143208 2.0876739
-68.061127 46.464241 25.617907
-68.026611 46.442482 25.209087
-67.991364 46.401993 24.787098
-67.960518 46.407799 24.427839
-67.927895 46.382271 24.040108
-67.896049 46.357994 23.661829
-67.865952 46.348663 23.307642
-67.837074 46.348099 22.969765
-67.753174 46.340164 21.986729
-67.725647 46.328789 21.662043
-67.699257 46.327316 21.352968
-67.673058 46.321796 21.045277
-67.647514 46.319485 20.745909
-67.623024 46.327877 20.461546
-67.599564 46.347355 20.191854
-67.574577 46.333828 19.896286
-67.550621 46.331429 19.615471
-67.52887 46.36311 19.368773
-67.504448 46.338737 19.077187
-67.481422 46.333546 18.806524
-67.459335 46.340378 18.549856
-67.438164 46.359577 18.306818
-67.41526 46.336842 18.033377
-67.394012 46.342133 17.786108
-67.372559 46.336536 17.533726
-67.352318 46.351788 17.300598
-67.331169 46.340256 17.050356
-67.310524 46.333775 16.807232
-67.291023 46.34877 16.582691
-67.270996 46.344845 16.34737
-67.251427 46.346382 16.118765
-67.231995 46.345276 15.891084
-67.212997 46.349865 15.66989
-67.193245 46.326836 15.433139
-67.175087 46.343105 15.224644
-67.156754 46.348618 15.011426
-67.137726 46.326225 14.783243
-67.120438 46.352535 14.587318
-67.101944 46.333763 14.366286
-67.084343 46.338421 14.161459
-67.067093 46.349533 13.962294
-67.049477 46.341057 13.753977
-67.032204 46.339066 13.551369
-66.964874 46.336155 12.762474
-66.932121 46.335709 12.378981
-66.410599 46.217873 6.2429709
-66.397179 46.227932 6.0882654
-66.383789 46.236626 5.9335623
-66.370781 46.214134 5.7756138
-66.358086 46.170326 5.6162105
-66.344978 46.164906 5.4613638
-66.331924 46.158112 5.3067408
-66.318771 46.159924 5.1530929
-66.305649 46.160385 4.9995193
-66.292404 46.169479 4.8465981
-66.279175 46.177235 4.6936011
-66.265976 46.183647 4.5405397
-66.253166 46.168732 4.3868132
-66.239838 46.182457 4.2340508
-66.226913 46.17485 4.080821
-66.214035 46.165901 3.9277472
-66.200981 46.165607 3.7747998
-66.188187 46.15398 3.6219864
-66.174973 46.161011 3.4689329
-66.161537 46.176685 3.3154316
-66.14859 46.171032 3.1624026
-66.135681 46.16404 3.0094256
-66.122543 46.165688 2.8559494
-66.109688 46.156013 2.7030251
-66.096329 46.164936 2.5487144
-66.082977 46.172493 2.394156
-66.069916 46.168728 2.2402718
-66.057472 46.143715 2.08833
-68.069275 46.468678 25.274446
-68.036102 46.454712 24.88237
-68.002686 46.428722 24.484625
-67.970581 46.410355 24.103924
-67.939735 46.400032 23.739988
-67.910133 46.398182 23.392532
-67.878319 46.357624 23.010036
-67.820328 46.329834 22.323696
-67.792633 46.32296 21.997353
-67.76561 46.318787 21.679615
-67.739258 46.317524 21.370352
-67.713547 46.319386 21.069424
-67.687592 46.310108 20.762907
-67.664886 46.347878 20.505665
-67.639732 46.338387 20.208464
-67.615196 46.33247 19.919399
-67.59127 46.330326 19.638321
-67.568748 46.347206 19.378216
-67.545158 46.338139 19.099504
-67.522156 46.333199 18.828571
-67.49894 46.317184 18.552515
-67.47744 46.328709 18.303101
-67.456451 46.345032 18.060843
-67.434494 46.334892 17.80089
-67.414146 46.353222 17.566603
-67.392502 46.336941 17.308928
-67.371384 46.325535 17.058542
-67.351791 46.343395 16.832952
-67.330978 46.326172 16.584764
-67.311966 46.346836 16.366625
-67.292099 46.340366 16.13205
-67.27269 46.339432 15.90415
-67.25341 46.335865 15.677199
-67.234276 46.329685 15.451227
-67.216431 46.35458 15.247828
-67.197548 46.343418 15.023603
-67.179352 46.346714 14.810928
-67.161537 46.356201 14.604216
-67.142792 46.329029 14.377786
-67.125465 46.34248 14.177751
-67.107994 46.345097 13.973334
-67.056221 46.339695 13.364609
-66.989571 46.337959 12.582005
-66.452019 46.217758 6.2430668
-66.438522 46.237785 6.0893598
-66.42524 46.236603 5.9331355
-66.412331 46.204212 5.773838
-66.39975 46.150486 5.6132579
-66.386414 46.165001 5.4601483
-66.373367 46.158241 5.3052626
-66.360077 46.170059 5.1520925
-66.34726 46.150604 4.9968619
-66.33403 46.159721 4.8437643
-66.320671 46.177483 4.691071
-66.307823 46.16394 4.5369596
-66.294846 46.159039 4.38345
-66.281548 46.172779 4.2305107
-66.26825 46.185181 4.0773687
-66.255966 46.146255 3.9238083
-66.242737 46.155975 3.7707293
-66.229515 46.164352 3.6174817
-66.21653 46.161388 3.4642932
-66.203117 46.177074 3.3105288
-66.190414 46.161434 3.1576254
-66.177513 46.154446 3.0044718
-66.164146 46.166077 2.850256
-66.15155 46.146423 2.6977181
-66.138481 46.145378 2.543968
-66.125427 46.142979 2.3901434
-66.111565 46.16909 2.2335265
-66.099396 46.134121 2.0823183
-68.075668 46.467705 24.906765
-68.042831 46.448402 24.516287
-68.01078 46.430252 24.135244
-67.979492 46.413483 23.763527
-67.948463 46.391579 23.393654
-67.91819 46.37138 23.032997
-67.889137 46.359966 22.688694
-67.860786 46.35083 22.353252
-67.832664 46.337189 22.019407
-67.805237 46.326122 21.694284
-67.778488 46.317852 21.377756
-67.752846 46.319756 21.076633
-67.726952 46.310516 20.769928
-67.702568 46.31916 20.48517
-67.679222 46.338894 20.215075
-67.655167 46.340435 19.93251
-67.630455 46.323448 19.637903
-67.607178 46.32526 19.364519
-67.584473 46.331242 19.098808
-67.561134 46.318645 18.821304
-67.539925 46.341053 18.577026
-67.517311 46.329529 18.308292
-67.496002 46.338097 18.059582
-67.474098 46.327942 17.799492
-67.453445 46.338352 17.558954
-67.432571 46.337948 17.313269
-67.411499 46.32658 17.062675
-67.39093 46.320267 16.819193
-67.370514 46.311054 16.576828
-67.351891 46.339844 16.364349
-67.332718 46.349823 16.140984
-67.313026 46.340698 15.907186
-67.293793 46.337173 15.680015
-67.275291 46.347778 15.464744
-67.25573 46.3223 15.228638
-67.2369 46.310986 15.004486
-67.219894 46.348186 14.81284
-67.201309 46.332039 14.590395
-67.183395 46.33057 14.379248
-67.166115 46.344059 14.178976
-67.14843 46.338024 13.969387
-67.131104 46.338413 13.765553
-67.113892 46.336597 13.56248
-67.046761 46.334358 12.771706
-67.014107 46.334229 12.387259
-66.965942 46.323643 11.81779
-66.507629 46.148621 6.3797932
-66.493874 46.209534 6.2317867
-66.480415 46.229511 6.0778928
-66.467255 46.218346 5.9203248
-66.454468 46.175949 5.7598724
-66.441345 46.171898 5.604291
-66.428375 46.156509 5.4480124
-66.415352 46.149696 5.2929525
-66.402237 46.151482 5.138864
-66.38887 46.171871 4.986146
-66.375954 46.160976 4.8314829
-66.363091 46.14872 4.6770916
-66.349625 46.175072 4.5245352
-66.336662 46.170105 4.370676
-66.32338 46.183784 4.2173781
-66.310852 46.156136 4.0633698
-66.297813 46.157127 3.909986
-66.284393 46.176773 3.7565033
-66.271599 46.165081 3.6030805
-66.258423 46.172039 3.4494081
-66.245918 46.147671 3.2965145
-66.232788 46.151939 3.1428261
-66.219681 46.154858 2.989017
-66.206337 46.166405 2.8345306
-66.193504 46.156635 2.6810837
-66.180443 46.155495 2.5269833
-66.167404 46.153 2.3728092
-66.154114 46.159096 2.2176585
-66.14196 46.124039 2.0662916
-67.99498 46.438686 23.440044
-67.963638 46.405167 23.064259
-67.935005 46.400803 22.726799
-67.906105 46.384972 22.383698
-67.876495 46.350513 22.028053
-67.849495 46.346504 21.709766
-67.822693 46.338291 21.392937
-67.796097 46.325901 21.077614
-67.770164 46.316601 20.770729
-67.745316 46.317902 20.478956
-67.721947 46.33754 20.208719
-67.697014 46.324139 19.912643
-67.674393 46.344307 19.65118
-67.650238 46.331127 19.364347
-67.627098 46.329475 19.09194
-67.605331 46.34737 18.840031
-67.583298 46.354515 18.582611
-67.55986 46.32748 18.301027
-67.538147 46.328144 18.045948
-67.516968 46.33358 17.798119
-67.495186 46.320194 17.539095
-67.475029 46.335548 17.305452
-67.454628 46.340145 17.066635
-67.434364 46.341927 16.82876
-67.413895 46.332779 16.58605
-67.393913 46.32893 16.350229
-67.375053 46.347012 16.132454
-67.355019 46.329525 15.892924
-67.335449 46.317543 15.660159
-67.317558 46.34473 15.455786
-67.298546 46.33601 15.230316
-67.280548 46.350117 15.021802
-67.261803 46.336391 14.798208
-67.243744 46.337238 14.586021
-67.226067 46.344345 14.379737
-67.207977 46.331902 14.164126
-67.190773 46.343132 13.964335
-67.173416 46.343491 13.760274
-67.15593 46.332863 13.552193
-66.574646 46.262932 6.6964998
-66.548485 46.161282 6.3657794
-66.534866 46.202309 6.2147141
-66.521484 46.212265 6.0593853
-66.508034 46.230785 5.9052191
-66.495285 46.17836 5.7433834
-66.482231 46.164261 5.5865593
-66.469231 46.148766 5.4301205
-66.455818 46.171741 5.2773337
-66.442917 46.153496 5.1213565
-66.429939 46.143848 4.9664421
-66.416435 46.172768 4.8140011
-66.403526 46.160404 4.6592727
-66.390511 46.156677 4.505208
-66.377365 46.161587 4.3515592
-66.364243 46.165154 4.1978707
-66.351318 46.157379 4.0440359
-66.337875 46.178249 3.8904543
-66.325012 46.167778 3.736686
-66.311989 46.165962 3.582957
-66.298988 46.1628 3.4292471
-66.286026 46.158291 3.2755682
-66.273087 46.152435 3.1219318
-66.259941 46.15522 2.9678597
-66.247055 46.146671 2.8142567
-66.233711 46.156727 2.6594048
-66.220367 46.165417 2.5042951
-66.207291 46.162769 2.3497765
-66.194504 46.148808 2.1961212
-66.182579 46.103668 2.0456202
-67.986801 46.434418 22.757126
-67.958183 46.425705 22.420813
-67.929306 46.405483 22.078974
-67.902565 46.408909 21.767153
-67.873207 46.365501 21.414663
-67.847343 46.367607 21.112865
-67.821213 46.358555 20.805498
-67.795288 46.345497 20.499607
-67.770004 46.335823 20.201986
-67.745789 46.337158 19.919174
-67.721306 46.327431 19.630968
-67.699554 46.359268 19.383484
-67.675003 46.334961 19.091228
-67.651886 46.329868 18.819847
-67.630539 46.352234 18.575144
-67.607346 46.332859 18.299747
-67.585114 46.325672 18.038254
-67.563805 46.331028 17.790293
-67.542267 46.325478 17.537235
-67.52198 46.340809 17.303385
-67.501823 46.353413 17.070309
-67.480713 46.33905 16.820412
-67.460464 46.337952 16.583384
-67.441032 46.350445 16.358829
-67.420715 46.33567 16.11804
-67.401207 46.334618 15.889645
-67.381828 46.330933 15.6622
-67.36351 46.349777 15.452076
-67.344681 46.349449 15.231777
-67.325974 46.346638 15.012366
-67.307396 46.341351 14.793871
-67.289505 46.350739 14.586621
-67.271156 46.340641 14.369885
-67.253212 46.336777 14.159145
-67.235649 46.339287 13.9542
-67.218185 46.339573 13.749995
-67.183586 46.333538 13.343898
-66.589088 46.173809 6.3518734
-66.575325 46.224674 6.2017608
-66.561836 46.23457 6.0459991
-66.548546 46.223221 5.887938
-66.535591 46.180634 5.7270427
-66.522537 46.15649 5.5689979
-66.509125 46.170769 5.4150805
-66.496193 46.143833 5.2578211
-66.482719 46.165359 5.1047397
-66.469635 46.155613 4.9494915
-66.456467 46.154484 4.7950506
-66.443329 46.151997 4.6407094
-66.430229 46.148155 4.4864802
