# .PCD v0.7 - Point Cloud Data file format
VERSION 0.7
FIELDS x y z
SIZE 4 4 4
TYPE F F F
COUNT 1 1 1
WIDTH 1559
HEIGHT 1
VIEWPOINT 0 0 0 1 0 0 0
POINTS 1559
DATA ascii
-66.445702 45.480232 2.4838524
-66.418526 45.454777 2.1737585
-66.862663 45.666836 6.714592
-66.848709 45.657154 6.5543218
-66.834724 45.665905 6.396697
-66.821114 45.603664 6.231648
-66.807404 45.579716 6.0717402
-66.793625 45.574257 5.9141703
-66.779892 45.567406 5.7568245
-66.766037 45.579109 5.6011481
-66.75219 45.589451 5.445374
-66.738747 45.558487 5.2873425
-66.724854 45.576065 5.1322112
-66.711296 45.562313 4.9757366
-66.697548 45.567177 4.8201237
-66.683556 45.590672 4.6648631
-66.670227 45.562813 4.5086856
-66.656395 45.573586 4.3531013
-66.642715 45.572994 4.1974053
-66.629219 45.561039 4.0418711
-66.615585 45.557724 3.8862917
-66.601807 45.563038 3.7304189
-66.588577 45.53701 3.5756559
-66.574837 45.539597 3.4197972
-66.560913 45.550793 3.2632461
-66.546783 45.570583 3.1057546
-66.532845 45.579002 2.948595
-66.519341 45.566109 2.7928863
-66.505188 45.581715 2.6344931
-66.493828 45.476563 2.4879467
-66.908379 45.650623 6.7202301
-66.894493 45.660892 6.5622501
-66.880775 45.630032 6.3996577
-66.867134 45.597702 6.2377691
-66.853577 45.563911 6.0765986
-66.839813 45.578468 5.9206285
-66.826118 45.581692 5.7637281
-66.812523 45.573559 5.6061697
-66.798805 45.583996 5.4501271
-66.785278 45.573097 5.2929039
-66.771698 45.570801 5.1364126
-66.758041 45.577122 4.9804063
-66.744514 45.572083 4.8240619
-66.730888 45.575668 4.6680517
-66.717285 45.577888 4.5120144
-66.703972 45.558746 4.3559098
-66.690132 45.578228 4.1999049
-66.676888 45.556355 4.0441532
-66.663376 45.553108 3.8882992
-66.649551 45.568489 3.7318337
-66.635719 45.582489 3.5750647
-66.622612 45.555164 3.4199865
-66.608612 45.576397 3.2624111
-66.595177 45.566307 3.1064026
-66.581566 45.564819 2.9497297
-66.567764 45.571911 2.7921443
-66.554176 45.567657 2.6352572
-66.541954 45.502346 2.4844184
-66.95562 45.624733 6.7239714
-66.941803 45.645008 6.5671449
-66.928024 45.65398 6.4089885
-66.914482 45.601898 6.2444181
-66.901009 45.55827 6.0818944
-66.887321 45.572926 5.9256625
-66.873695 45.576248 5.7684951
-66.860168 45.568211 5.6106653
-66.846603 45.568764 5.4537206
-66.833061 45.567932 5.2968621
-66.81945 45.575714 5.1405659
-66.805962 45.572132 4.9838285
-66.792496 45.567177 4.8272133
-66.778946 45.570847 4.6709356
-66.765289 45.583141 4.5147471
-66.752022 45.564075 4.3582788
-66.738258 45.583633 4.2019262
-66.72477 45.581825 4.0455213
-66.711296 45.578644 3.8891363
-66.698166 45.554111 3.7334187
-66.684586 45.558189 3.5768778
-66.670845 45.570881 3.4197273
-66.657639 45.552238 3.2640319
-66.643906 45.562168 3.1065938
-66.630363 45.560738 2.949652
-66.616432 45.57785 2.7909627
-66.603111 45.563683 2.6346443
-66.590904 45.498417 2.4835114
-67.00132 45.629284 6.7280521
-66.987534 45.639729 6.5696368
-66.973801 45.628906 6.4089022
-66.960152 45.606712 6.2474513
-66.933006 45.567936 5.9270926
-66.919388 45.571323 5.7696643
-66.905792 45.573326 5.6122971
-66.892288 45.563965 5.4543633
-66.878746 45.563194 5.2972422
-66.86515 45.571033 5.1406851
-66.851654 45.567509 4.9836841
-66.838188 45.562607 4.8268046
-66.824532 45.576321 4.6704712
-66.811111 45.568672 4.5136971
-66.797592 45.569649 4.3571129
-66.783966 45.57925 4.2004695
-66.770752 45.557487 4.044085
-66.757149 45.564346 3.8873813
-66.743553 45.569832 3.7305355
-66.730125 45.56395 3.5739615
-66.716385 45.576668 3.4164641
-66.702988 45.568031 3.2598391
-66.68943 45.568005 3.1026301
-66.67588 45.566593 2.9453387
-66.662544 45.553833 2.7888134
-66.649025 45.549656 2.6314802
-66.636787 45.484417 2.4801576
-66.623787 45.457649 2.325455
-67.047218 45.62521 6.7237573
-67.033394 45.645596 6.5663276
-67.01963 45.62487 6.4040918
-67.005936 45.602684 6.2423859
-66.992371 45.559147 6.0792527
-66.978699 45.563931 5.9215155
-66.965141 45.54739 5.7622032
-66.951477 45.559357 5.6054754
-66.937874 45.559971 5.448009
-66.92437 45.549217 5.2900763
-66.910667 45.567039 5.1338105
-66.897224 45.553516 4.976172
-66.883537 45.568592 4.8197031
-66.870056 45.562305 4.6626115
-66.856384 45.574642 4.5059009
-66.842827 45.575603 4.3489695
-66.829529 45.555195 4.1921468
-66.815628 45.583405 4.0349631
-66.802116 45.580242 3.8779681
-66.78862 45.575706 3.7210045
-66.775146 45.569794 3.5640848
-66.761856 45.552521 3.4077115
-66.748093 45.563831 3.2498462
-66.734856 45.543816 3.0937066
-66.720924 45.562321 2.9348273
-66.707352 45.55949 2.7772069
-66.693794 45.555267 2.6195288
-66.681686 45.48003 2.4688816
-66.654953 45.454845 2.1557393
-67.093513 45.621845 6.7156358
-67.079643 45.642216 6.5579419
-67.065796 45.641338 6.3977661
-67.052101 45.579384 6.2313643
-67.024666 45.570431 5.9130239
-67.011002 45.563843 5.7541819
-66.997322 45.565823 5.5962963
-66.983727 45.556431 5.4378495
-66.970039 45.565617 5.2807589
-66.956497 45.553444 5.1226697
-66.942924 45.549873 4.9652386
-66.929283 45.55492 4.808218
-66.915657 45.558586 4.6511579
-66.902046 45.560883 4.4940701
-66.888451 45.561798 4.336966
-66.874985 45.551342 4.1799188
-66.861298 45.559505 4.0227599
-66.847748 45.556293 3.8656807
-66.834358 45.541714 3.7089546
-66.820557 45.555737 3.5512238
-66.807373 45.528423 3.3951788
-66.793251 45.559643 3.2360628
-66.779442 45.569496 3.077668
-66.765984 45.558006 2.9205277
-66.738747 45.550812 2.6047156
-66.726952 45.455612 2.4558651
-66.699707 45.450169 2.1401882
-67.137909 45.638607 6.7085361
-67.124016 45.619282 6.545455
-67.110161 45.628292 6.3863435
-67.096375 45.596123 6.2229877
-67.082687 45.552525 6.0593705
-67.068954 45.557251 5.9011121
-67.055237 45.560585 5.7429037
-67.041534 45.562523 5.5847573
-67.027863 45.563072 5.4266849
-67.014145 45.57222 5.2692432
-67.000641 45.550014 5.1103539
-66.986969 45.556389 4.9530344
-66.973389 45.551392 4.7953801
-66.959656 45.565002 4.6382542
-66.946022 45.567242 4.4808173
-66.932396 45.568104 4.3233652
-66.918892 45.557587 4.1659741
-66.905304 45.555687 4.0086145
-66.891739 45.552414 3.8512759
-66.878181 45.54776 3.6939702
-66.864502 45.55172 3.5362976
-66.851135 45.534321 3.3795049
-66.837326 45.545502 3.2211986
-66.823502 45.555283 3.0626259
-66.810028 45.54372 2.9053168
-66.782578 45.546333 2.5882289
-66.743416 45.445427 2.1229658
-67.22377 45.674984 7.1895466
-67.181831 45.635685 6.6981397
-67.167969 45.636173 6.5372686
-67.154137 45.635231 6.3765702
-67.140381 45.573204 6.2097001
-67.126686 45.549454 6.0479579
-67.113014 45.544178 5.8885465
-67.099304 45.55743 5.7309585
-67.08564 45.559326 5.572546
-67.071899 45.579788 5.4154615
-67.058426 45.54895 5.2554183
-67.044708 45.566647 5.098259
-67.031197 45.552986 4.9397655
-67.01757 45.557926 4.7821274
-67.003952 45.561485 4.6244502
-66.99044 45.553665 4.4666419
-66.976852 45.554462 4.3090105
-66.963066 45.573875 4.1512399
-66.949608 45.561909 3.9935975
-66.93618 45.548569 3.8361506
-66.922531 45.553837 3.678252
-66.908875 45.557716 3.5202253
-66.89537 45.550224 3.3625855
-66.881889 45.541351 3.2050152
-66.86795 45.561028 3.0454962
-66.854492 45.549377 2.887841
-66.840706 45.556271 2.7285912
-66.827454 45.531891 2.5719228
-66.815376 45.446472 2.4216964
-67.267281 45.671844 7.1813126
-67.22551 45.632496 6.6891232
-67.2117 45.623039 6.5267572
-67.197945 45.641933 6.3681631
-67.184219 45.569942 6.1999078
-67.170578 45.546165 6.0379076
-67.15696 45.540863 5.8782306
-67.143349 45.544113 5.719574
-67.129715 45.555946 5.5616894
-67.11618 45.546429 5.4024611
-67.102623 45.545498 5.2440295
-67.088982 45.563152 5.0865955
-67.075455 45.559444 4.9282017
-67.061813 45.574341 4.7704811
-67.048401 45.557861 4.6119843
-67.034859 45.55999 4.4540119
-67.021233 45.570736 4.2960396
-67.008011 45.5401 4.1381817
-66.994308 45.558075 3.980058
-66.980698 45.564667 3.8218551
-66.967216 45.559875 3.6638458
-66.953758 45.553699 3.5058825
-66.94017 45.556129 3.3474705
-66.926735 45.547184 3.189549
-66.91317 45.546833 3.031029
-66.899612 45.545086 2.8724298
-66.886055 45.541943 2.7137637
-66.872513 45.537403 2.555043
-66.860619 45.441956 2.4055235
-66.846977 45.444637 2.2463942
-66.833519 45.435982 2.0882735
-68.614578 46.061142 22.605789
-67.267586 45.618885 6.6815853
-67.253906 45.619347 6.5202637
-67.240265 45.628307 6.3602552
-67.226624 45.56625 6.1928854
-67.213074 45.552425 6.0315871
-67.199554 45.547127 5.8715539
-67.186028 45.560345 5.7133322
-67.172592 45.542255 5.5528789
-67.159088 45.552685 5.3947086
-67.145683 45.541759 5.2353854
-67.132309 45.52943 5.0763354
-67.118858 45.535686 4.9182906
-67.105354 45.550556 4.760469
-67.091988 45.544048 4.6020637
-67.078644 45.536152 4.4438066
-67.065239 45.536873 4.2857218
-67.05175 45.546204 4.1275601
-67.038361 45.544151 3.9693968
-67.024879 45.550713 3.8110073
-67.011749 45.525902 3.6534855
-66.998169 45.539677 3.4946673
-66.984703 45.542072 3.3360698
-66.971382 45.533089 3.1779654
-66.957932 45.532696 3.0192609
-66.944183 45.550846 2.858938
-66.930733 45.547646 2.6999147
-66.917801 45.513184 2.5436664
-66.905441 45.447536 2.3909838
-66.892265 45.430283 2.2337289
-68.6446 46.099133 22.669783
-67.352356 45.634319 7.1684237
-67.32489 45.563366 6.8327804
-67.311584 45.624718 6.6793232
-67.29805 45.615295 6.5164146
-67.284576 45.614349 6.354991
-67.271088 45.562248 6.1884904
-67.257698 45.53849 6.0259514
-67.244354 45.543163 5.8666086
-67.231026 45.546432 5.7073169
-67.217728 45.538326 5.5473819
-67.204414 45.548767 5.3889341
-67.19117 45.537849 5.2293353
-67.177872 45.545506 5.0709014
-67.164635 45.541782 4.9120464
-67.15136 45.546661 4.7535877
-67.138161 45.540157 4.5949063
-67.124763 45.562256 4.436667
-67.111671 45.542973 4.2780218
-67.098526 45.532299 4.1196475
-67.085228 45.540241 3.9611316
-67.072021 45.536793 3.8027143
-67.058723 45.54195 3.6439948
-67.04554 45.535725 3.4855721
-67.032501 45.518127 3.3277187
-67.018967 45.539078 3.1677203
-67.005821 45.528683 3.0093365
-66.992546 45.526871 2.8502769
-66.978981 45.543583 2.6894362
-66.966347 45.499138 2.5338597
-68.61644 46.058147 22.02647
-67.396629 45.639832 7.1679316
-67.369484 45.568985 6.8315692
-67.356323 45.610554 6.6751246
-67.343033 45.621002 6.5144763
-67.329735 45.620098 6.3526897
-67.316353 45.5382 6.1826735
-67.303169 45.544312 6.0229287
-67.290009 45.549015 5.8632221
-67.276871 45.532375 5.701982
-67.263748 45.534256 5.5425625
-67.250595 45.554699 5.3844552
-67.237495 45.553787 5.2250247
-67.224442 45.541485 5.065249
-67.211388 45.537769 4.9061165
-67.198349 45.532661 4.7471085
-67.185158 45.556152 4.588789
-67.172279 45.528263 4.4296098
-67.159157 45.538979 4.2709804
-67.146027 45.548302 4.112175
-67.133072 45.53624 3.9535341
-67.119858 45.55278 3.794338
-67.10704 45.527943 3.6361792
-67.093826 45.541691 3.476717
-67.080948 45.524078 3.3185005
-67.067726 45.535027 3.1587341
-67.054497 45.544567 2.998704
-67.041672 45.522785 2.8407371
-67.028297 45.539474 2.6796176
-67.015961 45.48505 2.5247133
-67.0037 45.429306 2.3706329
-68.622612 46.075306 21.763382
-68.596748 46.058319 21.444084
-67.439125 45.62534 7.1658397
-67.412346 45.574368 6.8319001
-67.399338 45.615997 6.6750984
-67.386192 45.626499 6.514092
-67.372978 45.605778 6.3496699
-67.359734 45.5438 6.1815705
-67.346695 45.549957 6.0214663
-67.333656 45.544743 5.8605213
-67.320648 45.528137 5.699008
-67.307655 45.549999 5.5407262
-67.294655 45.560497 5.3815536
-67.281738 45.539646 5.2206988
-67.268829 45.527363 5.0607362
-67.255875 45.533661 4.9017754
-67.242973 45.528572 4.7424936
-67.229996 45.54208 4.5837159
-67.217064 45.544201 4.4246421
-67.204071 45.554932 4.2655644
-67.191154 45.554264 4.1063886
-67.178322 45.54221 3.9473865
-67.16552 45.528763 3.7885814
-67.152458 45.543911 3.6289725
-67.13958 45.537674 3.4699118
-67.126831 45.520058 3.3114216
-67.113647 45.540985 3.1507835
-67.1008 45.53056 2.9917631
-67.087845 45.528713 2.8320663
-67.07476 45.535427 2.6714456
-67.062523 45.480988 2.5162683
-67.483978 45.611008 7.1628399
-67.457298 45.560093 6.8285451
-67.444382 45.601749 6.6715627
-67.431313 45.612278 6.5103769
-67.418213 45.611446 6.348053
-67.391983 45.545753 6.0181813
-67.379005 45.540565 5.8569703
-67.366058 45.543919 5.696775
-67.353119 45.545864 5.5366421
-67.34021 45.536423 5.3759656
-67.327293 45.545536 5.2166133
-67.314407 45.543262 5.0567417
-67.301598 45.5196 4.8962665
-67.288719 45.524513 4.7370753
-67.275719 45.558029 4.5783978
-67.262932 45.540161 4.4186888
-67.250069 45.540894 4.2593336
-67.237213 45.54023 4.099977
-67.224365 45.538174 3.9406314
-67.211533 45.534718 3.7813084
-67.198708 45.529873 3.6220207
-67.185799 45.533619 3.4623551
-67.172989 45.525982 3.303087
-67.160309 45.506966 3.1444888
-67.147072 45.536446 2.9827206
-67.134171 45.534576 2.8226707
-67.121399 45.521336 2.6634142
-67.109184 45.466888 2.5080595
-67.083794 45.433517 2.1908877
-68.631073 46.040833 20.88485
-67.530716 45.616459 7.1627173
-67.504021 45.555748 6.8263288
-67.491234 45.607357 6.6703906
-67.47821 45.617928 6.5088534
-67.465149 45.617142 6.3461785
-67.413086 45.529816 5.6919136
-67.4002 45.531773 5.5316014
-67.387329 45.542305 5.3719821
-67.374474 45.541454 5.2117453
-67.361626 45.539196 5.0516076
-67.348801 45.53553 4.891582
-67.33596 45.540459 4.7319503
-67.323196 45.523994 4.5719142
-67.310333 45.536125 4.4124894
-67.297516 45.536858 4.2528677
-67.284706 45.536194 4.0932446
-67.271904 45.534134 3.9336326
-67.259109 45.530678 3.7740436
-67.246246 45.535816 3.6141512
-67.233467 45.52956 3.4545577
-67.220695 45.521912 3.2950237
-67.207741 45.532825 3.1343629
-67.194992 45.522369 2.9748108
-67.182137 45.520489 2.8145819
-67.169037 45.537125 2.6525688
-67.157211 45.45277 2.4996166
-67.131752 45.429302 2.1809704
-68.820953 46.11079 22.827423
-67.575478 45.621609 7.1644382
-67.548927 45.561035 6.8273406
-67.536255 45.612705 6.6710515
-67.52327 45.613415 6.507936
-67.510262 45.602741 6.3438544
-67.497093 45.540878 6.1748719
-67.484192 45.527237 6.011951
-67.471375 45.532066 5.8511715
-67.458534 45.515545 5.6888576
-67.445755 45.517536 5.5283632
-67.432983 45.518112 5.3679438
-67.420227 45.517284 5.2076111
-67.407463 45.535023 5.0482669
-67.39473 45.531387 4.8879714
-67.381935 45.556332 4.7286115
-67.36924 45.539894 4.568131
-67.356499 45.542046 4.4081664
-67.343857 45.522797 4.2481685
-67.331085 45.53215 4.0882854
-67.318436 45.520103 3.9285679
-67.305672 45.526657 3.7685449
-67.292976 45.521809 3.608721
-67.280128 45.535545 3.4480946
-67.267441 45.527893 3.288204
-67.254761 45.518841 3.1283848
-67.241997 45.518368 2.9679642
-67.22934 45.506516 2.8082385
-67.216362 45.523151 2.646044
-67.204315 45.458706 2.4910152
-67.191849 45.432732 2.3328562
-67.179283 45.415321 2.1738958
-68.856049 46.079403 22.833509
-68.636459 45.999577 20.049009
-68.364769 45.83202 16.59934
-67.621574 45.60664 7.1656609
-67.595276 45.556103 6.8295875
-67.582672 45.597931 6.6717267
-67.569794 45.598701 6.5084295
-67.556992 45.60796 6.3464437
-67.531059 45.532608 6.0138149
-67.518341 45.53751 5.8526802
-67.492889 45.523113 5.5291567
-67.48024 45.543716 5.3696208
-67.46756 45.532967 5.2082243
-67.454903 45.520798 5.0471001
-67.442268 45.517208 4.8866205
-67.429596 45.542198 4.7270823
-67.417023 45.5158 4.5662298
-67.404396 45.517994 4.4061689
-67.391739 45.528786 4.2461061
-67.379158 45.518177 4.0860181
-67.366394 45.546162 3.9254653
-67.353889 45.522751 3.7656603
-67.341354 45.507942 3.6059017
-67.328705 45.511719 3.4455175
-67.31604 45.514088 3.2850192
-67.303375 45.515049 3.1244183
-67.29071 45.514599 2.9637277
-67.278046 45.512733 2.8029594
-67.265381 45.509453 2.6421261
-67.253624 45.425121 2.4887912
-67.228416 45.411625 2.1682942
-68.90023 46.058342 22.843025
-68.639183 46.00552 19.525225
-68.575546 45.996346 18.716419
-68.429749 45.837425 16.857527
-67.668213 45.592434 7.1640129
-67.64209 45.561779 6.8303857
-67.629517 45.603672 6.6721787
-67.616585 45.594574 6.5073066
-67.603806 45.603878 6.3450589
-67.590622 45.532192 6.1743908
-67.565125 45.52359 5.8496237
-67.552437 45.527103 5.6883616
-67.539764 45.529198 5.5271616
-67.527084 45.519894 5.3654146
-67.514435 45.519154 5.2044616
-67.501801 45.507008 5.04316
-67.489182 45.503437 4.8825035
-67.476547 45.528446 4.7227888
-67.463943 45.522064 4.5621305
-67.451279 45.544277 4.401917
-67.438721 45.525085 4.2412934
-67.426147 45.514488 4.0809412
-67.413513 45.522488 3.9204495
-67.400864 45.529079 3.7598064
-67.388329 45.514271 3.5996964
-67.375748 45.50806 3.4393847
-67.363106 45.510433 3.2786224
-67.350304 45.531353 3.1165648
-67.337639 45.530888 2.9554369
-67.325256 45.499096 2.7965426
-67.312408 45.515743 2.6338189
-67.30072 45.421436 2.481075
-68.953339 46.053768 22.849508
-68.691254 46.009327 19.535978
-68.669342 46.001839 19.258724
-68.648003 45.998833 18.988914
-68.424416 45.830555 16.156597
-68.406044 45.824097 15.924066
-68.387375 45.80648 15.687344
-68.369957 45.811863 15.467246
-68.352608 45.814831 15.247931
-68.334587 45.798077 15.019443
-68.317024 45.78746 14.797005
-67.713623 45.589947 7.1549306
-67.687309 45.559238 6.8208113
-67.674683 45.601101 6.662333
-67.661736 45.601902 6.4984336
-67.648743 45.591309 6.3335695
-67.635551 45.539467 6.1648641
-67.622704 45.535858 6.0020366
-67.609871 45.530804 5.8394189
-67.597099 45.534283 5.677814
-67.584244 45.506416 5.5141621
-67.571533 45.517017 5.35357
-67.5588 45.516228 5.1923618
-67.546089 45.52401 5.0316949
-67.533379 45.510403 4.870255
-67.520668 45.525364 4.7099185
-67.507965 45.528923 4.5491891
-67.4953 45.511078 4.3882442
-67.48259 45.521824 4.2276573
-67.469902 45.521164 4.0669746
-67.457214 45.519096 3.9063029
-67.44458 45.505627 3.745908
-67.431915 45.500748 3.5853825
-67.419258 45.494469 3.4249048
-67.406471 45.506752 3.263459
-67.393593 45.527599 3.1011367
-67.381012 45.507099 2.9411297
-67.368187 45.515118 2.7790692
-67.355545 45.501778 2.6184938
-67.343628 45.417351 2.4646747
-67.330833 45.421154 2.3028915
-69.014893 46.073402 22.859951
-68.748833 46.013649 19.530569
-68.726196 45.998253 19.246929
-68.406708 45.826477 15.244397
-68.388855 45.818359 15.020621
-68.319695 45.796593 14.154336
-68.302956 45.794159 13.944636
-68.285934 45.780579 13.731215
-67.759842 45.589535 7.1365781
-67.733208 45.558605 6.8019929
-67.720444 45.600365 6.6432276
-67.707268 45.591125 6.4778662
-67.694191 45.590343 6.3139768
-67.680824 45.53838 6.145071
-67.654739 45.509552 5.8174014
-67.641907 45.532833 5.6572781
-67.62899 45.534767 5.4954834
-67.616112 45.545258 5.3343711
-67.603188 45.534367 5.1721334
-67.590294 45.522049 5.010169
-67.577431 45.528294 4.849184
-67.564568 45.533127 4.6881504
-67.551727 45.516556 4.5267353
-67.538879 45.518566 4.3658147
-67.526031 45.519173 4.2048821
-67.513191 45.518368 4.0439496
-67.50032 45.52615 3.8828537
-67.487526 45.512531 3.7221341
-67.474594 45.527485 3.5605769
-67.461761 45.521042 3.3995938
-67.449005 45.503201 3.2391958
-67.436127 45.503922 3.0778251
-67.423164 45.513203 2.9156697
-67.410187 45.521049 2.7532656
-67.397377 45.507538 2.5923662
-67.385277 45.422939 2.4382887
-69.073227 46.058388 22.834688
-68.849495 46.000885 20.064175
-68.827385 46.007645 19.790594
-68.805367 46.01107 19.518112
-68.782959 46.003349 19.240568
-68.321846 45.803604 13.52549
-68.305443 45.803497 13.322255
-68.255981 45.772305 12.708672
-67.804993 45.569645 7.1143746
-67.778145 45.548332 6.7810454
-67.765327 45.59988 6.6233683
-67.752068 45.600445 6.458971
-67.738686 45.579674 6.2925134
-67.725212 45.537518 6.1245265
-67.71199 45.523705 5.9602637
-67.698853 45.518394 5.7972445
-67.68573 45.511642 5.63445
-67.672676 45.513432 5.4725776
-67.659653 45.523777 5.3113794
-67.646606 45.522724 5.1495862
-67.633568 45.520252 4.9878945
-67.620552 45.526356 4.8266535
-67.607536 45.521049 4.6651154
-67.594528 45.52433 4.5038786
-67.581512 45.526196 4.3426185
-67.568504 45.526649 4.1813478
-67.555527 45.51569 4.0201774
-67.542465 45.533318 3.8586388
-67.529503 45.519539 3.6975951
-67.516609 45.494358 3.5371227
-67.503586 45.497753 3.3757107
-67.490433 45.519699 3.2131221
-67.477516 45.500282 3.0525665
-67.464478 45.49942 2.8908591
-67.451271 45.517067 2.7274916
-67.438301 45.503384 2.5663557
-69.12709 46.068645 22.840942
-68.877884 45.994701 19.775457
-68.834137 46.005772 19.237701
-68.304062 45.800835 12.712401
-68.271873 45.790901 12.316047
-68.255417 45.769077 12.113153
-67.821655 45.57708 6.7687268
-67.808372 45.588905 6.6053705
-67.79493 45.579437 6.4396124
-67.781441 45.558552 6.2730918
-67.767853 45.516273 6.1050596
-67.754654 45.522255 5.9426007
-67.741463 45.526806 5.7801824
-67.728233 45.519958 5.6170535
-67.715057 45.521645 5.4548402
-67.701897 45.521908 5.2927041
-67.688713 45.510757 5.1301556
-67.675613 45.528152 4.9691305
-67.662491 45.534145 4.8075438
-67.649353 45.518726 4.6454277
-67.63623 45.521885 4.4839344
-67.623131 45.51363 4.322351
-67.610023 45.513962 4.1609135
-67.596939 45.502876 3.9995844
-67.583847 45.500381 3.8382514
-67.570679 45.516468 3.6763854
-67.557541 45.521133 3.5145781
-67.54454 45.494411 3.3540108
-67.531403 45.49625 3.1922328
-67.518196 45.506645 3.0297301
-67.505188 45.485687 2.869112
-67.491882 45.503197 2.7055643
-67.478897 45.479412 2.5451608
-67.4664 45.404472 2.3899283
-67.453201 45.407772 2.227385
-69.173843 46.068298 22.844164
-68.901863 45.997551 19.50407
-68.880249 46.005356 19.238649
-68.28511 45.790829 11.924211
-68.269035 45.774223 11.72642
-68.253609 45.774223 11.536768
-68.238228 45.772343 11.34769
-67.864853 45.565529 6.7542343
-67.851639 45.5872 6.5919752
-67.838234 45.587593 6.427155
-67.824532 45.546772 6.2580976
-67.797668 45.510315 5.9272861
-67.784508 45.52475 5.7655368
-67.771225 45.517822 5.6021538
-67.758018 45.519432 5.4396806
-67.744812 45.519615 5.2772856
-67.731613 45.518372 5.1149812
-67.71843 45.515701 4.9527807
-67.705276 45.521603 4.791018
-67.692093 45.506096 4.6287389
-67.678947 45.519161 4.4672198
-67.665802 45.510811 4.3053827
-67.652657 45.511044 4.1436853
-67.639488 45.519863 3.981879
-67.626366 45.507267 3.8203137
-67.613228 45.503254 3.658664
-67.600098 45.497826 3.4970548
-67.586823 45.520954 3.3341181
-67.573624 45.522667 3.1718194
-67.560486 45.512978 3.0100584
-67.547279 45.511845 2.8476667
-67.534073 45.509285 2.685204
-67.521278 45.455494 2.5271523
-67.495316 45.403534 2.2071171
-69.216614 46.070408 22.859407
-68.944786 46.001022 19.516443
-67.907516 45.572922 6.7470694
-67.894104 45.574745 6.5819116
-67.880707 45.575104 6.4169168
-67.867081 45.544178 6.2487998
-67.853577 45.521683 6.0824027
-67.840271 45.517612 5.918406
-67.826973 45.512093 5.7546234
-67.813751 45.515095 5.5918207
-67.800491 45.506687 5.4284186
-67.787292 45.506821 5.2658482
-67.77417 45.525505 5.1043539
-67.760971 45.522793 4.9418049
-67.747787 45.518654 4.7793722
-67.734604 45.503094 4.6168365
-67.721458 45.516106 4.4550495
-67.708305 45.507702 4.292953
-67.695152 45.507877 4.1309929
-67.682022 45.496639 3.9691532
-67.668816 45.523975 3.8066909
-67.655655 45.519894 3.6446064
-67.64254 45.504402 3.4829402
-67.629356 45.507477 3.3205731
-67.616165 45.509125 3.1580982
-67.602959 45.509346 2.995528
-67.589821 45.498161 2.8335991
-67.576622 45.495529 2.6709621
-67.563728 45.45163 2.5118582
-67.550896 45.406361 2.3534017
-67.537743 45.399502 2.1913199
-69.251137 46.035862 22.854946
-69.004662 45.99416 19.810177
-68.983047 46.005581 19.543133
-68.960518 45.998104 19.264721
-67.948059 45.558945 6.7448373
-67.935005 45.590557 6.5833187
-67.921539 45.581043 6.4167013
-67.907753 45.530289 6.2460341
-67.894295 45.50782 6.0794592
-67.881027 45.503773 5.9152842
-67.867783 45.498276 5.7513232
-67.854668 45.511272 5.5890956
-67.841492 45.512867 5.4260945
-67.828331 45.513031 5.2631717
-67.815208 45.521755 5.1008329
-67.802048 45.519062 4.9380183
-67.788902 45.514942 4.7753201
-67.775764 45.509392 4.6127501
-67.76265 45.512421 4.4504662
-67.749535 45.504025 4.2881036
-67.73642 45.51421 4.1258483
-67.723312 45.502975 3.9636557
-67.710205 45.50032 3.8014505
-67.697052 45.516235 3.638694
-67.683937 45.510735 3.4763849
-67.670822 45.503815 3.3141294
-67.657669 45.505455 3.1513891
-67.644508 45.505669 2.9885535
-67.631409 45.494476 2.8263593
-67.618172 45.501797 2.6626461
-67.605377 45.447914 2.5040879
-67.579437 45.395752 2.1830201
-67.989471 45.57357 6.7531152
-67.976181 45.575546 6.5873413
-67.962807 45.56612 6.4205399
-67.94928 45.535328 6.2518792
-67.935806 45.503014 6.0839248
-67.922852 45.528923 5.9222703
-67.90966 45.523537 5.7577791
-67.896423 45.506721 5.5927577
-67.883339 45.5084 5.4294887
-67.870201 45.498661 5.2657142
-67.857178 45.507454 5.1031966
-67.844139 45.514824 4.940608
-67.831078 45.510773 4.7776389
-67.818039 45.515293 4.6150331
-67.805 45.518391 4.452394
-67.791954 45.520061 4.2897339
-67.778915 45.510311 4.1270905
-67.765877 45.519135 3.9643993
-67.752846 45.506535 3.8019495
-67.739861 45.482521 3.6399884
-67.726761 45.507061 3.4765487
-67.71373 45.500191 3.3140216
-67.700699 45.491898 3.1515601
-67.687531 45.512123 2.9872744
-67.6745 45.500969 2.8247209
-67.661407 45.49836 2.6614625
-67.648735 45.434555 2.5035117
-67.622704 45.412308 2.1788607
-69.006866 45.988415 19.051542
-68.030502 45.558727 6.7553911
-68.017548 45.580608 6.59199
-68.004387 45.581203 6.4260211
-67.990761 45.530632 6.2546983
-67.964485 45.51442 5.9236131
-67.951424 45.509094 5.7589359
-67.938309 45.49234 5.5937257
-67.925461 45.514034 5.4316163
-67.91243 45.50436 5.2674813
-67.899475 45.503231 5.1041083
-67.88652 45.500668 4.9408379
-67.873642 45.516663 4.7783322
-67.860687 45.511242 4.6151309
-67.847748 45.504391 4.4520693
-67.834808 45.486111 4.2890964
-67.821915 45.496403 4.1263928
-67.80899 45.515274 3.9634085
-67.796082 45.502716 3.8006833
-67.783157 45.498734 3.637876
-67.770248 45.493328 3.4751093
-67.757332 45.486496 3.3123953
-67.744354 45.498211 3.1486573
-67.731438 45.488522 2.9859128
-67.71843 45.497356 2.8218215
-67.705452 45.494774 2.6582909
-67.692863 45.430992 2.5000529
-68.070374 45.564255 6.7566514
-68.057541 45.586197 6.592896
-68.044388 45.57692 6.4253783
-68.030968 45.536331 6.2548876
-67.978943 45.498234 5.592483
-67.966087 45.500011 5.4286714
-67.953293 45.51033 5.265523
-67.940445 45.509235 5.1017914
-67.927643 45.516697 4.9385748
-67.914726 45.492741 4.774323
-67.90197 45.507332 4.6114998
-67.889168 45.510498 4.4483175
-67.876343 45.502239 4.285049
-67.863525 45.482548 4.1219678
-67.850746 45.521431 3.958581
-67.837936 45.498886 3.7956927
-67.825134 45.494911 3.6326134
-67.812302 45.509499 3.4688337
-67.799515 45.492676 3.3061314
-67.786652 45.504387 3.1420352
-67.773842 45.49469 2.9789319
-67.760986 45.493542 2.8152008
-67.748131 45.490955 2.6513989
-67.735748 45.407246 2.4946692
-67.723 45.391888 2.3324344
-67.710045 45.404942 2.1671455
-68.111427 45.559692 6.7570982
-68.098312 45.551937 6.5892415
-68.085541 45.572468 6.4252977
-68.072052 45.521996 6.2534313
-68.058929 45.499794 6.0856776
-68.046013 45.496006 5.9203377
-68.033119 45.490757 5.7552099
-68.020233 45.484043 5.5903077
-68.0075 45.495831 5.426991
-67.994759 45.506191 5.2635779
-67.98201 45.515118 5.1000805
-67.969116 45.492638 4.9352717
-67.956367 45.498692 4.7719045
-67.943619 45.503315 4.60849
-67.93084 45.49651 4.4448895
-67.918106 45.50827 4.2815714
-67.90535 45.508602 4.1180921
-67.89257 45.487507 3.9548326
-67.879822 45.504974 3.7911546
-67.867058 45.501011 3.6277215
-67.854263 45.515606 3.4635901
-67.841537 45.4888 3.3009894
-67.828751 45.490536 3.1371717
-67.815956 45.490829 2.9732583
-67.803154 45.489685 2.8092613
-67.79039 45.477131 2.645997
-67.777916 45.413345 2.4872999
-68.153259 45.554996 6.7576151
-68.140251 45.557217 6.5907784
-68.127136 45.548031 6.4229064
-68.113838 45.517467 6.2531633
-68.100693 45.495319 6.0851464
-68.087769 45.491577 5.9195457
-68.07486 45.486374 5.7541561
-68.061966 45.479706 5.5889921
-68.049156 45.48156 5.4247403
-68.036476 45.501934 5.2617416
-68.023605 45.490921 5.096981
-68.010803 45.488453 4.9329104
-67.998009 45.484547 4.7689543
-67.985252 45.489197 4.6053658
-67.972496 45.492416 4.4417429
-67.959755 45.504204 4.2781644
-67.946968 45.49456 4.1144433
-67.934196 45.493481 3.9507916
-67.921425 45.480972 3.7873497
-67.908661 45.48703 3.6235468
-67.895897 45.481655 3.4599788
-67.883125 45.47485 3.2964633
-67.870308 45.486584 3.1319289
-67.857536 45.476906 2.9683828
-67.844688 45.485744 2.8034952
-67.831818 45.49313 2.6383631
-67.819351 45.419369 2.4801137
-67.793823 45.397129 2.153316
-68.193222 45.560505 6.7575831
-68.180176 45.562778 6.5904021
-68.167145 45.563568 6.4233799
-68.153801 45.533062 6.2532048
-68.140511 45.501022 6.0837336
-68.127464 45.48737 5.916851
-68.114609 45.492157 5.7520509
-68.101685 45.485527 5.5865402
-68.088844 45.487411 5.4219418
-68.075935 45.477867 5.2568316
-68.063171 45.486843 5.0929875
-68.050339 45.484394 4.9286566
-68.037521 45.480499 4.7644401
-68.024818 45.505161 4.6010723
-68.011963 45.4884 4.4367075
-67.999176 45.490196 4.2728019
-67.986366 45.480556 4.1089067
-67.973587 45.489487 3.9449744
-67.960793 45.48698 3.7810776
-67.947998 45.483036 3.6172085
-67.935188 45.497646 3.4526436
-67.922394 45.480843 3.289149
-67.909599 45.472595 3.1253517
-67.896744 45.482876 2.9603744
-67.883904 45.481724 2.7958558
-67.87101 45.489094 2.6304641
-68.261459 45.527348 7.0878401
-68.235474 45.546299 6.7542486
-68.222542 45.558521 6.5881763
-68.209839 45.58913 6.4244795
-68.196007 45.518936 6.2493525
-68.182899 45.506813 6.0817523
-68.169914 45.503151 5.9154587
-68.14399 45.491421 5.583519
-68.131126 45.493336 5.4185739
-68.118187 45.483814 5.2531161
-68.105339 45.482826 5.0884233
-68.092491 45.480392 4.9238315
-68.079643 45.476517 4.7593541
-68.066849 45.481194 4.5952439
-68.054054 45.484432 4.4310994
-68.041222 45.476238 4.2668662
-68.028435 45.486603 4.102757
-68.01561 45.475533 3.9386909
-68.0028 45.473026 3.7746201
-67.989998 45.47908 3.610296
-67.977173 45.483696 3.4458382
-67.964348 45.476875 3.2817149
-67.951553 45.458633 3.1181989
-67.93869 45.468906 2.9530478
-67.925804 45.477722 2.7876399
-67.912971 45.465141 2.6235929
-69.536194 46.066036 22.814358
-68.279129 45.552242 6.7526431
-68.265907 45.54467 6.5836649
-68.253075 45.565369 6.4186006
-68.239311 45.505119 6.2444997
-68.213158 45.489361 5.9102631
-68.200165 45.484238 5.744009
-68.187263 45.487617 5.5787401
-68.174362 45.489548 5.4135356
-68.161469 45.490025 5.2484069
-68.148575 45.489048 5.0833669
-68.135689 45.486626 4.9184289
-68.122803 45.482758 4.7536049
-68.109978 45.487438 4.5891476
-68.097061 45.470684 4.4243498
-68.08429 45.492485 4.2601423
-68.071442 45.492847 4.0956187
-68.058594 45.491772 3.9310987
-68.045715 45.469257 3.7669837
-68.032883 45.485294 3.6021173
-68.02002 45.489891 3.4373124
-68.007149 45.493042 3.2723868
-67.994293 45.474773 3.1084383
-67.981392 45.48502 2.9428535
-67.968552 45.463879 2.7791607
-67.95562 45.471214 2.6133358
-67.943047 45.38744 2.4552872
-69.584854 46.051666 22.81624
-68.347687 45.520176 7.0786405
-68.32164 45.549095 6.7453842
-68.308342 45.541515 6.5761542
-68.295319 45.552277 6.4096379
-68.281578 45.501938 6.2364912
-68.268364 45.489815 6.0684681
-68.25528 45.486149 5.9017487
-68.242302 45.490974 5.7360859
-68.229233 45.484371 5.5697155
-68.216263 45.486275 5.4042544
-68.203293 45.486725 5.2388697
-68.190254 45.475739 5.0730758
-68.177422 45.493263 4.9087915
-68.164406 45.47937 4.7433009
-68.151596 45.504013 4.5790606
-68.13855 45.477226 4.4136868
-68.125633 45.478989 4.2490029
-68.112724 45.479309 4.0843105
-68.099823 45.48819 3.9195101
-68.086868 45.46563 3.7551451
-68.073967 45.481621 3.5900178
-68.061035 45.486168 3.4249551
-68.048096 45.469288 3.2606895
-68.035133 45.490913 3.0944822
-68.022202 45.471149 2.9303615
-68.009232 45.469902 2.7650676
-67.996223 45.477173 2.5988979
-67.957695 45.370827 2.1118474
-69.64344 46.056023 22.827185
-68.392906 45.517952 7.0677366
-68.366585 45.546791 6.7339687
-68.353279 45.549084 6.5657663
-68.339981 45.549881 6.3977227
-68.32608 45.499493 6.2243519
-68.299492 45.483601 5.8891172
-68.273163 45.481709 5.5565839
-68.260056 45.483555 5.390871
-68.246864 45.473965 5.2246552
-68.233833 45.48288 5.059689
-68.220734 45.480362 4.8942456
-68.207573 45.4664 4.7285976
-68.194702 45.500965 4.5644131
-68.181541 45.484104 4.3989463
-68.168449 45.475796 4.2338653
-68.155396 45.47604 4.0689206
-68.142365 45.48484 3.9038646
-68.129311 45.492195 3.7386513
-68.116219 45.478107 3.5738726
-68.103149 45.482571 3.4085567
-68.090065 45.485577 3.2431211
-68.076965 45.487137 3.0775788
-68.063889 45.467278 2.9132171
-68.050781 45.465939 2.7476728
-68.037697 45.453171 2.5828707
-67.998665 45.366463 2.0935004
-69.706863 46.053963 22.830315
-68.43911 45.525978 7.0582972
-68.412109 45.534939 6.721159
-68.398758 45.547092 6.5540705
-68.385269 45.547836 6.385788
-68.371284 45.507336 6.2132998
-68.344177 45.481392 5.8765006
-68.317467 45.479382 5.543489
-68.304169 45.481163 5.3775349
-68.290955 45.49147 5.2122331
-68.27742 45.460381 5.0448971
-68.264214 45.467777 4.8797889
-68.251053 45.483723 4.7149363
-68.237648 45.458237 4.5489569
-68.224426 45.461292 4.3838863
-68.211281 45.482903 4.2189016
-68.19799 45.473064 4.0536633
-68.184746 45.471783 3.8884828
-68.171516 45.479053 3.7231119
-68.158249 45.474876 3.5578918
-68.144989 45.469254 3.3927147
-68.131721 45.472176 3.227124
-68.118439 45.47364 3.0614274
-68.105164 45.463673 2.8962798
-68.091843 45.472206 2.7297671
-68.078583 45.449368 2.5654609
-68.052246 45.369549 2.2407033
-69.766861 46.048359 22.832657
-68.4786 45.528759 7.0636759
-68.451279 45.547577 6.7276945
-68.437683 45.559708 6.5604186
-68.423813 45.550507 6.3907814
-68.409439 45.500027 6.2171364
-68.381981 45.483948 5.8812537
-68.368439 45.488621 5.7149982
-68.35479 45.481857 5.5480537
-68.341255 45.483593 5.3820038
-68.327721 45.483871 5.216032
-68.31411 45.472706 5.0496697
-68.300652 45.480053 4.8843746
-68.287125 45.47596 4.7187147
-68.273659 45.480412 4.5534048
-68.260193 45.48341 4.3880625
-68.246712 45.484962 4.2227011
-68.233185 45.475063 4.0573735
-68.219727 45.483719 3.8919709
-68.206207 45.470924 3.726841
-68.192711 45.466682 3.561615
-68.17923 45.470985 3.3960447
-68.165726 45.473831 3.2303567
-68.152214 45.465237 3.0651257
-68.13868 45.475155 2.8986788
-68.125153 45.463654 2.7334497
-68.111656 45.440742 2.5691495
-68.071281 45.363426 2.0780537
-69.797554 46.071026 22.93342
-68.497345 45.52182 7.1411896
-68.483337 45.516956 6.9708829
-68.470428 45.579929 6.8102579
-68.456566 45.582016 6.6412292
-68.442841 45.592537 6.4735279
-68.42778 45.502167 6.2950268
-68.413994 45.499687 6.127213
-68.400215 45.495724 5.9596004
-68.386559 45.50024 5.7930222
-68.373428 45.553154 5.630167
-68.345947 45.544941 5.2959037
-68.33226 45.543621 5.1292706
-68.31842 45.520855 4.9619694
-68.304756 45.516609 4.7957325
-68.291031 45.500904 4.6294136
-68.277435 45.503742 4.4636626
-68.263786 45.495129 4.2978549
-68.250183 45.49506 4.1321669
-68.23661 45.503544 3.9663508
-68.222984 45.500572 3.8006027
-68.209381 45.506145 3.6345778
-68.195732 45.49028 3.4692159
-68.182114 45.492947 3.3031194
-68.168472 45.494156 3.1369195
-68.154816 45.493904 2.9706285
-68.141151 45.492188 2.8042595
-68.127571 45.449146 2.6411457
-68.114098 45.384789 2.4805062
-68.100471 45.378761 2.3148453
-68.086838 45.371277 2.1491566
-69.847794 46.06702 22.925333
-68.540382 45.520714 7.1248093
-68.526291 45.515759 6.9542546
-68.513161 45.568733 6.7919946
-68.499207 45.570709 6.6227975
-68.485405 45.58112 6.4549208
-68.470367 45.500572 6.2773972
-68.45649 45.49799 6.1093311
-68.442619 45.493919 5.9414678
-68.428993 45.508293 5.775444
-68.333054 45.548168 4.61026
-68.31916 45.520889 4.4434638
-68.305351 45.502151 4.2772031
-68.291695 45.511955 4.1111164
-68.277985 45.510303 3.9450078
-68.264267 45.507198 3.7789197
-68.250549 45.50264 3.6128652
-68.236824 45.496624 3.4468567
-68.223091 45.489159 3.2809072
-68.209366 45.500206 3.1138732
-68.195625 45.489826 2.9479055
-68.181877 45.477989 2.7820346
-68.168205 45.434811 2.6187875
-68.154633 45.370308 2.4580317
-68.140854 45.384033 2.2901855
-69.889397 46.055298 22.925613
-68.581558 45.508072 7.1145325
-68.567627 45.512974 6.9452209
-68.554337 45.556007 6.781353
-68.540535 45.567863 6.6132226
-68.526581 45.568302 6.4439278
-68.511505 45.487709 6.2662654
-68.497749 45.495029 6.099009
-68.483864 45.490913 5.9308872
-68.470345 45.515213 5.7654052
-68.305359 45.513451 3.7647076
-68.291565 45.488827 3.5989499
-68.27787 45.502728 3.4319532
-68.264107 45.485191 3.2661543
-68.250359 45.486176 3.099437
-68.236603 45.485695 2.932631
-68.222855 45.463802 2.7672603
-68.209152 45.420544 2.6038578
-68.195473 45.385834 2.4401689
-68.181763 45.36961 2.2749305
-70.260612 46.108055 27.00205
-69.928032 46.054447 22.958275
-68.610756 45.518085 6.9485054
-68.597542 45.561192 6.7842927
-68.583786 45.57312 6.6158133
-68.569725 45.563698 6.4450116
-68.554962 45.503044 6.2692122
-68.541245 45.510433 6.1015182
-68.527008 45.476513 5.9302683
-68.513557 45.500854 5.7646108
-68.29454 45.492233 3.0946035
-68.280823 45.491756 2.9274445
-68.267097 45.489811 2.7602093
-68.253471 45.396713 2.6004813
-68.239822 45.371979 2.4357681
-68.226105 45.37566 2.2683201
-68.667091 45.497032 7.1259069
-68.653145 45.492226 6.9546466
-68.640404 45.555248 6.7930236
-68.626602 45.557377 6.6230335
-68.612808 45.557995 6.4532051
-68.598122 45.497459 6.2771068
-68.584381 45.49501 6.1081591
-68.570641 45.49107 5.9394126
-68.557045 45.495602 5.7716942
-68.339722 45.498383 3.096772
-68.326088 45.478012 2.9305813
-68.312477 45.476139 2.7631614
-68.298882 45.413006 2.600697
-68.271736 45.372143 2.2696588
-68.708252 45.520527 7.1406436
-68.681702 45.569168 6.8053899
-68.66806 45.571442 6.6349559
-68.654572 45.582134 6.4658465
-68.639694 45.501873 6.2870264
-68.625954 45.489605 6.1167245
-68.612518 45.495739 5.9486079
-68.598946 45.490425 5.7797117
-68.384163 45.484726 3.1009631
-68.370674 45.454456 2.9352326
-68.343773 45.399582 2.6042826
-68.33036 45.365009 2.4398332
-68.316933 45.358864 2.2728493
-68.748932 45.515198 7.1459785
-68.73513 45.500751 6.9724822
-68.722786 45.564003 6.8101873
-68.709152 45.556442 6.6382241
-68.69603 45.577133 6.4700961
-68.681305 45.496952 6.2909803
-68.667595 45.474808 6.1194043
-68.654503 45.490959 5.9520082
-68.640968 45.475754 5.7820129
-68.42923 45.470829 3.1002223
-68.416016 45.49049 2.931016
-68.389359 45.385788 2.6029527
-68.376114 45.371162 2.4364736
-68.362854 45.374981 2.2681234
-68.789261 45.520405 7.149703
-68.775246 45.48624 6.9729905
-68.763458 45.569347 6.8131967
-68.750168 45.57177 6.6421275
-68.736534 45.552814 6.4688792
-68.72213 45.482601 6.2907367
-68.7089 45.480396 6.1209621
-68.695824 45.486641 5.9522963
-68.682602 45.481441 5.7828469
-68.47345 45.476891 3.0952513
-68.460358 45.476589 2.9269941
-68.44725 45.474812 2.7586594
-68.434029 45.401794 2.5960603
-68.420914 45.367233 2.4309621
-68.407822 45.361095 2.263339
-68.828308 45.515251 7.153851
-68.814613 45.491055 6.978291
-68.80262 45.554432 6.8154697
-68.789474 45.556911 6.6442161
-68.776154 45.547943 6.4719496
-68.762192 45.497681 6.2956905
-68.748611 45.465706 6.1224775
-68.73568 45.472008 5.9536276
-68.722893 45.486786 5.7856407
-68.51577 45.472897 3.0928538
-68.502808 45.472618 2.9243238
-68.489807 45.460884 2.7564564
-68.476715 45.397854 2.5928319
-68.46373 45.373264 2.426542
-68.45076 45.357178 2.2595594
-68.869034 45.519291 7.1629643
-68.85524 45.485325 6.9856071
-68.843391 45.548801 6.8225403
-68.830177 45.541466 6.6497574
-68.817505 45.562374 6.4808278
-68.803291 45.492348 6.3019314
-68.790298 45.490318 6.1314411
-68.777153 45.476822 5.9602332
-68.764175 45.471767 5.7902389
-68.559059 45.478947 3.093374
-68.546173 45.468731 2.9251359
-68.533279 45.457047 2.7569933
-68.520241 45.384094 2.5938988
-68.507362 45.359558 2.4274163
-68.49453 45.363419 2.2582514
-69.605995 45.812355 16.35906
-68.909515 45.513588 7.1697092
-68.884247 45.5532 6.8301125
-68.870934 45.536057 6.6557097
-68.858353 45.557056 6.4865198
-68.844025 45.477188 6.306241
-68.830963 45.465286 6.1345639
-68.81839 45.481728 5.9660115
-68.805496 45.476768 5.79566
-68.601501 45.455032 3.0947821
-68.588837 45.474812 2.9245062
-68.576012 45.463161 2.7560046
-68.563019 45.39024 2.5925312
-68.550186 45.355774 2.4265926
-68.537422 45.34972 2.2581542
-70.140007 46.035801 22.936781
-68.948776 45.508915 7.1716623
-68.923386 45.538734 6.8301945
-68.910477 45.54147 6.658144
-68.897751 45.552601 6.4874287
-68.883598 45.482723 6.3079724
-68.857849 45.477421 5.966125
-68.844666 45.452572 5.7938447
-68.641426 45.451138 3.0904038
-68.628792 45.470921 2.9198658
-68.615997 45.45927 2.7510993
-68.602974 45.376385 2.5881753
-68.577446 45.345821 2.2524493
-70.183685 46.027645 22.94837
-69.986221 45.86969 20.349916
-68.964668 45.555164 6.8282561
-68.951324 45.538082 6.6532493
-68.938385 45.539288 6.4810972
-68.924362 45.479332 6.3025746
-68.911102 45.457535 6.1292877
-68.898705 45.483974 5.9611287
-68.885628 45.469086 5.7893391
-68.681625 45.467228 3.0789645
-68.668854 45.466995 2.9092848
-68.655937 45.435349 2.7417309
-68.642899 45.362389 2.5779181
-68.630104 45.347797 2.4098194
-70.233223 46.029354 22.963903
-69.005089 45.552326 6.8212051
-68.992035 45.555061 6.6484704
-68.97879 45.546333 6.474719
-68.964287 45.466484 6.293704
-68.951286 45.464546 6.1222572
-68.938454 45.47105 5.9519215
-68.925606 45.476055 5.7816229
-68.71978 45.443455 3.0674708
-68.707024 45.463116 2.8964076
-68.680855 45.358368 2.5645673
-68.667961 45.343697 2.3962193
-69.069016 45.480145 7.1515269
-69.0438 45.539581 6.8128815
-69.030846 45.5522 6.6412363
-69.017296 45.533524 6.4660659
-69.003227 45.483452 6.2881618
-68.989746 45.461609 6.1142969
-68.976974 45.478039 5.9446158
-68.963852 45.473053 5.7731524
-68.756348 45.449623 3.0543799
-68.743423 45.459232 2.8836243
-68.730423 45.457363 2.7133598
-68.716988 45.344372 2.5521402
-68.704056 45.349548 2.3818011
-69.083549 45.535961 6.8105612
-69.070145 45.528767 6.6361485
-69.057137 45.539871 6.4644017
-69.042618 45.469944 6.2839956
-69.029449 45.468002 6.1119533
-69.016106 45.454578 5.9391994
-69.003281 45.469517 5.7692966
-68.795059 45.46587 3.045253
-68.781967 45.455479 2.8753755
-68.768867 45.443604 2.7055955
-68.755562 45.380413 2.5400712
-68.742447 45.355648 2.3718743
-68.729424 45.359268 2.2009799
-69.122208 45.521702 6.8114142
-69.109032 45.524471 6.6380801
-69.095657 45.515774 6.4637327
-69.068024 45.443974 6.111095
-69.055069 45.450497 5.9400697
-69.042091 45.455517 5.7690816
-68.834396 45.462261 3.0416303
-68.821274 45.441902 2.8721414
-68.808296 45.449982 2.7007005
-68.794815 45.346928 2.5381296
-68.781853 45.352058 2.3671827
-68.768791 45.335777 2.1980274
-69.158546 45.526875 6.8174663
-69.145653 45.539654 6.6450386
-69.132149 45.521122 6.4690766
-69.117912 45.461258 6.2892861
-69.104843 45.459438 6.1167121
-69.091957 45.466049 5.9452477
-69.078888 45.461185 5.7729931
-68.872276 45.44875 3.0409834
-68.859352 45.448383 2.8700044
-68.846352 45.436539 2.6996877
-68.833023 45.353443 2.5352592
-68.820053 45.338673 2.3657832
-68.807144 45.342319 2.1944454
-69.195694 45.521812 6.8232136
-69.182465 45.514843 6.6480002
-69.16964 45.526169 6.4754653
-69.155457 45.466404 6.2953029
-69.14209 45.444778 6.1203704
-69.12928 45.451462 5.9487276
-69.116287 45.446671 5.7762914
-68.911049 45.45512 3.0402591
-68.898193 45.454784 2.8689253
-68.885139 45.423027 2.6997221
-68.871918 45.349937 2.5342653
-68.859093 45.355114 2.3626993
-68.846138 45.328926 2.1939096
-69.943275 45.81818 16.27248
-69.232918 45.536877 6.8299704
-69.219696 45.53001 6.6543212
-69.206474 45.521576 6.4789987
-69.192101 45.451946 6.2974687
-69.178932 45.440331 6.1233597
-69.166145 45.447083 5.9514556
-69.153511 45.462284 5.7804184
-68.948074 45.441559 3.0390668
-68.935295 45.451233 2.86691
-68.922249 45.419498 2.6974361
-68.908974 45.336464 2.5325191
-68.896133 45.331711 2.361685
-68.88327 45.325455 2.1908128
-70.277107 45.861576 20.244799
-69.98008 45.818207 16.288858
-69.280029 45.4688 6.9958496
-69.267891 45.512993 6.8269863
-69.254654 45.506145 6.6512508
-69.242035 45.527512 6.4793758
-69.227623 45.457928 6.2974982
-69.214432 45.446358 6.1230431
-69.201431 45.443192 5.9498744
-69.188606 45.448456 5.7777457
-68.983017 45.437859 3.0330539
-68.970154 45.437546 2.8612831
-68.957207 45.425751 2.6901686
-68.94384 45.332729 2.5257225
-68.930977 45.327957 2.3546281
-68.918137 45.331635 2.182503
-70.294579 45.851753 19.969727
-69.330276 45.478611 7.1711326
-69.305069 45.529026 6.827013
-69.291573 45.512302 6.6495848
-69.278908 45.533699 6.4773636
-69.264061 45.444263 6.2929659
-69.237808 45.429535 5.9449992
-69.225128 45.444767 5.7735286
-69.019119 45.453983 3.0235612
-69.006012 45.423695 2.8532984
-68.993156 45.43182 2.6805449
-68.979744 45.338757 2.5157604
-68.966789 45.323986 2.3452282
-68.953911 45.327625 2.1728442
-70.291267 45.844379 19.426353
-70.056129 45.793201 16.304523
-69.341286 45.514736 6.8263211
-69.327759 45.498051 6.6487198
-69.314873 45.509556 6.4751506
-69.300575 45.449963 6.2939343
-69.287315 45.43845 6.1189618
-69.274796 45.465202 5.9480305
-69.261345 45.440651 5.7726288
-69.05471 45.440186 3.0190616
-69.041702 45.429859 2.847331
-69.028564 45.398087 2.6771638
-69.015289 45.334938 2.5099132
-68.989388 45.323788 2.1664777
-70.304199 45.822895 19.17329
-70.283958 45.825123 18.902731
-70.091919 45.803375 16.34203
-69.402458 45.467842 7.1829638
-69.377457 45.528538 6.8391953
-69.364365 45.531845 6.6636896
-69.350853 45.513741 6.4859686
-69.336571 45.454292 6.3043709
-69.323509 45.452862 6.1300535
-69.310265 45.439934 5.9550056
-69.297386 45.445374 5.782012
-69.090775 45.416592 3.0244951
-69.078011 45.436295 2.8507469
-69.06488 45.404591 2.6802118
-69.03862 45.326797 2.3414261
-69.025726 45.33049 2.1684356
-70.29464 45.826084 18.681101
-70.273605 45.806183 18.400827
-70.255241 45.823925 18.150522
-69.439056 45.470352 7.2009821
-69.413605 45.501728 6.8524642
-69.401054 45.525028 6.6794224
-69.387856 45.517033 6.5026102
-69.373459 45.447838 6.3195024
-69.360313 45.436638 6.1438966
-69.347549 45.443783 5.97052
-69.334587 45.439442 5.79633
-69.129677 45.423035 3.0339289
-69.103905 45.40131 2.6896424
-69.077827 45.323761 2.3502541
-70.319649 45.797714 18.703302
-70.300438 45.802551 18.440187
-70.279709 45.779743 18.160988
-70.263168 45.819561 17.92837
-70.245598 45.840263 17.685007
-69.450066 45.515121 6.8687539
-69.437019 45.508858 6.6914296
-69.424187 45.510933 6.515625
-69.409721 45.431969 6.3310843
-69.384315 45.438152 5.982667
-69.371689 45.44392 5.8090539
-69.169044 45.429577 3.0408797
-69.156303 45.419571 2.8683219
-69.143547 45.408054 2.6958587
-70.288445 45.772068 17.92668
-70.272102 45.809402 17.694517
-70.254753 45.827541 17.451777
-70.235924 45.817814 17.193499
-69.510536 45.487907 7.22753
-69.485161 45.500099 6.874701
-69.472244 45.493927 6.6971912
-69.459961 45.515949 6.5236106
-69.446014 45.456966 6.3409152
-69.420044 45.423584 5.987669
-69.407547 45.42944 5.8138747
-69.207031 45.426239 3.0422192
-69.194489 45.426266 2.8687651
-69.181702 45.394844 2.6973574
-69.156113 45.317593 2.3568001
-69.143532 45.3116 2.1839745
-70.307106 45.782555 17.697754
-70.289307 45.792431 17.449444
-70.273041 45.824673 17.218271
-70.254303 45.812248 16.960817
-69.548553 45.493538 7.2311645
-69.522781 45.486073 6.8748884
-69.510551 45.509689 6.7010727
-69.49765 45.50201 6.523448
-69.483513 45.433136 6.3394523
-69.470856 45.432182 6.1640592
-69.458199 45.429676 5.9888554
-69.445534 45.425621 5.8138547
-69.245422 45.422825 3.0379727
-69.232979 45.432838 2.8636341
-69.220207 45.401417 2.6918721
-69.207306 45.348572 2.5221536
-69.182014 45.308197 2.1783979
-70.328506 45.766064 17.451714
-70.311203 45.781605 17.209629
-70.293419 45.786026 16.962948
-70.276154 45.796165 16.722473
-70.259407 45.812176 16.488012
-70.241707 45.808491 16.243986
-69.586479 45.499359 7.2342205
-69.560593 45.492027 6.8772588
-69.547874 45.495884 6.70052
-69.534927 45.488243 6.5227237
-69.521362 45.449215 6.3419061
-69.495537 45.425972 5.9885569
-69.482826 45.421959 5.8132973
-69.282036 45.429501 3.032738
-69.269295 45.409573 2.8599138
-69.256554 45.388134 2.6873577
-69.231018 45.330799 2.3439815
-69.218346 45.314827 2.171427
-70.36866 45.748055 17.459396
-70.350281 45.746941 17.206326
-70.332932 45.759823 16.965
-70.316109 45.778515 16.729734
-70.298317 45.777588 16.484726
-70.281532 45.791077 16.250959
-70.264763 45.802025 16.01791
-69.62381 45.49538 7.2357273
