# .PCD v0.7 - Point Cloud Data file format
VERSION 0.7
FIELDS x y z
SIZE 4 4 4
TYPE F F F
COUNT 1 1 1
WIDTH 1559
HEIGHT 1
VIEWPOINT 0 0 0 1 0 0 0
POINTS 1559
DATA ascii
-62.700176 45.814526 3.703285
-62.68737 45.813595 3.5647192
-62.673603 45.821354 3.4252517
-62.661015 45.817978 3.2864404
-62.648544 45.813385 3.1475656
-62.635101 45.817451 3.0075619
-62.62286 45.810402 2.8685062
-62.610737 45.802135 2.7294195
-62.597626 45.802486 2.5889771
-64.64296 46.072857 24.214067
-64.61116 46.054581 23.852415
-63.075287 45.791199 7.0229688
-63.060726 45.809376 6.8852139
-63.041988 45.875763 6.7536225
-63.02932 45.871796 6.6127586
-63.015923 45.876484 6.4731894
-63.003529 45.870037 6.3326526
-62.993061 45.842514 6.1904988
-62.981873 45.823654 6.0497589
-62.969028 45.82341 5.9109311
-62.955395 45.831882 5.7728462
-62.943722 45.819271 5.6335344
-62.931263 45.815384 5.4949865
-62.917049 45.830181 5.3573532
-62.904835 45.823875 5.2188716
-62.890831 45.836266 5.0809784
-62.878864 45.827549 4.9426055
-62.866055 45.827579 4.8044415
-62.854343 45.816452 4.666306
-62.84079 45.82402 4.5281057
-62.829334 45.81049 4.3901625
-62.817013 45.805702 4.2521234
-62.803795 45.80965 4.1137381
-62.789661 45.822327 3.9747562
-62.777683 45.813915 3.8365953
-62.765831 45.804298 3.6985018
-62.753059 45.803398 3.5597572
-62.738297 45.821102 3.4192965
-62.726791 45.807846 3.281122
-62.713287 45.813171 3.1410794
-62.700954 45.807373 3.0018868
-62.68874 45.800354 2.8626521
-62.675556 45.801968 2.7221386
-62.660286 45.822033 2.5787649
-64.602776 46.052605 23.228733
-64.573296 46.053265 22.909248
-63.138474 45.779823 7.0207686
-63.124866 45.788193 6.8814802
-63.103828 45.884289 6.7535925
-63.091228 45.880402 6.6123738
-63.07877 45.875263 6.471355
-63.065586 45.878792 6.3315554
-63.058651 45.811657 6.1853623
-63.045773 45.812683 6.046279
-63.031239 45.832352 5.908762
-63.018597 45.830952 5.76966
-63.006989 45.81839 5.6300769
-62.992771 45.834442 5.4922323
-62.98143 45.819447 5.3529544
-62.96743 45.833088 5.2149158
-62.956352 45.815666 5.0759854
-62.94352 45.81694 4.937654
-62.930805 45.817005 4.7993064
-62.91724 45.825821 4.6609178
-62.905724 45.813519 4.5226021
-62.89336 45.809967 4.3842664
-62.879139 45.8251 4.2453666
-62.867992 45.809185 4.1072998
-62.854977 45.811951 3.9685163
-62.842068 45.813496 3.8296161
-62.829266 45.813828 3.6906097
-62.816574 45.812935 3.5515077
-62.803993 45.810825 3.4123213
-62.793606 45.787685 3.2748647
-62.779163 45.802937 3.1337371
-62.766918 45.797157 2.9943607
-62.753727 45.800026 2.8537815
-62.739567 45.811512 2.7117515
-62.728725 45.792164 2.5733573
-64.608459 46.05798 22.641695
-63.202827 45.77774 7.0231814
-63.186798 45.81583 6.8876977
-63.168365 45.882408 6.7555089
-63.155766 45.878609 6.614027
-63.143303 45.873558 6.4727449
-63.130131 45.877174 6.3326836
-63.122227 45.820034 6.1871338
-63.11108 45.801292 6.0460286
-63.097466 45.811108 5.9075904
-63.083961 45.81971 5.7690611
-63.072346 45.807217 5.6292982
-63.05817 45.823338 5.491281
-63.046814 45.808407 5.3518224
-63.034687 45.802212 5.2129784
-63.020836 45.814709 5.0747275
-63.008015 45.816048 4.9361329
-62.994366 45.82613 4.7975764
-62.982712 45.815094 4.6589026
-62.97023 45.812801 4.520288
-62.956905 45.819252 4.3814826
-62.944649 45.814541 4.2428203
-62.931534 45.818565 4.1038146
-62.920498 45.801495 3.9656131
-62.907608 45.803089 3.8265364
-62.895824 45.793541 3.687993
-62.883156 45.792706 3.5488009
-62.87059 45.790646 3.4095242
-62.858139 45.787365 3.2701731
-62.844765 45.792759 3.1297724
-62.83149 45.796906 2.9891462
-62.819359 45.789928 2.8494642
-62.806286 45.791588 2.7085063
-62.794376 45.782139 2.568687
-64.625282 46.043709 22.049303
-63.270943 45.884468 7.1826553
-63.251263 45.804321 6.8874335
-63.232864 45.870972 6.7550917
-63.219364 45.877136 6.6146264
-63.205986 45.882061 6.4741879
-63.194389 45.865929 6.3317642
-63.187153 45.798923 6.1851106
-63.17421 45.800087 6.0455971
-63.162243 45.790092 5.9054031
-63.148682 45.798748 5.7667942
-63.134354 45.816135 5.6286831
-63.122765 45.802475 5.488853
-63.109531 45.807495 5.3501196
-63.096409 45.811302 5.2113371
-63.084305 45.80394 5.0722847
-63.072327 45.795368 4.9333782
-63.057701 45.815453 4.7947998
-63.046886 45.794502 4.6559849
-63.033398 45.802208 4.5171719
-63.020004 45.808701 4.3781996
-63.007671 45.804028 4.239368
-62.995449 45.798145 4.1005721
-62.983349 45.79105 3.961822
-62.970387 45.792683 3.8225775
-62.957527 45.793091 3.6832268
-62.945766 45.782356 3.5445042
-62.931126 45.800163 3.4034376
-62.919586 45.786983 3.2646425
-62.906143 45.792397 3.1239891
-62.893814 45.786671 2.9841805
-62.879539 45.799473 2.8420165
-62.86742 45.791264 2.7019622
-62.855415 45.781822 2.561888
-63.336548 45.855492 7.1677842
-63.314968 45.794956 6.8753281
-63.295765 45.871468 6.7440538
-63.282944 45.867702 6.6021576
-63.269451 45.872585 6.4615541
-63.257706 45.856403 6.3189764
-63.249416 45.799259 6.1731153
-63.236347 45.800385 6.0333514
-63.223396 45.800282 5.8936596
-63.209713 45.808895 5.7547097
-63.198711 45.786457 5.6139598
-63.184395 45.802586 5.475606
-63.172798 45.787643 5.3358202
-63.157803 45.811302 5.1975846
-63.14645 45.793926 5.0580597
-63.132538 45.80521 4.9192715
-63.119629 45.805321 4.780241
-63.106831 45.804214 4.6412039
-63.094143 45.801899 4.502171
-63.08157 45.79837 4.363153
-63.068169 45.803581 4.223865
-63.056763 45.787674 4.0852036
-63.042622 45.800392 3.9453554
-63.030491 45.792004 3.806329
-63.017509 45.792336 3.6667278
-63.003651 45.801369 3.5263023
-62.992844 45.779404 3.3880672
-62.980183 45.776062 3.2482998
-62.965626 45.791294 3.1064918
-62.954174 45.775585 2.9675124
-62.938782 45.798187 2.8240175
-62.925503 45.799751 2.6824708
-62.916443 45.760628 2.5460696
-63.401833 45.858166 7.1480827
-63.379105 45.80727 6.8565407
-63.362202 45.854027 6.7210841
-63.347687 45.869923 6.5814524
-63.33485 45.864777 6.4395137
-63.32375 45.838543 6.2957969
-63.31525 45.781246 6.1499233
-63.301243 45.792164 6.0109048
-63.288158 45.791931 5.8710499
-63.275196 45.79047 5.7312789
-63.261509 45.797729 5.5921636
-63.248775 45.793827 5.4525046
-63.236168 45.7887 5.3129616
-63.223679 45.782352 5.1735444
-63.208675 45.804665 5.0349083
-63.195522 45.805847 4.8956428
-63.183372 45.795853 4.756321
-63.171349 45.784645 4.6171675
-63.158535 45.782185 4.4780607
-63.144001 45.79842 4.3385315
-63.131397 45.793522 4.1992936
-63.119843 45.777462 4.0604873
-63.105591 45.790028 3.9204617
-63.093323 45.781483 3.7812815
-63.079254 45.791592 3.6408634
-63.066238 45.790531 3.5009189
-63.053326 45.788242 3.3608916
-63.039539 45.794632 3.2198787
-63.027817 45.779972 3.0806317
-63.014225 45.783878 2.9393349
-63.001732 45.776649 2.7989984
-62.987328 45.787922 2.6561155
-62.980114 45.728912 2.5222855
-63.468071 45.831139 7.1237092
-63.442009 45.819454 6.8375649
-63.425777 45.856224 6.7004805
-63.412666 45.852196 6.5582705
-63.397362 45.876644 6.4194741
-63.386845 45.840366 6.2744694
-63.376511 45.802788 6.130208
-63.363155 45.803658 5.9899449
-63.351536 45.783417 5.8483076
-63.338428 45.781818 5.7083764
-63.32378 45.798893 5.5696425
-63.311729 45.784897 5.4292755
-63.298969 45.779625 5.2895761
-63.283768 45.803013 5.1508756
-63.271225 45.795307 5.0111814
-63.257931 45.796341 4.8717527
-63.244743 45.796162 4.7323098
-63.23344 45.774841 4.592977
-63.2178 45.802101 4.4532795
-63.206738 45.778355 4.3142323
-63.193085 45.78326 4.1746078
-63.179527 45.786942 4.0348482
-63.166065 45.789398 3.8949647
-63.153637 45.780685 3.7555456
-63.139435 45.790627 3.6148682
-63.12627 45.789398 3.4746766
-63.113209 45.786938 3.3344038
-63.099281 45.793152 3.1931362
-63.086418 45.788216 3.0526471
-63.073658 45.782043 2.9121096
-63.060017 45.784512 2.7703505
-63.047462 45.775852 2.629662
-63.532761 45.822144 7.1106277
-63.506351 45.810345 6.8241754
-63.487785 45.876743 6.690619
-63.475983 45.852875 6.5456939
-63.461304 45.867363 6.4055734
-63.451336 45.821091 6.2594547
-63.44157 45.773502 6.114253
-63.426495 45.794167 5.9756131
-63.413887 45.783794 5.834547
-63.399803 45.79208 5.6950021
-63.385818 45.799145 5.5553799
-63.372757 45.795033 5.4152331
-63.360641 45.779736 5.2748327
-63.346146 45.793091 5.1355867
-63.334278 45.775345 4.9955401
-63.319122 45.79623 4.8562589
-63.307499 45.776043 4.7165222
-63.292522 45.794487 4.5768771
-63.279381 45.791786 4.4371924
-63.266346 45.787865 4.2975264
-63.253422 45.782722 4.1578889
-63.238796 45.796265 4.0174704
-63.22699 45.778732 3.8782465
-63.213467 45.779869 3.7380893
-63.199116 45.789715 3.5971596
-63.185783 45.788383 3.4567227
-63.17255 45.78582 3.3162057
-63.16037 45.77211 3.1765499
-63.145428 45.786884 3.0339575
-63.132492 45.780602 2.8931787
-63.118687 45.782959 2.7511733
-63.104973 45.784054 2.6089699
-63.598301 45.821991 7.1047187
-63.57156 45.810204 6.8177786
-63.554401 45.856827 6.6814895
-63.540951 45.852745 6.5387926
-63.526138 45.867233 6.3984208
-63.517445 45.801105 6.2501187
-63.504414 45.793217 6.1084099
-63.490746 45.794014 5.9677401
-63.477188 45.793575 5.8271446
-63.464531 45.781956 5.6860056
-63.450413 45.789001 5.5462203
-63.437199 45.78487 5.4059134
-63.42247 45.799427 5.2664604
-63.408649 45.802807 5.1265078
-63.39576 45.795002 4.9863253
-63.382149 45.795937 4.8464007
-63.369492 45.785683 4.7064419
-63.354382 45.804096 4.5664563
-63.341942 45.791401 4.42659
-63.328751 45.787445 4.2866764
-63.315666 45.782265 4.1467919
-63.3018 45.785816 4.0065346
-63.289825 45.768246 3.8671544
-63.275257 45.779289 3.7262487
-63.261681 45.779152 3.5857418
-63.248203 45.777779 3.4451444
-63.235752 45.765251 3.3053136
-63.222477 45.761414 3.164654
-63.207413 45.776146 3.0218971
-63.195278 45.759922 2.8820653
-63.180382 45.772121 2.7387934
-63.167492 45.763294 2.5977077
-63.659435 45.820965 7.1057477
-63.633343 45.799435 6.8169661
-63.614826 45.865917 6.6829801
-63.602062 45.852009 6.5387874
-63.587986 45.856647 6.3970947
-63.577705 45.810413 6.2505627
-63.566879 45.772793 6.1058364
-63.552456 45.783573 5.9658818
-63.538128 45.793133 5.8258286
-63.523891 45.801464 5.6856866
-63.511314 45.788662 5.5443811
-63.497288 45.794537 5.4042683
-63.484955 45.779266 5.26336
-63.470333 45.792648 5.1236024
-63.456612 45.794846 4.9834399
-63.443813 45.785854 4.8431444
-63.428631 45.805531 4.7030764
-63.417728 45.774162 4.5629807
-63.402729 45.791389 4.422657
-63.390377 45.7775 4.2827191
-63.377277 45.772354 4.1426597
-63.362537 45.785892 4.0018158
-63.34964 45.77829 3.8616729
-63.336845 45.769463 3.7215915
-63.322369 45.779289 3.5802379
-63.308876 45.777935 3.439379
-63.296391 45.765419 3.2992857
-63.2831 45.761593 3.1583648
-63.269905 45.756531 3.0173857
-63.255875 45.76012 2.8752549
-63.240986 45.772327 2.7317243
-63.227119 45.773376 2.5891008
-63.723316 45.788811 7.1037312
-63.695309 45.797066 6.8188987
-63.678352 45.843845 6.6821856
-63.66494 45.839912 6.5390463
-63.65023 45.854549 6.3982387
-63.639935 45.808395 6.2514286
-63.628372 45.780788 6.1073189
-63.615498 45.771778 5.9654016
-63.602001 45.771461 5.82445
-63.587856 45.779858 5.6842155
-63.57457 45.777077 5.5433574
-63.560619 45.783016 5.4030643
-63.546768 45.787731 5.2627149
-63.533012 45.791222 5.1223192
-63.520153 45.783516 4.9816909
-63.504986 45.804482 4.8415456
-63.493965 45.774391 4.7009168
-63.479794 45.782936 4.5605564
-63.46571 45.790257 4.4200301
-63.453396 45.776421 4.2798209
-63.44035 45.77132 4.1394916
-63.426552 45.774952 3.9987919
-63.412846 45.777348 3.8579693
-63.400101 45.768566 3.7176175
-63.387466 45.758556 3.5773377
-63.373158 45.767185 3.4356272
-63.359829 45.764637 3.2945068
-63.345688 45.77076 3.1523874
-63.332542 45.76572 3.0110533
-63.318577 45.769329 2.8685696
-63.304691 45.771671 2.725877
-63.290894 45.772747 2.5829868
-63.786087 45.795616 7.1086512
-63.758831 45.794212 6.8217931
-63.741314 45.850994 6.6860676
-63.729305 45.827351 6.5402675
-63.714668 45.842072 6.3992844
-63.70435 45.795998 6.2522821
-63.692081 45.778404 6.1088796
-63.665779 45.769249 5.8254752
-63.652431 45.767776 5.684341
-63.639194 45.765068 5.5433021
-63.625309 45.771084 5.4028301
-63.612282 45.765911 5.2619271
-63.597046 45.789398 5.1220145
-63.584217 45.781765 4.9811163
-63.570709 45.782867 4.8404813
-63.557301 45.782742 4.699832
-63.543991 45.781384 4.5591798
-63.531597 45.768837 4.4186811
-63.516022 45.794914 4.2774405
-63.505493 45.759987 4.13763
-63.491756 45.763676 3.9967508
-63.478107 45.766132 3.8557482
-63.465401 45.757401 3.715214
-63.451939 45.757385 3.5740838
-63.437695 45.766064 3.4321086
-63.424408 45.763557 3.2907209
-63.410324 45.769726 3.1483369
-63.397217 45.764721 3.0067351
-63.382401 45.778271 2.8628862
-63.37038 45.760864 2.7222149
-63.357559 45.752106 2.5804181
-63.849472 45.792107 7.1135321
-63.820877 45.810703 6.828815
-63.806068 45.828022 6.6877036
-63.791344 45.844101 6.5464377
-63.777378 45.849026 6.4039559
-63.767647 45.793133 6.2556052
-63.756035 45.765701 6.1110373
-63.742458 45.766804 5.9694848
-63.728992 45.766666 5.8280053
-63.714905 45.775242 5.6872482
-63.701641 45.772625 5.5458598
-63.689224 45.758812 5.4041123
-63.675434 45.76368 5.2634106
-63.661736 45.767323 5.1226625
-63.647369 45.779701 4.9820824
-63.63385 45.78088 4.841186
-63.621212 45.770859 4.7002444
-63.607895 45.769577 4.5594163
-63.594677 45.767063 4.4185953
-63.581558 45.763321 4.277792
-63.566906 45.778271 4.136384
-63.554794 45.762104 3.995878
-63.541965 45.754669 3.8551052
-63.527565 45.765896 3.7132387
-63.514084 45.765934 3.5717607
-63.499836 45.774658 3.429441
-63.488251 45.752342 3.2893786
-63.473305 45.76849 3.1458991
-63.461056 45.753628 3.0050449
-63.447147 45.757332 2.8621235
-63.433319 45.759766 2.7189927
-63.419571 45.760929 2.575664
-63.912342 45.808262 7.1222353
-63.88554 45.79747 6.8326707
-63.867489 45.864395 6.6976366
-63.854656 45.850895 6.5522919
-63.841301 45.846016 6.4083948
-63.830746 45.800152 6.2607536
-63.819702 45.76289 6.1149292
-63.792549 45.764057 5.8313847
-63.765099 45.770206 5.548728
-63.751881 45.766441 5.4071865
-63.737305 45.781368 5.2665253
-63.725025 45.765163 5.1247563
-63.710621 45.77763 4.9839244
-63.697811 45.768921 4.842649
-63.684345 45.768948 4.7015676
-63.670971 45.767742 4.5604815
-63.658478 45.755337 4.4195409
-63.645309 45.751667 4.2785654
-63.629837 45.776657 4.1366806
-63.617645 45.760555 3.9959104
-63.60231 45.783047 3.8534188
-63.589497 45.774426 3.7121856
-63.578445 45.744686 3.5723426
-63.564175 45.753487 3.4299431
-63.550823 45.751099 3.2881224
-63.537563 45.747463 3.1462319
-63.523529 45.752491 3.0032766
-63.509575 45.756248 2.8601005
-63.495697 45.758732 2.7167151
-63.481899 45.759941 2.5731316
-63.977226 45.805191 7.1245942
-63.94968 45.804462 6.8358517
-63.934822 45.821976 6.6942401
-63.920044 45.838249 6.5524716
-63.906635 45.833443 6.4084034
-63.896618 45.77771 6.2595916
-63.870476 45.761658 5.9734182
-63.856903 45.761684 5.8314247
-63.84343 45.760468 5.6895132
-63.830059 45.758003 5.5476956
-63.816086 45.764263 5.4064531
-63.802917 45.759319 5.2647681
-63.787682 45.783039 5.1241016
-63.775433 45.765652 4.9822078
-63.761822 45.766964 4.8408833
-63.748306 45.767044 4.6995435
-63.734886 45.765884 4.5581989
-63.720791 45.773464 4.4167237
-63.707546 45.769833 4.2753153
-63.694401 45.764965 4.133935
-63.681355 45.758865 3.9925928
-63.667603 45.761486 3.850816
-63.653938 45.762859 3.7089257
-63.641983 45.743099 3.5682478
-63.628502 45.741993 3.4263365
-63.614277 45.749569 3.2835135
-63.600128 45.755882 3.1404476
-63.586895 45.751011 2.9981534
-63.572899 45.754787 2.8547213
-63.558979 45.757294 2.7110798
-63.546871 45.738754 2.5697653
-64.04007 45.80241 7.1239443
-64.013687 45.782021 6.8320122
-63.996407 45.839184 6.6953144
-63.982853 45.835709 6.5507874
-63.969418 45.830956 6.4064593
-63.95929 45.775269 6.2573862
-63.905991 45.758205 5.6862659
-63.891914 45.765743 5.5447454
-63.878616 45.762077 5.4026842
-63.864719 45.767136 5.2611227
-63.852325 45.751015 5.1189175
-63.838619 45.753593 4.9774446
-63.82428 45.764904 4.8360701
-63.810741 45.765011 4.6944685
-63.798042 45.753902 4.5529127
-63.783947 45.761505 4.411263
-63.771446 45.747925 4.2699041
-63.757526 45.753048 4.1281257
-63.743683 45.756924 3.986212
-63.716236 45.760944 3.702023
-63.702637 45.761082 3.5597694
-63.689926 45.750027 3.4181681
-63.676502 45.747669 3.2758286
-63.662346 45.753983 3.1325026
-63.649918 45.739193 2.990952
-63.635082 45.752884 2.8462565
-63.621994 45.745487 2.7035317
-63.609848 45.726952 2.5620437
-64.103813 45.789276 7.1241503
-64.076828 45.778923 6.8332043
-64.060242 45.826267 6.695003
-64.046692 45.822861 6.5503006
-64.032028 45.838013 6.4079552
-64.021172 45.792336 6.2595172
-63.995544 45.766598 5.9711313
-63.968433 45.765633 5.686007
-63.941723 45.75967 5.4012542
-63.914722 45.758686 5.1172595
-63.901714 45.751347 4.975225
-63.888103 45.752739 4.8334632
-63.860416 45.761776 4.5498557
-63.847061 45.759445 4.4079928
-63.834541 45.745907 4.2663684
-63.821377 45.7411 4.1246367
-63.779362 45.759064 3.6974385
-63.766544 45.749283 3.555578
-63.752247 45.758144 3.4123147
-63.739613 45.745869 3.2704551
-63.726273 45.742283 3.1277835
-63.712204 45.747353 2.9840512
-63.697388 45.761055 2.83901
-63.685112 45.743767 2.6971111
-63.672939 45.725243 2.5553591
-64.168991 45.794392 7.1346207
-64.126556 45.812046 6.7019448
-64.112999 45.808773 6.5570664
-64.099541 45.804211 6.4123859
-64.08741 45.778507 6.2659173
-64.074814 45.761433 6.1209269
-63.993309 45.761772 5.2649856
-63.979496 45.765762 5.1228547
-63.96645 45.758537 4.9804668
-63.95351 45.750065 4.8382258
-63.925808 45.759323 4.5541005
-63.913151 45.747124 4.4121032
-63.899876 45.74366 4.2700801
-63.88596 45.748924 4.1277814
-63.872856 45.742973 3.9857357
-63.8591 45.745743 3.8432627
-63.846172 45.737301 3.7012382
-63.831814 45.74752 3.5579846
-63.80563 45.734352 3.2731605
-63.791492 45.740784 3.1294031
-63.77742 45.745941 2.9854133
-63.763416 45.749817 2.8412025
-63.749485 45.752415 2.6967821
-64.233932 45.788834 7.1477766
-64.191452 45.807037 6.7143412
-64.177284 45.813854 6.5703812
-64.164375 45.799557 6.4242578
-64.151581 45.783955 6.2785153
-64.07177 45.753036 5.4170794
-64.044693 45.752598 5.1320395
-64.016624 45.767128 4.8474708
-64.00441 45.747581 4.7048907
-63.990929 45.746746 4.5625849
-63.976837 45.754639 4.4201627
-63.937164 45.740921 3.99313
-63.910427 45.735516 3.7081065
-63.896812 45.735912 3.5652428
-63.869812 45.732941 3.2792461
-63.855663 45.739498 3.1352344
-63.842354 45.734856 2.991977
-63.828346 45.738861 2.8475966
-63.814404 45.741585 2.7030056
-63.802132 45.723244 2.560708
-64.296883 45.803963 7.1591206
-64.254311 45.822662 6.7244043
-64.240677 45.819725 6.5788317
-64.227707 45.805569 6.4323545
-64.216003 45.770241 6.2842317
-64.10833 45.749779 5.1366692
-64.067978 45.745083 4.708735
-63.945927 45.743347 3.423054
-63.932438 45.74131 3.2796667
-63.919025 45.738007 3.1362076
-63.905693 45.733444 2.9926879
-63.892445 45.727615 2.8491185
-63.878498 45.730423 2.704356
-64.362045 45.79179 7.1540861
-64.319412 45.81057 6.7188544
-64.306282 45.797733 6.5719261
-64.292175 45.803436 6.4275618
-64.10424 45.750393 4.4150748
-64.064354 45.736942 3.986475
-64.023827 45.732162 3.5570261
-64.010231 45.731373 3.4135492
-63.996712 45.729321 3.2699897
-63.955109 45.735405 2.8367882
-63.941883 45.728271 2.692837
-64.423409 45.810726 7.1445498
-64.382072 45.799721 6.7042375
-64.367287 45.816578 6.5606823
-64.354683 45.792469 6.4126134
-64.192261 45.751278 4.6840062
-64.001114 45.735008 2.6712179
-64.48513 45.809147 7.1350298
-64.45887 45.770092 6.8362818
-64.442451 45.817894 6.6964903
-64.429085 45.804993 6.5489855
-64.415321 45.800701 6.402936
-64.279747 45.747059 4.9570508
-64.224693 45.74609 4.3833952
-64.07357 45.729252 2.7995379
-64.54924 45.785683 7.1315804
-64.50631 45.794548 6.6928053
-64.49234 45.791603 6.5463943
-64.477974 45.797283 6.4012666
-64.465721 45.76194 6.2521706
-64.61097 45.800545 7.1395288
-64.568787 45.790005 6.6969457
-64.554298 45.797085 6.5514541
-64.540367 45.792953 6.4048939
-64.180443 45.726627 2.642561
-66.652039 46.068756 27.852488
-64.671074 45.805347 7.1457438
-64.628944 45.795181 6.7021093
-64.614952 45.792461 6.5550895
-64.601044 45.788441 6.4082642
-66.704758 46.018452 27.844706
-66.666168 46.042606 27.456961
-66.62973 46.085293 27.102484
-64.731651 45.810238 7.1511812
-64.690475 45.780605 6.7039523
-64.676079 45.787899 6.5579367
-64.662209 45.78397 6.4108448
-66.722458 45.990894 27.450256
-66.685753 46.027702 27.087851
-66.649437 46.059464 26.726532
-66.608902 46.018654 26.279657
-66.574684 46.058254 25.944759
-64.792686 45.795158 7.1549902
-64.750694 45.785656 6.7097712
-64.737167 45.773228 6.5610347
-64.723312 45.769402 6.413765
-64.640175 45.75901 5.5371723
-64.624939 45.78603 5.393209
-64.612793 45.751923 5.2463841
-66.744576 45.974731 27.08226
-66.708801 46.012707 26.728939
-66.670837 46.00898 26.329348
-66.634178 46.011971 25.947155
-66.599586 46.034664 25.597662
-66.566574 46.07156 25.272554
-64.853745 45.789749 7.1616111
-64.811729 45.780617 6.7156076
-64.797775 45.778229 6.5677972
-64.783905 45.774529 6.4201784
-64.615738 45.798775 4.669024
-64.604027 45.758366 4.5235057
-64.590828 45.746647 4.3783612
-66.699844 45.976002 25.966702
-66.665253 45.999077 25.617115
-66.631027 46.01733 25.268742
-66.59758 46.037189 24.92931
-66.564873 46.058876 24.598709
-64.916092 45.784019 7.1700783
-64.874352 45.765396 6.722014
-64.859962 45.773052 6.5752282
-64.845642 45.779411 6.4284606
-64.608208 45.790508 3.943548
-64.595222 45.773785 3.7981691
-64.582893 45.745823 3.6535578
-66.725655 45.960896 25.626003
-66.692207 45.992085 25.293013
-66.65786 45.999546 24.938047
-66.624298 46.008568 24.592136
-66.591888 46.025902 24.262732
-64.966484 45.800262 7.1765189
-64.910568 45.770073 6.5774336
-64.896133 45.776562 6.4303832
-64.586159 45.793076 3.2067215
-66.644295 45.981735 24.922544
-66.611694 46.003796 24.591837
-66.577431 45.988716 24.224474
-66.548286 46.047676 23.948954
-64.920433 45.779427 6.7084727
-64.906784 45.767422 6.5586805
-64.892464 45.773933 6.4114814
-64.573837 45.737804 3.0417471
-66.671204 45.95681 24.569471
-66.639786 45.987331 24.255156
-66.608269 46.00705 23.934317
-66.577065 46.022461 23.614626
-66.546181 46.033585 23.296131
-64.965302 45.76384 6.5551949
-64.9506 45.780319 6.4088516
-64.63163 45.734436 3.0320251
-66.669327 45.94532 23.898092
-66.639313 45.980492 23.600979
-66.609161 46.005035 23.297329
-66.578918 46.01878 22.987362
-66.519707 46.040859 22.378223
-65.036476 45.771984 6.7032747
-65.022354 45.769981 6.5541701
-66.644653 45.93961 22.939638
-66.616524 45.9832 22.667589
-66.587852 46.009499 22.381746
-66.557961 46.004189 22.068205
-66.528748 46.001743 21.763197
-65.13501 45.814693 7.1611705
-65.09333 45.767521 6.7043586
-65.079086 45.765591 6.5550046
-65.064583 45.772263 6.4069562
-66.653877 45.932724 22.332174
-66.625374 45.954983 22.047623
-66.597504 45.980606 21.771122
-66.569878 46.002697 21.495501
-66.541779 46.006947 21.20686
-66.513611 46.000237 20.912519
-66.486771 46.011539 20.640089
-65.151314 45.763577 6.7028141
-65.122337 45.76841 6.404911
-66.656342 45.940357 21.756296
-66.628319 45.95528 21.473707
-66.601662 45.98806 21.213068
-66.574135 45.995914 20.932421
-66.545486 45.971035 20.625526
-66.520226 46.00819 20.381325
-65.24939 45.796932 7.1559944
-65.206818 45.759888 6.6992188
-65.192406 45.758034 6.5493588
-65.17807 45.754845 6.3996878
-66.653877 45.926113 21.191977
-66.627907 45.96278 20.939146
-66.601051 45.974487 20.666403
-66.574799 45.990078 20.401482
-66.54911 46.009747 20.144226
-66.52298 46.011307 19.874523
-66.65641 45.920517 20.66596
-66.62989 45.928921 20.394318
-66.604645 45.956066 20.143921
-66.579597 45.980141 19.894255
-66.554428 45.993649 19.638756
-66.636238 45.917736 19.888563
-66.610085 45.908833 19.613405
-66.587494 45.972061 19.404911
-66.562759 45.97961 19.151176
-66.538864 45.99939 18.911245
-66.514252 45.993095 18.653069
-66.671936 45.90382 19.648499
-66.621834 45.914497 19.133884
-66.597916 45.934242 18.894167
-66.574509 45.958836 18.661551
-66.551567 45.988461 18.435867
-66.527306 45.976265 18.179718
-66.503868 45.976692 17.937109
-66.660645 45.913513 18.901924
-66.635857 45.907345 18.643827
-66.611931 45.913548 18.399473
-66.589134 45.940304 18.174692
-66.566788 45.972328 17.956636
-66.543716 45.978027 17.720854
-66.520554 45.972927 17.479992
-66.623466 45.898132 17.919313
-66.60096 45.919468 17.696016
-66.579483 45.9622 17.491358
-66.557274 45.978527 17.269169
-66.512543 45.979046 16.809553
-66.612007 45.908958 17.242241
-66.589409 45.906372 17.009315
-66.568382 45.941784 16.806349
-66.546944 45.958561 16.592276
-66.525642 45.972916 16.378843
-66.504005 45.968269 16.154924
-66.601662 45.927372 16.597927
-66.579597 45.91713 16.367474
-66.559273 45.953957 16.171585
-66.538307 45.963646 15.959438
-66.517258 45.962563 15.742572
-66.607811 45.905598 16.16761
-66.586693 45.907005 15.950021
-66.565994 45.914326 15.738728
-66.546158 45.944584 15.544267
-66.591911 45.897762 15.538909
-66.571907 45.909012 15.334253
-66.552933 45.952118 15.151118
-66.532944 45.950485 14.942327
-66.513321 45.955151 14.739444
-66.493645 45.94894 14.532275
-66.597908 45.888443 15.135532
-66.57859 45.9039 14.937241
-66.559181 45.908604 14.734414
-66.521355 45.937477 14.345685
-66.566788 45.899597 14.346238
-66.548325 45.91539 14.155068
-66.529968 45.929173 13.964373
-66.511368 45.923298 13.764773
-66.493248 45.933006 13.575238
-66.577271 45.884548 13.956767
-66.558968 45.887508 13.761932
-66.541473 45.923859 13.586258
-66.523712 45.940659 13.401564
-66.50573 45.937675 13.208331
-66.470291 45.93462 12.828384
-66.572853 45.891815 13.381244
-66.55542 45.91555 13.201559
-66.537758 45.919506 13.013362
-66.485558 45.928802 12.456561
-65.617416 45.764786 3.0942223
-66.566963 45.886131 12.80061
-66.54969 45.895081 12.617919
-66.532791 45.920372 12.443995
-65.665009 45.741081 3.0726349
-66.544662 45.886654 12.046033
-66.528023 45.906456 11.873148
-66.559372 45.88139 11.666313
-66.526436 45.912094 11.322054
-66.524246 45.879734 10.773426
-66.508156 45.89682 10.606286
-66.53994 45.869816 10.427058
-66.508018 45.886497 10.090847
-66.508423 45.867729 9.5916491
-66.492874 45.883465 9.4290714
-66.508759 45.862514 9.1092205
-66.481628 45.877415 8.3071795
-66.166435 45.736408 4.8327961
-66.173775 45.726959 4.3721218
-66.159744 45.726002 4.2181239
-68.654259 46.030979 29.717726
-68.66275 45.982346 29.218563
-68.680382 46.017124 28.828623
-68.636909 45.983757 28.343483
-68.59745 45.979855 27.908232
-68.682556 45.987659 28.371803
-68.645592 46.008347 27.967899
-68.605202 45.98637 27.518372
-68.566322 45.97039 27.086628
-68.719315 45.97337 28.414377
-68.684441 46.012852 28.033909
-68.646095 46.010094 27.607481
-68.605606 45.976357 27.15172
-68.569618 45.980125 26.752541
-68.718651 46.011959 28.116711
-68.678818 45.99173 27.666193
-68.639877 45.971245 27.225655
-68.60659 46.001076 26.857012
-68.747955 46.007622 28.189737
-68.709709 46.000587 27.754469
-68.670525 45.974903 27.305532
-68.639343 46.024483 26.959654
-68.599495 45.97411 26.499168
-68.779297 46.009319 28.257938
-68.742599 46.015347 27.83794
-68.703148 45.984364 27.38061
-68.669899 46.009602 27.003202
-68.633919 45.997894 26.588606
-68.780762 46.000095 27.880949
-68.7463 46.019352 27.485836
-68.709679 46.007992 27.06115
-68.680328 46.066761 26.730913
-68.828415 46.008163 27.943029
-68.790382 45.990833 27.500586
-68.756775 46.011108 27.114595
-68.652489 45.988155 25.904646
-68.620277 45.993229 25.532721
-68.878586 46.00103 27.966042
-68.840492 45.983932 27.52339
-68.807442 46.010719 27.144943
-68.639778 46.007507 25.206287
-68.603951 45.956104 24.785183
-68.932899 46.017242 28.008614
-68.894684 46.000492 27.565598
-68.859131 46.002529 27.155729
-68.662529 46.035217 24.891487
-68.623993 45.945061 24.435156
-68.594154 45.950443 24.091545
-68.563393 45.937489 23.734892
-68.979599 46.017044 28.026217
-68.941971 46.006615 27.590803
-68.907013 46.015118 27.188419
-68.64402 45.992283 24.15073
-68.613197 45.979828 23.793488
-68.580933 45.94173 23.416435
-68.551079 45.926449 23.070028
-68.522507 45.920647 22.739473
-69.016991 45.999271 28.020185
-68.98011 45.994949 27.59252
-68.947708 46.028568 27.221027
-68.710732 45.947521 24.466234
-68.685478 46.007648 24.180527
-68.654182 45.988552 23.815683
-68.625298 45.992252 23.481415
-68.594398 45.963516 23.1201
-68.56588 45.958134 22.788988
-68.507271 45.905521 22.103685
-69.05304 46.010342 28.05526
-69.016365 46.00629 27.627253
-68.980515 46.002464 27.208893
-68.722733 46.014614 24.204739
-68.693817 46.023228 23.868536
-68.663414 46.006557 23.512177
-68.634842 46.006092 23.178959
-68.607521 46.015354 22.861334
-68.578751 45.999096 22.524012
-68.54911 45.963982 22.174534
-68.519684 45.924183 21.827065
-68.492035 45.901649 21.502075
-68.466095 45.896954 21.199047
-69.079163 45.999153 28.070105
-69.045876 46.02634 27.680933
-69.01033 46.022984 27.26211
-68.780159 45.984749 24.547993
-68.75193 46.004734 24.217615
-68.723289 46.013477 23.881208
-68.694252 46.010818 23.539
-68.66539 46.003601 23.198341
-68.638855 46.020123 22.887499
-68.581978 45.983624 22.213903
-68.550705 45.91518 21.838511
-68.524323 45.907391 21.526922
-68.498093 45.895569 21.216814
-69.099625 45.990639 28.096176
-69.064995 45.99942 27.683331
-69.030548 46.002407 27.272161
-68.773544 45.957848 24.197266
-68.748085 46.000854 23.897121
-68.719452 45.998375 23.554697
-68.692604 46.012352 23.235168
-68.664818 46.00803 22.902763
-68.611847 46.015018 22.270313
-68.581955 45.961609 21.908058
-68.555374 45.947155 21.588938
-68.526932 45.899067 21.244461
-69.119873 45.987438 28.130936
-69.085159 45.990341 27.709969
-69.050049 45.981022 27.283033
-69.023972 46.061024 26.973511
-68.798569 45.957962 24.228785
-68.774055 46.008167 23.935543
-68.744743 45.99218 23.578371
-68.717758 45.999401 23.251448
-68.691986 46.016468 22.939987
-68.587616 46.008221 21.672155
-68.561523 45.990379 21.353777
-68.533112 45.931263 21.003662
-68.507378 45.904888 20.688944
-68.482796 45.889519 20.389061
-69.143646 45.976345 28.158863
-69.10994 45.985775 27.745453
-69.077591 46.00198 27.34922
-69.049492 46.057186 27.008389
-68.826065 45.949795 24.254135
-68.800766 45.986519 23.946159
-68.773956 45.998451 23.617544
-68.745674 45.985054 23.268883
-68.72126 46.016464 22.971323
-68.567589 45.985191 21.079685
-68.540619 45.937077 20.744328
-68.515305 45.907162 20.430738
-68.4916 45.895992 20.138374
-68.468979 45.896454 19.860273
-69.18177 45.978851 28.20071
-69.147057 45.976254 27.771349
-69.113708 45.980164 27.359377
-69.086975 46.048222 27.033815
-68.864151 45.935894 24.270555
-68.841194 46.000332 23.991335
-68.811813 45.977997 23.626402
-68.785828 45.992752 23.30607
-68.76049 46.010403 22.99402
-68.609589 46.010315 21.127502
-68.58271 45.962669 20.791615
-68.557007 45.925678 20.470943
-68.532913 45.907314 20.171629
-68.509926 45.900455 19.886703
-68.487534 45.897758 19.609467
-68.464798 45.883873 19.32719
-69.222008 45.969292 28.226467
-69.154854 45.977444 27.392424
-69.124763 46.007706 27.02039
-68.90583 45.929012 24.293922
-68.882469 45.986824 24.007212
-68.854301 45.978569 23.656441
-68.827354 45.979626 23.321562
-68.802681 46.004536 23.016373
-68.603935 45.982075 20.54355
-68.577484 45.926395 20.211033
-68.555992 45.942905 19.944878
-68.531776 45.909916 19.641571
-68.508652 45.888596 19.352604
-68.486137 45.871475 19.071398
-69.222542 45.980293 27.85593
-69.190201 45.991348 27.451023
-69.15918 46.009476 27.063131
-68.941322 45.927002 24.326809
-68.919273 45.99892 24.054262
-68.890755 45.9842 23.695873
-68.864021 45.985664 23.360613
-68.838478 45.996841 23.040928
-68.616913 45.951519 20.25906
-68.597488 45.999134 20.018019
-68.57386 45.97456 19.720242
-68.55085 45.953983 19.430382
-68.527061 45.914135 19.129641
-68.505249 45.90197 18.855337
-68.484467 45.902302 18.594538
-68.462013 45.867577 18.310823
-69.255653 45.965439 27.88653
-69.223595 45.976864 27.481382
-69.192863 45.995358 27.093252
-68.97905 45.942635 24.384344
-68.955574 45.994495 24.089602
-68.928375 45.994057 23.745247
-68.901314 45.98904 23.402422
-68.875992 46.000668 23.082355
-68.654243 45.928822 20.270937
-68.613953 45.990772 19.763575
-68.591576 45.97842 19.479506
-68.569313 45.962543 19.196842
-68.547188 45.943165 18.915623
-68.526543 45.944096 18.654119
-68.503769 45.901985 18.363682
-68.482475 45.880337 18.092901
-68.461739 45.863472 17.829447
-68.441986 45.859707 17.578945
-69.235519 45.96603 27.096552
-68.999451 45.972828 24.099625
-68.972862 45.979485 23.762321
-68.945328 45.967682 23.412191
-68.921143 45.993587 23.10611
-68.699821 45.924122 20.292339
-68.681145 45.979809 20.05731
-68.659645 45.986561 19.784437
-68.616005 45.974464 19.229582
-68.595734 45.986931 18.972536
-68.552757 45.954842 18.425215
-68.529678 45.901657 18.129902
-68.508957 45.885181 17.865952
-68.48835 45.865524 17.603354
-68.469147 45.867268 17.359325
-69.356384 45.961704 27.937801
-69.323639 45.967331 27.524412
-69.291046 45.967175 27.112749
-69.053635 45.974884 24.114073
-69.026352 45.974716 23.769361
-68.999741 45.976974 23.433294
-68.97435 45.988937 23.112799
-68.750748 45.904758 20.284466
-68.733459 45.983379 20.068594
-68.711838 45.99025 19.79546
-68.543816 45.951431 17.670244
-68.522705 45.921036 17.402332
-68.500877 45.870922 17.124676
-68.482559 45.883694 16.893549
-68.462662 45.860519 16.641151
-68.443695 45.851135 16.400999
-69.421158 45.968891 27.936466
-69.388062 45.97435 27.522938
-69.355721 45.980392 27.118826
-69.114594 45.973743 24.104036
-69.088135 45.987293 23.773565
-69.060127 45.975475 23.423059
-69.033913 45.980202 23.095404
-68.809944 45.924458 20.29265
-68.791496 45.987846 20.063576
-68.76963 45.99464 19.790253
-68.522278 45.955708 16.694258
-68.501366 45.913223 16.4314
-68.481003 45.87603 16.175594
-68.462799 45.878216 15.947775
-68.443871 45.860802 15.71042
-68.425049 45.840675 15.474264
-68.3722 45.833878 14.812551
-68.354858 45.829693 14.595374
-68.337593 45.823151 14.37908
-69.485527 45.977345 27.934347
-69.453926 46.00153 27.543894
-69.418175 45.975746 27.101053
-69.176788 45.994362 24.114899
-69.148338 45.987049 23.76265
-69.121147 45.989063 23.42626
-69.095757 46.007893 23.112455
-68.865585 45.899426 20.261236
-68.53746 45.93071 16.19908
-68.519424 45.941589 15.975884
-68.500229 45.924408 15.737821
-68.48114 45.904514 15.500957
-68.462158 45.881924 15.265321
-68.443665 45.865322 15.035917
-68.425652 45.854862 14.812546
-68.408096 45.850685 14.595008
-68.390617 45.844147 14.378352
-68.373581 45.844093 14.167274
-68.355904 45.824036 13.94779
-68.339363 45.828327 13.742961
-68.289436 45.810307 13.124016
-69.541107 45.975418 27.928129
-69.506187 45.967896 27.498896
-69.473289 45.97345 27.094654
-69.229088 45.977016 24.093256
-69.201012 45.976395 23.748186
-69.171936 45.957142 23.390461
-69.148087 45.996861 23.097881
-68.916824 45.894348 20.252756
-68.899124 45.972748 20.036314
-68.855217 45.990189 19.49666
-68.495003 45.927696 15.064445
-68.476036 45.900066 14.830554
-68.459068 45.913578 14.622051
-68.439919 45.872097 14.385692
-68.422729 45.872131 14.174163
-68.404526 45.843266 13.949656
-68.387489 45.838676 13.739938
-68.369835 45.813946 13.522184
-68.353981 45.831833 13.327351
-68.337158 45.820641 13.120096
-68.320732 45.816341 12.917929
-68.288094 45.801456 12.515883
-69.55426 45.974117 27.51215
-69.521919 45.986084 27.115362
-69.276009 45.976665 24.097258
-69.247299 45.969063 23.744858
-69.221024 45.984863 23.422482
-69.193153 45.975212 23.080244
-68.965668 45.931976 20.286839
-68.946388 45.987667 20.050655
-68.923065 45.978809 19.764174
-68.631447 45.915302 16.181656
-68.470413 45.933594 14.203257
-68.45211 45.904999 13.978
-68.434265 45.882839 13.758508
-68.41687 45.867252 13.544574
-68.399567 45.849369 13.331643
-68.382004 45.820171 13.11547
-68.365868 45.824932 12.917259
-68.349464 45.818562 12.715538
-68.333763 45.828392 12.522655
-68.317474 45.817928 12.322349
-68.301559 45.814617 12.126731
-69.630989 45.975677 27.952412
-69.596664 45.974537 27.530529
-69.564972 45.993015 27.141184
-69.318665 45.97823 24.113527
-69.291138 45.984688 23.775185
-69.263161 45.979656 23.43117
-69.237015 45.991344 23.109827
-69.009056 45.942684 20.306499
-68.989281 45.990891 20.063576
-68.965454 45.974419 19.77051
-68.673149 45.894882 16.174356
-68.44429 45.90049 13.358093
-68.427368 45.889633 13.149752
-68.410515 45.876579 12.9423
-68.393417 45.852238 12.731653
-68.376724 45.834808 12.526127
-68.360748 45.833595 12.329452
-68.345139 45.839603 12.1373
-68.328659 45.815941 11.934305
-68.313744 45.836594 11.750862
-68.297401 45.808903 11.549521
-68.28257 45.825867 11.366963
-68.266373 45.794193 11.167356
-69.666115 45.965881 27.979229
-69.632553 45.971348 27.564844
-69.599754 45.977413 27.159866
-69.353859 45.957432 24.123522
-69.327606 45.977966 23.799347
-69.30088 45.987263 23.469255
-69.274261 45.992245 23.140509
-69.046562 45.938751 20.327766
-69.02636 45.979511 20.078184
-68.710083 45.860649 16.169695
-68.434601 45.900173 12.763849
-68.418243 45.89222 12.561629
-68.401321 45.863819 12.352307
-68.384804 45.842426 12.147987
-68.368668 45.828159 11.948452
-68.3535 45.839703 11.760894
-68.337494 45.821461 11.562849
-68.322121 45.819901 11.37279
-68.306526 45.807083 11.179858
-68.291534 45.81115 10.994462
-68.276581 45.813419 10.809528
-68.261154 45.794968 10.618639
-69.387932 45.964165 24.17651
-69.358978 45.950443 23.816141
-69.332458 45.959988 23.485914
-69.305473 45.958134 23.15
-69.283661 46.01622 22.878313
-69.078964 45.898628 20.330063
-69.060478 45.962517 20.099648
-69.038437 45.969704 19.825109
-69.016479 45.973549 19.551666
-68.995117 45.981918 19.285542
-68.972351 45.963406 19.002098
-68.747246 45.864365 16.198421
-68.441628 45.909386 12.38973
-68.425484 45.897594 12.188544
-68.409401 45.883739 11.988191
-68.392494 45.839993 11.777559
-68.377159 45.840588 11.586433
-68.361305 45.820595 11.388781
-68.346634 45.836102 11.205909
-68.330894 45.812233 11.009777
-68.315773 45.805256 10.821204
-68.300697 45.796429 10.633273
-68.285927 45.79525 10.449142
-68.271446 45.801819 10.268579
-68.256271 45.778038 10.079462
-68.227272 45.772888 9.7179136
-69.65699 45.951603 27.232674
-69.634651 46.056046 26.950781
-69.415848 45.945248 24.199007
-69.388901 45.952702 23.859894
-69.362633 45.962719 23.529282
-69.335342 45.954243 23.18594
-69.312088 45.991268 22.893028
-69.113052 45.928673 20.388741
-69.092186 45.954758 20.125776
-69.069336 45.946785 19.838306
-69.048111 45.958607 19.570967
-69.027451 45.975052 19.310808
-68.782745 45.877693 16.230717
-68.767899 45.94854 16.043144
-68.431564 45.878151 11.807223
-68.416641 45.888367 11.619069
-68.401169 45.878059 11.424219
-68.384911 45.837677 11.219708
-68.36985 45.832794 11.030005
-68.354301 45.807178 10.834314
-68.339615 45.80798 10.649263
-68.324974 45.806995 10.464706
-68.310616 45.813751 10.283719
-68.296043 45.809242 10.10012
-68.281746 45.812546 9.9199562
-68.266792 45.785362 9.731761
-68.252808 45.794815 9.5553799
-68.238617 45.792984 9.3766155
-68.224045 45.770145 9.1931782
-69.980728 46.090107 31.058571
-69.683617 45.960258 27.283607
-69.659714 46.045864 26.978445
-69.417496 45.958801 23.89979
-69.39035 45.95517 23.554602
-69.365005 45.968235 23.232092
-69.33976 45.977123 22.910845
-69.143196 45.92379 20.411301
-69.122025 45.942451 20.141663
-69.101425 45.965591 19.879269
-69.079895 45.970036 19.605183
-69.058937 45.978996 19.338411
-69.038055 45.984756 19.072668
-68.815582 45.868061 16.243181
-68.42321 45.887539 11.247054
-68.4077 45.864132 11.049827
-68.392799 45.857609 10.86016
-68.377953 45.849224 10.671132
-68.362892 45.829498 10.47962
-68.348152 45.817398 10.292007
-68.333214 45.793926 10.102111
-68.319534 45.816433 9.927556
-68.304939 45.798962 9.7418222
-68.29084 45.798931 9.5622854
-68.276779 45.797215 9.3831739
-68.263176 45.813141 9.2096214
-68.24958 45.827484 9.0361881
-68.234993 45.791706 8.8509407
-68.220879 45.773598 8.671298
-70.014877 46.081879 31.096281
-69.692902 46.015476 26.983124
-69.454727 45.96413 23.939676
-69.428253 45.967941 23.601208
-69.400208 45.946049 23.243088
-69.377312 45.983688 22.949596
-69.157875 45.914162 20.14488
-69.139915 45.976036 19.914036
-69.117462 45.965275 19.627022
-69.097092 45.982327 19.366159
-69.075317 45.972607 19.087824
-68.856789 45.917034 16.293255
-68.839615 45.937576 16.07313
-68.433815 45.888847 10.879826
-68.418999 45.880684 10.690215
-68.404228 45.87067 10.501261
-68.389503 45.85881 10.312979
-68.374588 45.835571 10.12241
-68.360458 45.839172 9.9413986
-68.345657 45.812279 9.752346
-68.331146 45.793156 9.5669308
-68.317139 45.791531 9.3875628
-68.303589 45.807549 9.2137537
-68.289635 45.802608 9.0351133
-68.275917 45.805706 8.8593349
-68.262215 45.807178 8.6838751
-68.248352 45.797291 8.506526
-68.234894 45.80529 8.3339672
-68.221092 45.792152 8.1574965
-68.207169 45.767578 7.9796066
-70.053734 46.032436 31.076694
-69.735115 45.997578 27.002586
-69.497589 45.955166 23.964872
-69.469421 45.938206 23.60487
-69.444199 45.951851 23.28186
-69.419067 45.961315 22.960106
-69.201233 45.916248 20.173382
-69.182777 45.970703 19.935883
-69.160316 45.960205 19.648596
-69.138954 45.961834 19.375082
-68.900848 45.940407 16.327145
-68.88237 45.935829 16.090708
-68.432404 45.881001 10.327818
-68.417694 45.867493 10.139727
-68.40329 45.861729 9.9552364
-68.389633 45.88298 9.7797394
-68.375519 45.883385 9.5988588
-68.360992 45.862808 9.4131098
-68.346298 45.83078 9.2255754
-68.3321 45.816311 9.043952
-68.318359 45.819538 8.8677511
-68.304443 45.811413 8.6895599
-68.290558 45.801628 8.5118694
-68.276901 45.799961 8.336833
-68.263618 45.816257 8.1662636
-68.249657 45.791817 7.9878583
-68.236572 45.814812 7.8195958
-68.223 45.806808 7.6458349
-68.209152 45.777519 7.4690704
-68.195511 45.756462 7.2947068
-70.098022 46.032223 31.119761
-69.777199 45.98193 27.019909
-69.540016 45.948162 23.987961
-69.512375 45.938488 23.634811
-69.486565 45.94537 23.304461
-69.461411 45.955097 22.98246
-69.242249 45.896912 20.180635
-69.223793 45.951488 19.943005
-69.203835 45.980026 19.686874
-69.180923 45.958534 19.394316
-69.16011 45.964973 19.127811
-68.92308 45.918301 16.09572
-68.906357 45.945305 15.880915
-68.591751 45.896973 11.854056
-68.359604 45.862995 8.8813868
-68.345627 45.855042 8.7025194
-68.33091 45.806431 8.5152597
-68.317215 45.804848 8.3398848
-68.303734 45.811443 8.1669226
-68.289909 45.796864 7.9902291
-68.276299 45.79047 7.815979
-68.262871 45.792328 7.6439295
-68.249466 45.792633 7.4721274
-68.235924 45.781525 7.2989607
-70.143265 46.026787 31.154213
-69.821648 45.97324 27.044334
-69.5849 45.948566 24.017675
-69.558388 45.953259 23.678415
-69.530838 45.939331 23.32653
-69.506233 45.956451 23.011255
-69.286331 45.893288 20.200134
-69.268906 45.963551 19.974886
-69.247398 45.969078 19.699577
-69.225975 45.971268 19.425385
-69.204636 45.970142 19.152348
-69.183876 45.973663 18.886555
-68.967285 45.926529 16.115978
-68.635071 45.89996 11.862848
-68.333389 45.841244 7.9999003
-68.319382 45.815353 7.8212023
-68.305588 45.797638 7.6450462
-68.29216 45.798008 7.4729013
-68.278587 45.786961 7.2993917
-70.188202 45.993816 31.146984
-69.868767 45.965919 27.067625
-69.632256 45.950188 24.046272
-69.604546 45.941139 23.692516
-69.578667 45.948635 23.361553
-69.551758 45.937534 23.018017
-69.315681 45.968891 19.999344
-69.294136 45.974686 19.723698
-69.272667 45.977142 19.449167
-69.250282 45.960495 19.163548
-69.229485 45.964169 18.897549
-69.012512 45.918591 16.124628
-68.99575 45.945961 15.909228
-68.679947 45.903542 11.870587
-68.337036 45.862862 7.4829159
-68.323074 45.832222 7.3053002
-70.137024 46.078129 29.839951
-69.920158 45.963997 27.08609
-69.681908 45.942604 24.055803
-69.654648 45.940674 23.708971
-69.626343 45.919991 23.34964
-69.602737 45.951687 23.047937
-69.36277 45.947121 19.993837
-69.341644 45.960686 19.724386
-69.320076 45.963181 19.449726
-69.298088 45.95446 19.170099
-69.277191 45.958229 18.903902
-69.059113 45.913582 16.128706
-69.041832 45.932495 15.907894
-68.988579 45.9403 15.229233
-68.724472 45.890533 11.866423
-69.980766 45.954403 27.084454
-69.741432 45.946556 24.067719
-69.715073 45.958767 23.734844
-69.68647 45.938286 23.375174
-69.660896 45.948757 23.052204
-69.420158 45.967705 20.015293
-69.396721 45.950321 19.72044
-69.375977 45.968479 19.458027
-69.354279 45.967739 19.184261
-69.33316 45.971649 18.917732
-69.110069 45.87746 16.107231
-69.094856 45.938927 15.912417
-69.077003 45.946949 15.686791
-68.773773 45.888756 11.861588
-69.806122 45.94437 24.07152
-69.778229 45.942543 23.724318
-69.75103 45.943222 23.385706
-69.7257 45.960934 23.069477
-69.479515 45.950336 20.004372
-69.456833 45.948444 19.721983
-69.435822 45.966637 19.459383
-69.4133 45.958023 19.179331
-69.391907 45.961906 18.912689
-69.16674 45.884407 16.111471
-69.150871 45.937416 15.911172
-69.132782 45.945465 15.685343
-70.115036 45.960045 27.106224
-69.86824 45.945843 24.080853
-69.839912 45.944031 23.73365
-69.811699 45.937634 23.388016
-69.785385 45.948154 23.064873
-69.537086 45.959904 20.019829
-69.514046 45.958099 19.737347
-69.491081 45.952843 19.456118
-69.46875 45.952057 19.182283
-69.447021 45.955925 18.915676
-69.218262 45.878246 16.114834
-69.202148 45.931267 15.914521
-69.165428 45.944878 15.463659
-70.214622 45.959206 28.009405
-70.180428 45.962086 27.593643
-70.148315 45.978573 27.202475
-69.900467 45.976139 24.189871
-69.870644 45.960121 23.828207
-69.843994 45.974781 23.50342
-69.816223 45.970924 23.165983
-69.582275 45.887253 20.325813
-69.565086 45.973297 20.111973
-69.541832 45.971283 19.829287
-69.519211 45.973675 19.554022
-69.243904 45.897236 16.209139
-69.227654 45.95015 16.008492
-68.516281 45.80151 7.3565102
-70.266953 45.957352 28.002895
-70.231926 45.953644 27.579382
-70.199661 45.969894 27.188156
-69.95121 45.972622 24.182314
-69.922462 45.970535 23.834688
-69.896286 45.992302 23.516663
-69.867142 45.974148 23.165041
-69.631897 45.889843 20.323282
-69.614639 45.975883 20.109179
-69.592361 45.989426 19.838757
-69.292099 45.907574 16.20858
-70.2425 45.971268 27.205111
-69.993393 45.967888 24.19026
-69.965897 45.979954 23.856583
-69.937248 45.973457 23.510221
-69.909325 45.96957 23.172428
-69.673454 45.878025 20.322594
-69.656227 45.964092 20.108318
-69.634514 45.985447 19.843979
-69.333649 45.895763 16.205616
-68.417686 45.787743 5.109448
-70.279465 45.965927 27.241493
-70.030891 45.958622 24.217064
-70.002281 45.956894 23.868998
-69.973778 45.950573 23.522503
-69.946602 45.954037 23.191515
-69.696404 45.974037 20.144226
-69.673119 45.972343 19.860796
-69.650467 45.975052 19.584778
-69.627342 45.966518 19.303825
-69.605385 45.970501 19.036242
-69.373596 45.885349 16.219309
-69.357849 45.947021 16.02309
-68.405777 45.773308 4.4313869
-70.286469 46.048985 26.993208
-70.061996 45.934986 24.244457
-70.034882 45.947708 23.910326
-70.008461 45.963196 23.584524
-69.980286 45.95298 23.239126
-69.958282 46.010506 22.964241
-69.74852 45.88345 20.396448
-69.730461 45.954777 20.168869
-69.709595 45.984604 19.910139
-69.686569 45.979977 19.627466
-69.663628 45.971909 19.346081
-69.410843 45.87888 16.245716
-69.395729 45.949387 16.054379
-69.063148 45.896477 11.968192
-68.395309 45.785255 3.7589588
-68.381294 45.72068 3.5914769
-70.300163 45.950203 26.940481
-70.08876 45.945744 24.308901
-70.060745 45.945065 23.96011
-70.033432 45.946892 23.619892
-70.006821 45.951435 23.288115
-69.983307 45.987801 22.992191
-69.780083 45.917351 20.46714
-69.758896 45.94289 20.201096
-69.737755 45.965279 19.935852
-69.715019 45.960964 19.652948
-69.693443 45.969025 19.383524
-69.671936 45.973873 19.115145
-69.443153 45.87215 16.273319
-69.428261 45.942947 16.081705
-69.409592 45.943127 15.849051
-69.099968 45.904491 11.992919
-70.111244 45.940895 24.347153
-70.083023 45.933582 23.990946
-70.054893 45.921551 23.636419
-70.029884 45.940632 23.318392
-70.006737 45.977322 23.0222
-69.808075 45.932491 20.513924
-69.787201 45.958492 20.247389
-69.765259 45.96574 19.969179
-69.742287 45.953926 19.679737
-69.721031 45.962276 19.410015
-69.699295 45.959454 19.135303
-69.472794 45.843143 16.280327
-69.460052 45.948227 16.10931
-69.441177 45.940102 15.871167
-69.386734 45.934734 15.182652
-69.135452 45.896027 12.005349
-70.107964 45.946667 24.039713
-70.082619 45.963505 23.71279
-70.055534 45.954651 23.366234
-70.030334 45.96291 23.042011
