# .PCD v0.7 - Point Cloud Data file format
VERSION 0.7
FIELDS x y z
SIZE 4 4 4
TYPE F F F
COUNT 1 1 1
WIDTH 1558
HEIGHT 1
VIEWPOINT 0 0 0 1 0 0 0
POINTS 1558
DATA ascii
-66.740364 46.00835 1.7432241
-66.727539 46.009609 1.5851393
-66.810623 46.051716 2.0449543
-66.798485 46.015923 1.890726
-66.785873 46.008606 1.7336084
-66.772896 46.019753 1.5740477
-66.855103 46.051636 2.0289154
-66.842934 46.015751 1.8744438
-66.830475 45.998402 1.7181998
-66.817337 46.019386 1.5572422
-66.898018 46.031483 2.0133965
-66.885666 46.005451 1.8578076
-66.872864 46.007874 1.6991268
-66.860229 45.998962 1.5414801
-66.942001 46.031567 1.9996513
-66.929611 46.005466 1.8438125
-66.916779 46.007809 1.6848718
-66.904114 45.998817 1.5269694
-66.984337 46.011738 1.9891602
-66.971886 45.985592 1.8332442
-66.959015 45.987892 1.6742189
-66.946144 45.988777 1.5150059
-67.022575 46.011414 1.9730738
-67.009621 46.014999 1.8137323
-66.996948 45.997307 1.6564865
-66.984146 45.988159 1.498166
-67.061584 46.010918 1.9543266
-67.04895 45.984562 1.7979295
-67.035919 45.986641 1.638393
-67.022736 45.997227 1.4774314
-67.098427 46.000446 1.9372292
-67.085564 45.983925 1.7796078
-67.072151 46.005753 1.6174994
-67.059296 45.986431 1.4598422
-67.133385 45.999844 1.9209006
-67.120438 45.983227 1.7630327
-67.106819 46.014881 1.5994959
-67.170052 45.999294 1.9058877
-67.156815 46.002468 1.745605
-67.143837 45.984356 1.5874628
-67.207611 45.999104 1.8966628
-67.19455 45.992298 1.7371968
-67.181358 45.994015 1.57654
-67.259232 46.034592 2.0533581
-67.246712 45.98941 1.8973608
-67.233902 45.972713 1.7387855
-67.220856 45.974491 1.5780307
-67.299904 46.024914 2.0555639
-67.287529 45.979794 1.8993585
-67.274651 45.98304 1.7384394
-67.261887 45.974926 1.5784854
-67.339539 46.034908 2.0514214
-67.327385 45.979843 1.8958317
-67.314766 45.97316 1.7357117
-67.301926 45.984932 1.5732518
-67.376717 46.034603 2.0420413
-67.364723 45.969551 1.8871766
-67.352089 45.972782 1.7258033
-67.339554 45.964645 1.565394
-67.41349 46.024227 2.0311146
-67.401184 45.988972 1.873125
-67.388611 45.982182 1.7123935
-67.376259 45.954113 1.5539645
-67.449448 46.013737 2.0202363
-67.437164 45.968483 1.8630759
-67.424355 45.981533 1.700107
-67.411819 45.963329 1.5402638
-67.484001 45.993153 2.0099962
-67.471413 45.977711 1.8497808
-67.458649 45.980743 1.6875449
-67.446068 45.962479 1.5274489
-67.521851 46.00248 1.9956162
-67.509315 45.977005 1.8360559
-67.496536 45.979965 1.6735592
-67.483742 45.981483 1.5108696
-67.559074 45.991711 1.9828213
-67.546539 45.966167 1.8230948
-67.533684 45.979 1.6593357
-67.520981 45.970509 1.4975579
-67.595482 45.990883 1.9725331
-67.582817 45.985195 1.8105438
-67.570389 45.948257 1.6517882
-67.557556 45.959606 1.4876587
-67.634537 45.970459 1.9721898
-67.622078 45.944908 1.8121048
-67.609329 45.957729 1.6479914
-67.596558 45.969086 1.4835131
-67.675262 45.980309 1.9768742
-67.662865 45.954842 1.8164178
-67.650276 45.957806 1.6530381
-67.637665 45.959316 1.4894657
-67.715286 45.960293 1.9838244
-67.702858 45.95483 1.821285
-67.690353 45.957878 1.6576399
-67.677902 45.949539 1.4949605
-67.754517 45.97966 1.9787973
-67.742279 45.94434 1.8187722
-67.729706 45.967289 1.6528078
-67.717361 45.949013 1.4909338
-67.792442 45.948982 1.9725988
-67.779991 45.953449 1.8086354
-67.767639 45.936577 1.6466101
-67.755096 45.948086 1.4812621
-67.828255 45.958126 1.963141
-67.815781 45.952595 1.7998209
-67.803299 45.945625 1.6364684
-67.790878 45.927284 1.4742559
-67.865631 45.957451 1.9568313
-67.853127 45.941952 1.7942419
-67.840469 45.954853 1.6285745
-67.827904 45.946411 1.4648607
-67.901268 45.936966 1.9550239
-67.888672 45.931435 1.7913634
-67.876015 45.934406 1.6265992
-67.863281 45.945847 1.4604846
-67.936455 45.9464 1.9523602
-67.923843 45.94088 1.7883511
-67.911217 45.933914 1.6243097
-67.898483 45.945374 1.4579376
-67.97464 45.945988 1.9514596
-67.962112 45.930546 1.7881629
-67.949463 45.943501 1.6218084
-67.936882 45.935104 1.4573934
-68.011932 45.945667 1.9506444
-67.999512 45.9203 1.7880528
-67.9869 45.943233 1.6204584
-67.974396 45.93486 1.4557742
-68.046913 45.945377 1.9493377
-68.034454 45.939938 1.7845278
-68.02195 45.942989 1.6186242
-68.009422 45.944569 1.4525275
-68.081383 45.945118 1.9453577
-68.068924 45.929722 1.7812605
-68.056358 45.942722 1.6141254
-68.043846 45.934361 1.448916
-68.115097 45.914761 1.9387749
-68.102539 45.929203 1.7717575
-68.090019 45.922264 1.6064827
-68.077492 45.913876 1.4411883
-68.147835 45.934132 1.9251213
-68.135345 45.928581 1.7596173
-68.122887 45.911633 1.5951451
-68.110306 45.923042 1.4273765
-68.194489 45.997757 2.0780792
-68.182121 45.943787 1.9162892
-68.169731 45.918293 1.7523886
-68.157265 45.921204 1.5856102
-68.144814 45.912701 1.4197906
-68.228531 45.977699 2.0748801
-68.216217 45.92374 1.9129936
-68.203812 45.928108 1.7460685
-68.191414 45.921059 1.5800021
-68.17894 45.932411 1.4116174
-68.261162 45.977577 2.0668495
-68.248871 45.913624 1.9055958
-68.236443 45.93787 1.7365395
-68.224083 45.920826 1.5711894
-68.211624 45.93214 1.402542
-68.294891 45.967346 2.0546274
-68.28257 45.923244 1.8914319
-68.27018 45.927498 1.7239815
-68.257828 45.910385 1.5584627
-68.245438 45.901756 1.3919454
-68.328117 45.955627 2.036267
-68.315773 45.94141 1.8702515
-68.303444 45.915787 1.7053519
-68.291054 45.91856 1.5375549
-68.278648 45.919846 1.3695679
-68.348724 45.964596 1.8288125
-68.336418 45.968708 1.6609181
-68.324081 45.971336 1.4928213
-68.386108 45.954819 1.8202025
-68.361626 45.961483 1.4838501
-68.422516 45.945091 1.8109829
-68.410316 45.969025 1.6407484
-68.39814 45.941727 1.4753512
-68.456581 45.955097 1.7965381
-68.444389 45.959045 1.6279358
-68.432167 45.961498 1.4591328
-68.491081 45.964931 1.7762651
-68.478851 45.95879 1.6083153
-68.466591 45.961109 1.4392525
-68.537628 45.949368 1.9214237
-68.513069 45.958141 1.5833867
-68.500778 45.940403 1.4162561
-68.569687 45.93885 1.8987411
-68.557335 45.933868 1.7305866
-68.544968 45.957253 1.5593427
-68.532585 45.939346 1.3919729
-68.603264 45.948463 1.8815835
-68.590805 45.933414 1.7140266
-68.578331 45.946747 1.5435401
-68.637192 45.9482 1.8730247
-68.624687 45.933117 1.705211
-68.612175 45.926514 1.5365123
-68.673553 45.938118 1.8721869
-68.661125 45.942978 1.7023215
-68.648682 45.946335 1.5322475
-68.713081 45.938103 1.8754537
-68.700775 45.943027 1.705321
-68.688438 45.936501 1.5359948
-68.676086 45.938423 1.3655435
-68.751991 45.938175 1.8818175
-68.739769 45.943195 1.7114201
-68.727516 45.93676 1.541822
-68.715256 45.938774 1.3711045
-68.789444 45.938217 1.8864074
-68.777275 45.943317 1.7157484
-68.826683 45.928097 1.8851721
-68.814507 45.923264 1.7152535
-68.802353 45.93684 1.5432949
-68.863289 45.937462 1.8726741
-68.838867 45.926163 1.5321083
-68.82663 45.918266 1.3617831
-68.896538 45.926594 1.856005
-68.884254 45.911629 1.6864957
-68.859718 45.917015 1.3435193
-68.904694 45.914032 1.4984254
-68.892303 45.915855 1.3265851
-68.948883 45.91967 1.6561656
-68.936424 45.922932 1.4841782
-68.993431 45.923813 1.8156401
-68.980965 45.918564 1.6444445
-68.968498 45.921757 1.4721956
-69.02887 45.922607 1.8046807
-69.016487 45.917297 1.633219
-68.991684 45.912086 1.2891011
-69.064476 45.911488 1.802155
-69.052246 45.916142 1.6295757
-69.087845 45.905712 1.641711
-69.06353 45.910709 1.2955862
-69.126587 45.915215 1.6594844
-69.102448 45.9007 1.3148247
-69.177414 45.909473 1.8489039
-69.153618 45.898354 1.5039198
-69.251244 45.906597 1.8529153
-69.248863 45.896301 1.3305159
-69.317619 45.893478 1.8547454
-69.305649 45.89883 1.6804289
-69.293594 45.892689 1.5068727
-69.354729 45.901905 1.8544587
-69.342575 45.887371 1.6815659
-69.330505 45.891235 1.5068685
-69.392784 45.890396 1.8516673
-69.429512 45.888809 1.8449157
-69.468147 45.887356 1.8414217
-69.455994 45.882786 1.6669513
-69.506271 45.886177 1.8438412
-69.46946 45.868031 1.3195531
-69.544022 45.885082 1.8462818
-69.733665 45.8675 1.7979325
-69.721344 45.862835 1.6217283
-69.768776 45.865711 1.7819594
-69.818352 45.857029 1.9401969
-70.076866 45.840012 1.7509662
-70.11203 45.827541 1.7505257
-70.10067 45.832794 1.5709499
-70.160789 45.838093 1.929478
-70.200104 45.835392 1.9311396
-70.165604 45.821518 1.3932016
-70.275391 45.82003 1.9360936
-70.240837 45.816448 1.3959066
-70.606056 45.915215 6.4616961
-70.300514 45.81461 1.7596543
-70.645256 45.911884 6.4629917
-70.724129 45.906658 6.4575615
-70.800346 45.896526 6.4777608
-70.837234 45.892368 6.483314
-70.873947 45.888237 6.4888811
-70.912788 45.883411 6.4982505
-70.952621 45.8685 6.5077338
-70.992325 45.883312 6.5216284
-71.034531 45.869255 6.5265303
-71.076149 45.876411 6.527082
-71.117844 45.875336 6.5165391
-71.251968 45.863087 6.4772005
-71.296165 45.862766 6.4629507
-72.365898 45.804089 2.5124302
-72.461174 45.791904 2.4984348
-72.695549 45.784977 2.2679873
-72.741623 45.778881 2.2502682
-72.839844 45.776459 2.2460392
-74.918098 45.663456 4.9086065
-74.803192 45.626583 2.1970036
-75.322067 45.626331 1.7584133
-75.445618 45.597908 1.6874818
-75.521362 45.61731 1.8483951
-75.508896 45.618404 1.6379108
-75.942696 45.659943 6.6294379
-75.664574 45.626541 1.9537576
-75.727745 45.607449 1.8981953
-75.793762 45.598259 1.8438864
-76.151428 45.674911 6.7014713
-75.860092 45.598896 1.7888737
-76.219368 45.666122 6.6421847
-75.938721 45.607056 1.9369562
-76.005447 45.607895 1.8609816
-76.0858 45.60516 1.9968451
-76.441795 45.659805 6.6554546
-76.221191 45.606033 1.8659664
-76.207489 45.597878 1.6528447
-76.64415 45.658012 6.5012527
-76.370483 45.592281 1.9718103
-76.358185 45.595039 1.7576659
-76.447044 45.581142 1.9301701
-76.43502 45.583546 1.7157437
-76.522049 45.569836 1.8996524
-76.511307 45.581921 1.6844832
-76.597847 45.57848 1.8615832
-76.685539 45.563461 2.0206966
-76.675011 45.576672 1.8049732
-76.763611 45.571369 1.9525216
-76.751961 45.574093 1.7367688
-76.843658 45.578777 1.894187
-76.829788 45.56118 1.6789128
-76.924477 45.565968 1.8497465
-76.911766 45.557945 1.6337593
-77.093277 45.566628 1.9449272
-77.079063 45.549652 1.7286626
-77.261749 45.555576 2.0236535
-77.248589 45.549316 1.806324
-77.236443 45.551079 1.5885811
-77.340767 45.551517 1.9931473
-77.472809 45.527199 1.5334213
-77.815994 45.599243 6.5822163
-77.573227 45.537846 1.9451121
-77.562546 45.540783 1.725908
-77.548965 45.522022 1.5076447
-77.64415 45.503353 1.9114857
-77.635216 45.515877 1.6917285
-77.624672 45.516594 1.4722363
-77.733505 45.533501 2.0930812
-77.722374 45.527794 1.8735243
-77.712334 45.530087 1.6535833
-77.699326 45.510685 1.434639
-77.803658 45.528664 2.060323
-77.791222 45.512798 1.8407992
-77.782623 45.524719 1.6201236
-77.771019 45.514946 1.400296
-77.865562 45.527214 1.8112997
-77.853035 45.509201 1.5915071
-77.84301 45.509071 1.3708541
-77.945107 45.497875 2.0074828
-77.936111 45.501316 1.7866383
-77.926834 45.502842 1.5656961
-77.917282 45.502453 1.3446732
-78.011917 45.504791 1.7661335
-78.001831 45.496201 1.5452199
-77.994293 45.505466 1.3232455
-78.097023 45.505081 1.9668294
-78.086258 45.4883 1.7458843
-78.079506 45.499264 1.5237013
-78.072464 45.508301 1.3012661
-78.169434 45.488632 1.9434266
-78.163239 45.501301 1.7209703
-78.153847 45.492275 1.4992565
-78.247116 45.501431 1.9118724
-78.238159 45.494061 1.6897305
-78.22892 45.484772 1.4676718
-78.495155 45.563232 6.5944409
-78.32206 45.474201 1.88002
-78.314857 45.476421 1.6572622
-78.307358 45.476719 1.4344156
-78.565208 45.559319 6.5794992
-78.395279 45.478069 1.6339765
-78.388176 45.478134 1.4106802
-78.481895 45.477802 1.8449963
-78.468781 45.47958 1.3975939
-78.460251 45.467701 1.1744043
-78.708817 45.547127 6.5681086
-78.571655 45.49543 2.0535107
-78.562744 45.479324 1.8300703
-78.555069 45.471165 1.6064217
-78.550163 45.480812 1.3817791
-78.541885 45.468784 1.1581509
-78.64946 45.487148 2.0328825
-78.639122 45.461002 1.8094732
-78.634705 45.472404 1.5846421
-78.629974 45.481861 1.3595527
-78.620285 45.459789 1.1361275
-78.857903 45.53791 6.5318937
-78.726494 45.478916 2.0033059
-78.719383 45.47226 1.7788035
-78.713531 45.473537 1.5539054
-78.707367 45.47287 1.3289255
-78.70089 45.470261 1.1038808
-78.805168 45.470501 1.9702711
-78.790878 45.454693 1.5206544
-78.784851 45.453739 1.2954103
-78.780083 45.460693 1.0694473
-78.881737 45.451866 1.9419701
-78.87648 45.454548 1.7164596
-78.860397 45.460758 1.0387628
-78.945969 45.444363 1.2479368
-78.941551 45.450893 1.0211713
-79.04567 45.443066 1.9193729
-79.042511 45.455376 1.6926543
-79.035751 45.446022 1.4666646
-79.030296 45.444572 1.240188
-79.125488 45.445625 1.6867349
-79.326637 45.493393 6.7010984
-79.218437 45.452835 1.8976859
-79.210678 45.435371 1.6712443
-79.200859 45.433975 1.2167836
-79.413933 45.486092 6.6870832
-79.310234 45.448608 2.1036956
-79.299942 45.444855 1.6488038
-79.502998 45.478493 6.6721191
-79.397652 45.448425 2.0816171
-79.484634 45.44825 2.0668106
-79.47036 45.42429 1.6110649
-62.532127 46.179516 23.806728
-62.480122 46.17231 21.12903
-62.479912 46.17128 18.412807
-61.988808 46.273624 2.7180386
-64.228798 46.075153 23.829126
-64.666634 46.128506 26.680191
-64.74929 46.153175 26.80472
-64.71154 46.117294 26.360085
-64.67543 46.111061 25.965582
-64.788918 46.147861 26.468325
-64.751831 46.112713 26.033245
-64.716232 46.101677 25.640036
-64.813454 46.153404 26.13442
-64.777702 46.137306 25.732586
-64.742943 46.127762 25.348375
-64.708649 46.100307 24.950239
-64.675522 46.092323 24.585192
-64.728256 46.131947 24.674688
-64.695816 46.11338 24.302881
-64.66404 46.089577 23.932878
-64.633095 46.073547 23.579952
-64.792747 46.149258 24.743227
-64.760353 46.13781 24.378633
-64.72879 46.134098 24.031055
-64.697502 46.099613 23.65457
-64.667114 46.079475 23.302773
-64.637474 46.067688 22.967722
-64.803749 46.161652 24.104113
-64.772514 46.153893 23.757513
-64.741524 46.115124 23.382278
-64.711601 46.104156 23.046614
-64.682121 46.075214 22.697649
-64.653473 46.06842 22.38007
-64.731544 46.14082 22.467283
-64.70285 46.110031 22.128414
-64.67485 46.088341 21.805916
-64.647545 46.090038 21.513884
-64.620636 46.066875 21.201675
-64.727448 46.154522 21.567402
-64.700134 46.131714 21.25458
-64.673355 46.104702 20.943407
-64.647179 46.102051 20.661964
-64.621437 46.081345 20.367884
-64.596169 46.078518 20.095997
-64.571365 46.057568 19.811684
-64.699974 46.133198 20.404573
-64.674355 46.12336 20.125277
-64.649178 46.102577 19.840504
-64.624443 46.10022 19.577484
-64.600182 46.072208 19.295576
-64.576256 46.070511 19.041739
-64.60746 46.088665 18.565468
-64.584404 46.070049 18.308229
-64.690407 46.136162 16.218529
-64.670296 46.128372 16.00123
-64.650352 46.126343 15.790517
-64.659248 46.135582 15.207891
-64.640411 46.115986 14.994948
-64.621872 46.093937 14.783129
-64.584976 46.077 14.383295
-64.548714 46.068573 13.996932
-64.670319 46.128391 14.626977
-64.651855 46.119274 14.426829
-64.633995 46.090622 14.217562
-64.616241 46.068279 14.01445
-64.598389 46.061134 13.822151
-64.580147 46.078232 13.645018
-64.562523 46.075855 13.458852
-64.545105 46.071487 13.273393
-64.528152 46.05624 13.084108
-64.643204 46.123722 13.682922
-64.625885 46.104103 13.486657
-64.608612 46.09119 13.29603
-64.591354 46.085114 13.110835
-64.574547 46.06813 12.921909
-64.557487 46.06707 12.742699
-64.540634 46.06414 12.564118
-64.523979 46.059361 12.386186
-64.636429 46.131695 12.968476
-64.61998 46.104179 12.775211
-64.603783 46.074566 12.58304
-64.586845 46.079079 12.408955
-64.570869 46.05455 12.222885
-64.554321 46.055412 12.05007
-64.537117 46.081997 11.889813
-64.521477 46.061077 11.710012
-64.619034 46.117619 12.099664
-64.603622 46.080616 11.910475
-64.587646 46.06916 11.734273
-64.571861 46.055897 11.558806
-64.523842 46.06131 11.058657
-65.068649 46.137924 16.170446
-64.604652 46.086842 11.259614
-64.587509 46.105278 8.3927422
-64.573486 46.08812 8.2357101
-64.560028 46.059719 8.077219
-65.408165 46.116924 16.224987
-64.57843 46.09938 7.6315231
-64.564034 46.094921 7.479754
-64.551086 46.059505 7.3234677
-65.474098 46.126968 16.259424
-66.318504 46.076744 24.400721
-65.533005 46.112087 16.277029
-66.375824 46.079319 24.454121
-66.760445 45.960735 27.829863
-65.757874 46.09388 16.165058
-65.351318 46.084721 11.898428
-65.815346 46.071606 16.176523
-65.406212 46.085312 11.913872
-66.517067 46.063137 23.629206
-66.486542 46.081039 23.318043
-65.806244 46.073189 16.170959
-65.399323 46.090023 11.903815
-64.56842 46.079304 3.1615551
-66.51712 46.067604 23.008209
-66.487953 46.091034 22.71384
-65.459229 46.093212 11.912528
-66.550102 46.048969 22.70039
-66.490738 46.049366 22.079029
-66.463112 46.075069 21.802309
-66.501984 46.037888 21.501743
-66.475426 46.070759 21.240965
-65.580452 46.069504 11.923331
-64.735924 46.099144 3.1366711
-66.460846 46.034069 20.382263
-65.642715 46.062847 11.929507
-64.792603 46.075802 3.1306782
-65.700279 46.08461 11.945678
-66.152916 46.095631 16.080898
-64.960213 46.089046 3.721595
-64.94696 46.061043 3.5720363
-64.931885 46.071617 3.4204297
-66.529793 46.01157 19.390717
-66.210411 46.07745 16.103973
-66.400337 46.082115 17.506767
-66.26857 46.058128 16.128387
-66.329407 46.075645 16.169649
-65.07196 46.059166 3.1273506
-66.412537 46.061214 16.399923
-66.391678 46.08149 16.192575
-66.42794 46.039803 15.962686
-66.40799 46.080544 15.772967
-66.387291 46.085522 15.561981
-66.028023 46.062183 11.858669
-66.442436 46.023262 15.542736
-66.422325 46.04277 15.343307
-66.401932 46.043053 15.133952
-66.382675 46.083897 14.951094
-66.083603 46.063026 11.871138
-66.436615 46.010914 14.930489
-66.417137 46.032547 14.737904
-66.397957 46.060806 14.550722
-66.378876 46.087116 14.363823
-66.13884 46.053291 11.882758
-66.446785 45.986916 14.532332
-66.427849 46.013153 14.345737
-66.408653 46.019958 14.149761
-66.389915 46.042252 13.963944
-66.371437 46.071453 13.78316
-66.189911 46.061432 11.903766
-66.474884 45.975254 14.345674
-66.455849 45.98214 14.149684
-66.436775 45.978142 13.949553
-66.418503 46.007294 13.768991
-66.40062 46.052361 13.597871
-66.382202 46.060127 13.408514
-66.465912 45.987408 13.778348
-66.447266 45.979416 13.579358
-66.429222 45.99601 13.394835
-66.411133 46.001762 13.206249
-66.393425 46.023521 13.02701
-66.375809 46.043488 12.848051
-66.422417 45.988216 12.839889
-66.404823 45.988274 12.652911
-66.387589 46.004593 12.474874
-66.370758 46.046528 12.309395
-66.171791 46.105465 10.212556
-65.895767 46.085907 7.2702074
-66.419029 45.992847 12.298345
-66.401962 45.996536 12.11691
-66.384995 45.99839 11.936005
-66.368217 46.007664 11.759481
-66.205627 46.101051 10.049406
-66.418144 45.976284 11.748188
-66.401505 45.983768 11.572062
-66.385033 45.998821 11.40003
-66.368637 46.012207 11.228274
-65.997643 46.049034 7.2603893
-66.383171 45.9874 10.857848
-66.318375 46.099171 9.6779213
-66.319466 46.077343 9.1507921
-65.978157 46.001793 5.471611
-66.335091 46.030144 8.7949514
-66.319695 46.038441 8.632843
-65.804756 46.00967 3.1258307
-66.35228 46.002243 8.4596405
-66.337044 45.997776 8.2958584
-66.321724 46.021164 8.1386232
-66.306496 46.033352 7.9793019
-66.290962 46.093212 7.8294735
-66.354958 46.007225 7.9826164
-66.339828 46.018074 7.8232746
-66.324959 45.997986 7.6586013
-66.309708 46.035484 7.5048413
-66.294365 46.081516 7.3523045
-66.343193 45.995331 7.3516135
-68.547981 45.893906 29.410086
-68.600441 45.955353 29.556736
-68.55471 45.916462 29.044456
-68.511192 45.887844 28.558826
-68.603569 45.946606 29.139883
-68.561958 45.936794 28.677664
-68.521263 45.926296 28.225475
-68.619751 45.961319 28.739763
-68.578308 45.945339 28.279154
-68.536575 45.916599 27.812782
-68.555244 45.938915 27.435623
-68.513985 45.897327 26.973331
-68.52713 45.941948 26.649197
-68.487663 45.900875 26.206314
-68.529137 45.92738 26.293526
-68.491341 45.893734 25.867682
-68.457321 45.893024 25.489571
-68.750725 45.947456 28.465796
-68.564636 45.930462 26.374174
-68.5289 45.917068 25.970688
-68.492836 45.891514 25.561539
-68.776611 45.912247 28.499386
-68.558807 45.904243 26.026007
-68.524239 45.892376 25.631647
-68.808258 45.919235 28.575962
-68.594124 45.935425 26.122414
-68.559265 45.918072 25.719753
-68.524651 45.895077 25.319065
-68.814201 45.963158 28.261621
-68.601326 45.937931 25.799219
-68.566879 45.915787 25.397934
-68.533234 45.894642 25.006163
-68.859985 45.952358 28.300352
-68.583183 45.93372 25.095015
-68.912018 45.963196 28.347349
-68.570091 45.918968 24.388674
-68.539803 45.917137 24.038223
-68.962074 45.936523 28.334858
-68.531204 45.898899 23.358423
-69.011238 45.960476 28.38438
-68.667671 45.912189 24.413967
-68.492516 45.889099 22.38946
-69.048477 45.942783 28.378439
-68.53434 45.905621 22.417435
-69.084335 45.95356 28.413872
-68.744423 45.913754 24.446644
-69.110138 45.942226 28.428913
-69.130135 45.933445 28.45524
-69.148071 45.911648 28.46657
-69.173897 45.924591 28.52639
-69.208809 45.896259 28.529007
-69.249474 45.892506 28.562906
-69.186852 45.960751 27.789068
-69.252045 45.932808 28.223087
-69.286652 45.936039 28.277502
-69.331413 45.931004 28.312439
-69.299904 45.954559 27.913382
-69.265564 45.941151 27.47699
-69.020615 45.893562 24.365294
-69.387459 45.931808 28.329266
-69.07489 45.895466 24.380005
-68.565948 45.99474 17.95141
-69.451317 45.926819 28.312386
-69.137177 45.908081 24.384722
-68.542046 45.970139 16.942057
-69.516632 45.941589 28.318291
-69.198463 45.914986 24.381363
-69.571777 45.933651 28.30435
-69.25145 45.904682 24.36705
-68.588058 45.957943 16.209871
-68.570282 45.977421 15.991499
-68.551735 45.977451 15.763324
-68.532463 45.957783 15.525816
-68.514084 45.95266 15.29962
-69.618706 45.927448 28.302378
-69.58548 45.944149 27.894888
-69.296631 45.883785 24.349457
-68.615349 45.968533 15.984463
-68.598007 45.994141 15.7717
-68.579071 45.983139 15.538945
-68.561432 45.995411 15.322378
-68.542267 45.970657 15.086619
-68.523598 45.95195 14.857029
-68.50695 45.974476 14.652645
-68.488823 45.959679 14.42975
-69.660393 45.921425 28.313381
-69.340424 45.898869 24.380543
-68.658356 45.973579 15.992838
-68.64061 45.990749 15.774583
-68.622093 45.988388 15.546716
-68.604462 46.000759 15.329843
-68.586487 46.002121 15.108664
-68.568184 45.992352 14.88343
-68.550743 45.997627 14.668815
-68.498787 45.999718 14.029417
-68.479431 45.942341 13.790852
-68.462349 45.936031 13.580565
-69.694748 45.905159 28.33259
-69.374908 45.87109 24.383394
-68.696671 45.964844 16.003942
-68.679405 45.990707 15.790643
-68.66095 45.988533 15.562469
-68.642975 45.992462 15.340257
-68.624664 45.985291 15.113887
-68.607216 45.993053 14.898261
-68.48613 45.965401 13.401122
-68.468864 45.945927 13.187646
-68.451691 45.924179 12.975214
-69.72522 45.892845 28.374479
-69.695564 45.941555 28.005283
-69.662872 45.953701 27.598446
-69.628456 45.941051 27.170204
-69.407646 45.863605 24.422239
-68.73394 45.968853 16.03233
-68.715965 45.977943 15.808285
-68.698044 45.984581 15.584989
-68.678963 45.962887 15.347355
-68.661591 45.97319 15.130819
-68.643478 45.963734 14.905187
-68.627007 45.986828 14.699796
-68.49247 45.986694 13.023213
-68.475105 45.95406 12.806849
-68.458481 45.937393 12.599791
-69.751549 45.889076 28.422649
-69.688599 45.938347 27.630461
-69.437065 45.864937 24.46673
-68.750526 45.966324 15.824127
-68.733192 45.981743 15.605708
-68.715096 45.977547 15.377832
-68.697868 45.988178 15.160832
-68.680702 45.996475 14.944505
-68.663193 45.993694 14.72406
-68.481644 45.98328 12.437197
-68.464645 45.944317 12.223413
-68.448364 45.921574 12.018525
-69.775368 45.877674 28.451281
-69.746338 45.927208 28.081509
-69.715538 45.952805 27.689539
-69.441307 45.916439 24.203209
-68.801758 45.956043 16.065907
-68.784546 45.974079 15.846505
-68.766548 45.972576 15.61747
-68.749435 45.985794 15.399434
-68.731171 45.970646 15.16715
-68.714172 45.97905 14.950657
-68.697617 45.993889 14.739672
-68.469864 45.936386 11.840516
-68.453857 45.909695 11.637011
-68.438797 45.908936 11.44521
-69.807281 45.84066 28.448368
-69.783997 45.946411 28.148687
-69.718483 45.948898 27.31138
-69.477272 45.907555 24.229029
-68.823326 45.972805 15.863955
-68.805397 45.971512 15.634614
-68.788353 45.984932 15.416273
-68.770561 45.978661 15.188644
-68.753227 45.978596 14.966877
-68.736351 45.984875 14.750769
-68.510124 45.947868 11.855641
-68.479721 45.939472 11.466616
-68.464737 45.937061 11.274823
-68.448967 45.904549 11.073462
-69.851273 45.84026 28.492008
-69.826149 45.927742 28.168646
-69.793037 45.929028 27.745073
-69.760666 45.930752 27.331005
-69.521271 45.912094 24.268898
-68.865662 45.962734 15.876049
-68.848145 45.970192 15.6516
-68.8311 45.983818 15.432961
-68.812889 45.969086 15.200061
-68.795555 45.969177 14.978065
-68.779068 45.984371 14.766543
-68.55265 45.94986 11.866996
-68.53756 45.951447 11.673653
-69.894043 45.829906 28.517826
-69.869537 45.923916 28.20204
-69.83577 45.91925 27.77046
-69.803368 45.921265 27.356173
-69.563133 45.89793 24.285007
-68.943748 45.964993 16.359001
-68.889664 45.970024 15.666552
-68.871353 45.957962 15.432487
-68.854752 45.977962 15.219381
-68.836578 45.960854 14.987225
-68.819679 45.967426 14.770659
-69.94101 45.844788 28.574505
-69.914635 45.920631 28.234917
-69.882706 45.935238 27.826269
-69.849663 45.931427 27.40386
-69.608604 45.904911 24.322241
-68.950546 45.95377 15.900802
-68.93383 45.978718 15.686067
-68.915489 45.966885 15.451627
-68.898048 45.969769 15.22821
-68.880257 45.961506 15.000719
-68.863335 45.968258 14.783851
-68.606102 45.938736 11.490617
-68.43354 46.004093 9.278019
-68.418518 45.961128 9.0868616
-68.389946 45.92799 8.7218323
-68.375923 45.918594 8.542532
-69.961235 45.906296 28.251078
-69.931145 45.940018 27.865469
-69.898041 45.936596 27.442734
-69.654236 45.885536 24.329489
-69.331558 45.875343 20.205755
-68.978172 45.953876 15.684036
-68.96106 45.967957 15.464649
-68.943573 45.971008 15.240933
-68.926155 45.971626 15.018032
-68.908386 45.961075 14.791154
-68.407066 45.961803 8.3758783
-68.392853 45.939461 8.1948032
-68.3787 45.915432 8.0144415
-68.364944 45.909359 7.8385701
-68.351219 45.901688 7.6631012
-70.039528 45.827637 28.610172
-70.012413 45.897621 28.262403
-69.982193 45.93145 27.876633
-69.948936 45.928123 27.453743
-69.703377 45.870934 24.331997
-69.378685 45.853569 20.200336
-69.024597 45.949028 15.687671
-69.006981 45.954559 15.463021
-68.972313 45.967003 15.021002
-68.954857 45.965275 14.798717
-68.40966 45.994614 7.8496356
-68.395271 45.957581 7.667767
-68.381126 45.928699 7.4885345
-68.367508 45.927761 7.3149409
-70.073242 45.881931 28.253279
-70.010445 45.92495 27.459888
-69.762505 45.867863 24.336962
-69.434624 45.85088 20.203072
-69.059212 45.952507 15.461927
-69.041893 45.964291 15.242812
-69.023781 45.956291 15.014591
-69.006561 45.963299 14.796976
-70.143555 45.89217 28.274162
-70.079933 45.935471 27.480276
-70.046684 45.932816 27.066515
-69.826851 45.858719 24.33375
-69.496307 45.864273 20.217781
-69.115616 45.968307 15.470335
-69.097183 45.962849 15.240952
-69.0784 45.946148 15.007655
-69.06179 45.970657 14.799514
-68.827324 45.943169 11.878608
-70.434479 45.870235 31.027521
-70.39167 45.845215 30.503963
-70.20945 45.881073 28.267851
-69.890511 45.87394 24.357548
-69.553596 45.866024 20.227015
-69.184662 45.956486 15.698906
-69.147591 45.956676 15.244348
-69.129799 45.966122 15.0257
-69.112053 45.973228 14.807738
-68.873634 45.946075 11.885915
-68.857742 45.94809 11.690917
-68.49939 45.926666 7.2983475
-70.465202 45.844849 31.060785
-70.421326 45.812969 30.529449
-70.385162 45.839108 30.088551
-70.35318 45.895336 29.696804
-70.24559 45.919212 28.388031
-69.922302 45.897388 24.459749
-69.210022 45.97525 15.792564
-68.895897 45.953236 11.970525
-70.473961 45.806328 30.515587
-70.436935 45.826202 30.066652
-70.40139 45.85183 29.635248
-70.361862 45.834618 29.158157
-70.325867 45.841541 28.722418
-70.298744 45.923786 28.389416
-69.974396 45.907799 24.466747
-69.27623 45.969067 16.012758
-69.237579 45.956589 15.545532
-70.403976 45.829281 29.1684
-70.370026 45.854839 28.755943
-70.337524 45.887211 28.360487
-70.306442 45.926826 27.98177
-70.015297 45.889141 24.460527
-69.318268 45.965824 16.014776
-69.299133 45.965229 15.782985
-69.28006 45.962074 15.55211
-68.983398 45.951485 11.957752
-68.43322 45.948868 5.2875328
-70.370613 45.849339 28.358921
-70.33905 45.882679 27.972486
-70.307564 45.910751 27.58733
-70.052025 45.872662 24.480387
-69.712395 45.872211 20.34618
-69.339737 45.963753 15.801307
-69.321205 45.969456 15.57513
-69.302261 45.964008 15.34481
-69.024178 45.925507 11.959288
-70.432648 45.807178 28.807526
-70.39727 45.808903 28.372892
-70.369354 45.874168 28.024952
-70.337486 45.896442 27.631796
-70.30571 45.913334 27.240086
-70.083519 45.855621 24.515129
-69.376831 45.949261 15.822043
-69.358925 45.963852 15.600641
-69.339676 45.950012 15.365067
-70.419212 45.80542 28.434931
-70.391022 45.865021 28.078894
-70.35495 45.843143 27.631765
-70.324265 45.866646 27.24769
-70.108734 45.851898 24.565647
-69.391907 45.958015 15.627337
-69.373795 45.961842 15.401317
-69.355736 45.963219 15.176105
-70.405136 45.817921 28.074085
-70.374176 45.840851 27.680597
-70.342644 45.85194 27.280943
-70.129013 45.825924 24.582607
-69.424202 45.963867 15.654155
-69.405434 45.950615 15.417849
-69.370323 45.960079 14.972551
-70.425041 45.819233 28.119974
-70.394516 45.842613 27.72612
-70.364067 45.860603 27.333702
-70.337532 45.912388 26.988087
-70.307846 45.926674 26.605883
-70.130318 45.89072 24.332127
-69.473396 45.947781 15.895131
-69.455742 45.954517 15.667686
-69.438118 45.958782 15.441022
-69.420547 45.96059 15.215162
-69.403015 45.959957 14.990133
-70.448135 45.817905 28.167454
-70.416031 45.822605 27.75025
-70.387863 45.860252 27.380465
-70.357193 45.86684 26.98163
-70.327873 45.881142 26.599457
-70.1567 45.894108 24.375874
-69.506271 45.954071 15.920923
-69.488342 45.952442 15.688066
-69.470459 45.948254 15.456138
-69.453079 45.950237 15.230035
-69.43618 45.958542 15.009557
-69.192978 45.939636 11.850251
-70.44426 45.823727 27.808329
-70.413185 45.829716 27.400087
-70.383453 45.843117 27.008671
-70.355064 45.864353 26.633808
-70.323601 45.847282 26.223127
-70.184959 45.872761 24.401531
-69.506706 45.961563 15.48954
-69.489029 45.955173 15.258096
-69.472282 45.963779 15.037226
-69.230797 45.939568 11.868195
-70.383461 45.828671 26.644539
-70.32486 45.829563 25.86935
-70.21656 45.859161 24.433245
-69.543358 45.957954 15.512076
-69.508728 45.951912 15.054333
-69.268967 45.930492 11.881596
-68.695526 45.984821 4.2771955
-70.44799 45.80323 27.055065
-70.418045 45.80529 26.657337
-70.36026 45.813244 25.889288
-70.333031 45.826366 25.526068
-70.305855 45.834652 25.164289
-70.251114 45.829834 24.438145
-69.941841 45.8615 20.327213
-69.547531 45.960487 15.075919
-69.529663 45.940773 14.840947
-69.308228 45.942204 11.897208
-69.164024 45.976089 9.9754829
-68.696259 45.966866 3.7551732
-70.348534 45.811943 25.162664
-70.323227 45.836124 24.82395
-70.29554 45.828018 24.457844
-70.27578 45.906437 24.185574
-69.590042 45.955265 15.081478
-69.572578 45.944431 14.851007
-69.349464 45.919395 11.892015
-68.776031 45.987232 4.2661457
-68.762497 45.937393 4.0927339
-70.371201 45.809326 24.812155
-70.322266 45.865368 24.159613
-70.032761 45.849197 20.34457
-69.618332 45.958462 14.863116
-69.393486 45.93504 11.898705
-68.775551 45.979595 3.7335777
-68.762192 45.955147 3.5603814
-68.748848 45.929188 3.387579
-70.369102 45.831333 24.140718
-70.344841 45.856457 23.819666
-70.320618 45.877483 23.499714
-70.295845 45.887218 23.174013
-70.078758 45.828716 20.339224
-69.678642 45.939255 15.082475
-69.661819 45.946095 14.861081
-69.435623 45.93206 11.898197
-68.786011 45.97546 3.3734305
-70.386604 45.817524 23.80604
-70.361725 45.831303 23.479197
-70.336891 45.840885 23.153624
-70.315125 45.882698 22.863518
-70.123863 45.843018 20.370501
-69.738617 45.941078 15.322408
-69.721695 45.95047 15.099941
-69.703903 45.939884 14.868733
-70.346992 45.81731 22.834745
-70.323555 45.833355 22.525324
-70.298988 45.830719 22.203655
-70.278587 45.876175 21.929911
-70.161583 45.845787 20.400526
-69.794533 45.94611 15.573619
-69.759346 45.941551 15.112716
-69.742493 45.948734 14.890709
-69.515106 45.920303 11.911733
-69.499939 45.922092 11.71251
-70.352135 45.824158 22.553869
-70.327148 45.814445 22.225224
-70.303406 45.815422 21.911444
-70.282043 45.842484 21.625338
-70.191307 45.838745 20.427139
-69.774635 45.938591 14.906018
-70.293617 45.879585 21.388109
-70.224594 45.853737 20.473679
-69.584175 45.913307 11.940084
-69.439285 45.962585 10.002995
-70.325264 45.818836 21.368893
-70.303024 45.8241 21.071447
-70.283096 45.856415 20.800758
-70.259262 45.831379 20.48661
-69.84523 45.935162 14.946206
-69.28051 45.883495 7.4134274
-70.317444 45.81443 20.790039
-69.642281 45.920544 11.764433
-69.316948 45.918751 7.4203629
-69.694633 45.903645 11.965342
-70.331512 45.816475 19.966293
-70.310547 45.820175 19.686686
-70.01107 45.941521 15.681538
-69.976151 45.939419 15.216947
-69.717743 45.918308 11.779025
-70.323936 45.809509 19.438889
-69.752838 45.907829 11.796057
-70.026566 45.934235 15.050101
-69.786873 45.904289 11.822739
-69.819016 45.901974 11.847041
-69.851242 45.9025 11.864923
-69.874191 45.9072 11.674687
-69.719528 45.924191 9.526866
-69.7061 45.932266 9.3391771
-69.692665 45.938618 9.1517639
-69.679527 45.952972 8.966958
-69.913071 45.901169 11.681981
-69.74501 45.946777 9.348484
-69.730621 45.924145 9.1534443
-69.716858 45.919109 8.9638367
-69.967384 45.911839 11.898912
-69.75573 45.943661 8.9746094
-69.504143 45.96439 5.5007782
-69.991936 45.899273 11.698309
-69.82177 45.918331 9.3504353
-69.542786 45.961056 5.4979992
-69.529793 45.962765 5.318646
-69.516617 45.952915 5.1388607
-69.503769 45.961468 4.9601932
-69.567574 45.959728 5.3130999
-69.528526 45.955402 4.7747874
-69.515488 45.950817 4.5955739
-69.48938 45.936935 4.2375655
-70.065712 45.900806 11.707154
-69.854034 45.887562 8.7756701
-69.617523 45.945194 5.4856958
-69.604576 45.946884 5.3059025
-69.591621 45.946995 5.1261892
-69.578812 45.955521 4.9469924
-69.565819 45.952484 4.7673941
-69.539787 45.941696 4.4085751
-69.526756 45.933945 4.229382
-69.500931 45.933739 3.8712969
-69.976654 45.934158 9.9390268
-69.893242 45.902725 8.7838335
-69.579048 45.918491 4.4056516
-69.566498 45.940754 4.2265911
-69.553352 45.921452 4.0472207
-70.1744 45.917168 12.150748
-70.144043 45.896492 11.731231
-69.934151 45.916382 8.797596
-69.620224 45.94495 4.4091759
-69.607086 45.927288 4.2292867
-69.568336 45.914856 3.6907723
-70.056564 45.930038 9.9650059
-69.97438 45.939381 8.8151865
-69.581673 45.912212 3.3346617
-70.161751 45.921871 9.8095427
-70.147346 45.930351 9.0504742
-70.144753 45.88377 8.4767914
-69.991325 45.918999 5.3417115
-72.561478 45.750889 33.861694
-72.614906 45.743221 33.899326
-72.576797 45.729336 33.332447
-72.622345 45.791023 33.456852
-72.578186 45.71664 32.819477
-72.549294 45.770687 32.369122
-72.509789 45.721439 31.793295
-72.578926 45.754353 32.40345
-72.544868 45.754044 31.890781
-72.507515 45.715748 31.340967
-72.644325 45.711937 32.966167
-72.613731 45.749649 32.491074
-72.580467 45.756466 31.985851
-72.544563 45.731594 31.451216
-72.649323 45.722733 32.582623
-72.618111 45.748962 32.100796
-72.582939 45.731724 31.57342
-72.548424 45.7131 31.056358
-72.65699 45.757294 32.240971
-72.621284 45.735699 31.704924
-72.5895 45.743423 31.218491
-72.689537 45.762329 32.358997
-72.65535 45.754379 31.838079
-72.620506 45.732819 31.311653
-72.720016 45.781364 32.466545
-72.684731 45.762424 31.929161
-72.653336 45.772697 31.441433
-72.623848 45.794788 30.979086
-72.755455 45.768192 32.51022
-72.720215 45.749783 31.972561
-72.690155 45.772881 31.500273
-72.7976 45.738651 32.528008
-72.768097 45.775295 32.061428
-72.735947 45.780827 31.565001
-72.845886 45.734936 32.576134
-72.816864 45.778183 32.117168
-72.787148 45.808922 31.651808
-72.89109 45.737026 32.620445
-72.863312 45.792873 32.176991
-72.830223 45.793423 31.671923
-72.610588 45.724869 28.344133
-72.555855 45.730843 27.506573
-72.529106 45.732166 27.097832
-72.926003 45.736664 32.667603
-72.895668 45.768707 32.192181
-72.865952 45.800262 31.726288
-72.648064 45.749012 28.410624
-72.566742 45.758366 27.162712
-72.538765 45.741127 26.740759
-72.922897 45.804897 32.248898
-72.597069 45.817207 27.229343
-72.541412 45.778854 26.386389
-72.512962 45.744144 25.961004
-72.486404 45.724857 25.559128
-72.461716 45.721584 25.180269
-72.384819 45.832661 23.713648
-72.362129 45.827427 23.363676
-72.339439 45.817741 23.015326
-72.31675 45.803623 22.668648
-72.293472 45.777519 22.317215
-72.273193 45.785175 21.999758
-72.229652 45.750027 21.337355
-72.209373 45.7458 21.024231
-72.190254 45.753494 20.724813
-72.224472 45.754227 20.759569
-72.184685 45.735714 20.145609
-72.328941 45.82513 19.089592
-72.310051 45.809502 18.796734
-72.29229 45.807011 18.516451
-72.273964 45.792953 18.231873
-72.187851 45.759357 16.881577
-72.347115 45.832829 18.817963
-72.327675 45.805664 18.520561
-72.310486 45.808342 18.246748
-72.274963 45.787521 17.691721
-72.240547 45.771095 17.152281
-72.22496 45.784046 16.899731
-72.207199 45.759785 16.627798
-72.190521 45.749767 16.367235
-72.174904 45.754276 16.117624
-72.158752 45.747345 15.864079
-72.315826 45.802811 17.688492
-72.299652 45.813049 17.428417
-72.282372 45.80336 17.158855
-72.266174 45.807789 16.900736
-72.247803 45.774895 16.623415
-72.233742 45.808159 16.387377
-72.216446 45.786716 16.122421
-72.200226 45.779823 15.868429
-72.18399 45.770168 15.615504
-72.167763 45.757767 15.363676
-72.151535 45.742638 15.112971
-72.135826 45.733715 14.867923
-72.294739 45.813156 16.618847
-72.229553 45.799362 15.604445
-72.21312 45.786842 15.35226
-72.196678 45.771595 15.101201
-72.181801 45.780396 14.864769
-72.165359 45.759861 14.615813
-72.149948 45.75465 14.376737
-72.119118 45.736725 13.901374
-72.104691 45.742264 13.673335
-72.228264 45.783543 14.836505
-72.197319 45.78429 14.361201
-72.182091 45.785477 14.126926
-72.16584 45.766087 13.885116
-72.149597 45.744152 13.644437
-72.134857 45.747135 13.416933
-72.120598 45.757 13.194059
-72.105339 45.746208 12.964062
-72.075783 45.736172 12.514191
-72.242859 45.785282 14.336309
-72.12014 45.754051 12.495564
-72.104599 45.736183 12.26792
-72.075897 45.740475 11.832741
-72.115173 45.754578 11.821337
-72.099968 45.739338 11.599336
-72.106377 45.74968 11.170667
-72.077774 45.742317 10.743745
-72.10006 45.744026 10.533718
-72.086227 45.744877 10.324351
-74.368004 45.748505 27.237825
-74.308701 45.753979 26.036251
-74.267593 45.717083 25.230659
-74.383499 45.71212 27.251341
-74.32782 45.747059 26.077133
-74.400787 45.674618 27.279577
-74.345749 45.703541 26.098055
-74.324928 45.673981 25.680124
-74.43206 45.686428 27.342781
-74.41404 45.701824 26.946852
-74.373131 45.659683 26.104445
-74.291489 45.750599 24.294907
-74.46804 45.653938 27.323063
-74.411484 45.655396 26.11256
-74.341805 45.676327 24.606842
-74.327705 45.716553 24.275665
-74.456291 45.644367 26.084452
-74.386688 45.671272 24.585382
-74.371346 45.696217 24.240944
-74.357056 45.732075 23.910719
-74.339836 45.725868 23.549213
-74.507393 45.639648 26.064104
-74.435822 45.65049 24.551514
-74.420876 45.682568 24.213699
-74.38784 45.69632 23.509075
-74.370918 45.692848 23.155773
-74.355629 45.708229 22.82299
-74.468132 45.631931 24.16761
-74.418167 45.648582 23.116871
-74.40155 45.648109 22.771685
-74.387726 45.682407 22.459187
-74.372093 45.689499 22.129068
-74.355255 45.676823 21.788086
-74.268639 45.744736 19.937393
-74.42878 45.637993 22.420748
-74.397919 45.655392 21.768345
-74.382088 45.654285 21.441076
-74.267197 45.716064 19.01399
-74.255264 45.74921 18.742243
-74.403984 45.635872 21.085215
-74.389175 45.642773 20.772589
-74.218018 45.739105 15.360715
-74.206284 45.751568 15.109105
-74.194489 45.761456 14.858185
-74.263008 45.703415 15.317319
-74.250084 45.69751 15.057166
-74.239792 45.734028 14.819352
-74.202675 45.729073 14.06317
-74.190559 45.728382 13.815513
-74.179428 45.743603 13.576412
-74.168243 45.756466 13.337835
-74.306305 45.646545 15.270732
-74.257202 45.659687 14.262195
-74.246658 45.688519 14.026198
-74.234985 45.696693 13.782644
-74.223251 45.702435 13.539755
-74.210419 45.687267 13.289995
-74.200676 45.725216 13.063455
-74.188782 45.723793 12.822536
-74.176834 45.719982 12.582374
-74.142242 45.72266 11.876531
-74.265297 45.651672 13.500418
-74.252968 45.645416 13.254685
-74.242691 45.673805 13.024583
-74.231819 45.690685 12.791124
-74.219849 45.686615 12.551049
-74.208862 45.698925 12.318645
-74.197815 45.708996 12.08672
-74.186203 45.707405 11.852014
-74.175049 45.712997 11.621191
-74.163834 45.716381 11.39091
-74.263916 45.654213 12.51708
-74.252441 45.656868 12.281309
-74.241943 45.676041 12.052887
-74.229851 45.664734 11.814994
-74.219231 45.679489 11.587517
-74.208054 45.682602 11.357314
-74.196815 45.683514 11.127677
-74.186028 45.691784 10.901565
-74.258751 45.642502 11.541235
-74.248047 45.654888 11.314167
-74.236259 45.646088 11.08148
-74.214561 45.660076 10.629771
-74.958862 45.634251 25.668409
-74.938049 45.614468 25.26372
-74.919601 45.619106 24.887819
-74.812347 45.618336 22.724596
-74.79628 45.629993 22.391529
-74.778915 45.621933 22.047455
-74.746346 45.625191 21.388208
-74.729942 45.620934 21.060692
-74.286316 45.645111 12.104428
-74.275162 45.65443 11.872737
-74.263428 45.652081 11.638305
-74.252678 45.666405 11.4109
-74.240311 45.650085 11.174629
-74.229965 45.669567 10.951265
-74.21801 45.658314 10.719408
-74.928223 45.726055 25.477158
-74.906677 45.698357 25.066048
-74.890022 45.724674 24.710535
-74.872009 45.731647 24.343023
-74.85141 45.703892 23.950871
-74.815514 45.702198 23.230665
-74.622215 45.724007 19.327106
-74.607712 45.730217 19.030472
-74.591331 45.707943 18.718674
-74.561371 45.694912 18.126348
-74.374863 45.711021 14.361418
-74.361549 45.698055 14.103635
-74.350975 45.728031 13.867192
-74.324615 45.698307 13.36023
-74.313293 45.711842 13.121696
-74.300812 45.704502 12.876241
-74.289368 45.713287 12.638971
-74.278954 45.7384 12.409427
-74.265221 45.705181 12.159241
-74.253601 45.706963 11.923962
-74.241928 45.706455 11.689336
-74.230728 45.713112 11.458627
-74.992149 45.700172 25.446835
-74.971588 45.686871 25.04929
-74.954712 45.713001 24.693705
-74.916847 45.706898 23.947027
-74.897133 45.68922 23.569771
-74.699211 45.716557 19.618435
-74.684593 45.726086 19.320494
-74.668671 45.715572 19.012651
-74.652679 45.701515 18.706232
-74.62413 45.713688 18.129473
-74.434456 45.721081 14.355087
-74.420944 45.708084 14.097004
-74.407959 45.70153 13.844049
-74.395477 45.701546 13.596007
-74.383507 45.708252 13.352666
-74.372025 45.721756 13.113809
-74.358253 45.695858 12.860595
-74.34832 45.732433 12.634095
-74.334442 45.701576 12.382762
-74.323822 45.724308 12.153572
-74.312035 45.726082 11.91789
-74.299103 45.706722 11.676229
-74.286133 45.684967 11.435574
-74.275261 45.698734 11.208552
-75.057213 45.69302 25.425777
-75.038353 45.701546 25.04837
-75.021301 45.7276 24.692513
-75.00029 45.704342 24.2983
-74.981743 45.706219 23.932276
-74.962448 45.695934 23.561378
-74.777687 45.717125 19.91256
-74.746971 45.722881 19.303917
-74.730255 45.703861 18.990459
-74.714706 45.697971 18.689404
-74.684616 45.692875 18.101818
-74.505348 45.689472 14.578102
-74.49408 45.715115 14.335922
-74.481003 45.71106 14.081817
-74.468445 45.713528 13.832672
-74.455818 45.713467 13.584318
-74.441994 45.692497 13.329027
-74.42926 45.687363 13.082491
-74.418724 45.716812 12.851682
-74.406433 45.716156 12.610211
-74.393517 45.703773 12.365939
-74.38166 45.707676 12.129547
-74.369751 45.709274 11.893788
-74.35778 45.70858 11.658685
-74.345749 45.705601 11.424259
-75.146828 45.714367 25.812124
-75.105583 45.699184 25.021441
-75.087715 45.717464 24.658844
-75.067787 45.708763 24.277845
-75.048401 45.702797 23.905176
-74.809967 45.698486 19.264849
-74.79496 45.704098 18.967932
-74.779877 45.706356 18.672152
-74.765961 45.722153 18.38821
-74.570663 45.731319 14.5746
-74.555725 45.702572 14.306735
-74.544861 45.734673 14.068984
-74.530403 45.709637 13.807368
-74.517647 45.709373 13.558862
-74.504829 45.706596 13.311172
-74.491371 45.692085 13.060542
-74.480736 45.721375 12.829462
-74.467735 45.711246 12.584133
-74.454674 45.698658 12.339719
-74.442696 45.702362 12.103165
-74.431786 45.722546 11.874004
-74.419113 45.712284 11.635283
-74.405838 45.690228 11.394193
-74.393623 45.68475 11.160397
-75.240501 45.71603 26.186596
-75.218079 45.697582 25.771395
-75.178848 45.71096 25.007725
-75.158066 45.699242 24.618351
-75.139153 45.70507 24.250601
-75.120125 45.706314 23.884401
-75.099663 45.687763 23.506908
-74.927704 45.718975 20.180277
-74.911423 45.718494 19.868147
-74.877983 45.698402 19.242331
-74.86338 45.712135 18.950745
-74.846786 45.697422 18.643963
-74.83075 45.68763 18.343973
-74.673409 45.699104 15.312203
-74.633118 45.700474 14.536904
-74.620361 45.707668 14.285859
-74.606331 45.694096 14.027369
-74.582268 45.723141 13.541227
-74.568649 45.711021 13.289376
-74.556145 45.714821 13.046081
-74.541832 45.688374 12.792411
-74.53096 45.715172 12.561634
-74.517685 45.702412 12.317001
-74.505516 45.705944 12.080208
-74.492714 45.697777 11.840685
-74.480988 45.706108 11.608557
-74.45565 45.687649 11.136512
-75.36731 45.683472 26.961895
-75.325195 45.697792 26.160616
-75.303604 45.693592 25.759117
-75.283249 45.698879 25.372997
-75.262764 45.699265 24.988527
-75.242165 45.694775 24.605761
-75.222122 45.692944 24.231329
-75.203316 45.701542 23.871592
-75.183052 45.690456 23.500446
-74.972885 45.707878 19.543005
-74.956711 45.708363 19.23896
-74.94175 45.72208 18.947092
-74.922806 45.68214 18.623884
-74.908981 45.705959 18.345108
-74.893776 45.709759 18.056622
-74.758064 45.664379 15.545587
-74.747787 45.717606 15.309357
-74.691582 45.698975 14.269003
-74.678444 45.703503 14.018557
-74.650749 45.686592 13.512148
-74.638023 45.69268 13.268098
-74.625824 45.705578 13.028501
-74.611763 45.688293 12.778394
-74.598831 45.687092 12.536553
-74.587029 45.702175 12.302516
-74.573967 45.696259 12.062049
-74.560852 45.687977 11.822385
-74.548843 45.696198 11.5901
-74.535606 45.683277 11.351945
-75.438438 45.693722 26.564905
-75.416428 45.694721 26.161461
-75.394974 45.697788 25.76663
-75.374786 45.710472 25.387043
-75.353081 45.703583 24.995581
-75.331955 45.699154 24.612587
-75.310707 45.689877 24.231354
-75.290726 45.690914 23.864939
-75.053696 45.6884 19.529266
-75.037773 45.697102 19.230703
-75.021759 45.702427 18.933245
-75.005661 45.704391 18.636929
-74.990799 45.719917 18.352409
-74.974533 45.715321 18.058336
-74.824074 45.714699 15.303751
-74.766403 45.696049 14.262543
-74.752922 45.700573 14.011873
-74.725739 45.702 13.512877
-74.711433 45.68972 13.260756
-74.699524 45.711857 13.02469
-74.683876 45.676033 12.766927
-74.672432 45.702713 12.53574
-74.658493 45.689823 12.290751
-74.645699 45.69323 12.053578
-74.634033 45.713131 11.823753
-74.618721 45.674267 11.574629
-74.607506 45.699104 11.349174
-75.519447 45.702915 26.582685
-75.496384 45.696846 26.17206
-75.475304 45.707279 25.783813
-75.452682 45.698105 25.383644
-75.430641 45.691185 24.992077
-75.411293 45.709084 24.628859
-75.389709 45.699947 24.247322
-75.368004 45.685997 23.867599
-75.347595 45.682507 23.502609
-75.128616 45.700405 19.54063
-75.111755 45.700928 19.236189
-75.09481 45.697971 18.932999
-75.078453 45.699966 18.636475
-75.062691 45.707073 18.346436
-75.046165 45.702457 18.052229
-74.89138 45.674866 15.282842
-74.836021 45.701031 14.262789
-74.792801 45.679581 13.500447
-74.778893 45.676453 13.252102
-74.766174 45.689316 13.012117
-74.754623 45.71838 12.780033
-74.739273 45.689362 12.526628
-74.725105 45.676437 12.281495
-74.713333 45.698563 12.051031
-74.700256 45.699688 11.81418
-74.687119 45.698517 11.577991
-74.673912 45.695053 11.342485
-75.576157 45.68354 26.574837
-75.553169 45.677368 26.164145
-75.531464 45.680428 25.769009
-75.489777 45.693611 25.004034
-75.446854 45.680004 24.239065
-75.425919 45.673531 23.865772
-75.169838 45.679794 19.226843
-75.152946 45.676769 18.923578
-75.137329 45.687096 18.632353
-75.122307 45.702633 18.347462
-75.104469 45.681046 18.042578
-74.922737 45.670986 14.76067
-74.895004 45.678692 14.252023
-74.852539 45.666229 13.493358
-74.83931 45.672287 13.248684
-74.827278 45.694401 13.012202
-74.814529 45.704945 12.772436
-74.800446 45.694511 12.52606
