# .PCD v0.7 - Point Cloud Data file format
VERSION 0.7
FIELDS x y z
SIZE 4 4 4
TYPE F F F
COUNT 1 1 1
WIDTH 1559
HEIGHT 1
VIEWPOINT 0 0 0 1 0 0 0
POINTS 1559
DATA ascii
-64.593124 46.438408 3.3770986
-64.582436 46.379341 3.2295842
-64.56665 46.408653 3.076828
-64.557373 46.327118 2.9319861
-65.218849 46.434673 9.5642347
-65.113045 46.459141 8.4383202
-65.098679 46.44556 8.2761259
-64.811592 46.466759 5.1958733
-64.742401 46.447231 4.4399328
-64.715988 46.41618 4.1384583
-64.700569 46.443611 3.9874005
-64.606583 46.369083 2.9343035
-65.27066 46.432941 9.5732508
-65.164093 46.48745 8.4525843
-65.15078 46.435089 8.2808552
-64.864349 46.447891 5.1965833
-64.767296 46.427662 4.1383185
-64.752411 46.44516 3.9870749
-64.725388 46.426258 3.6852765
-64.661758 46.311184 2.9367111
-65.562782 46.483135 12.18825
-65.321724 46.434174 9.5733871
-65.214325 46.498688 8.4533234
-65.200859 46.446377 8.2812738
-64.912529 46.459606 5.1902294
-64.815796 46.419266 4.1297193
-65.371407 46.428139 9.5634804
-65.355598 46.444485 9.4035873
-65.339668 46.468975 9.2465544
-65.26371 46.463154 8.4352989
-65.249039 46.44968 8.2723675
-64.859718 46.420883 4.1141815
-65.374481 46.437347 9.0661983
-65.358795 46.449173 8.9067574
-65.343628 46.440178 8.7424774
-65.326988 46.497555 8.5955667
-65.311287 46.51479 8.4386845
-65.29763 46.452671 8.2638922
-64.903954 46.422306 4.0990772
-65.360718 46.42823 8.4156761
-65.345581 46.424419 8.2548437
-65.330299 46.42889 8.0965366
-65.313828 46.480824 7.948791
-64.94912 46.423313 4.0898895
-65.359947 46.382374 7.9311976
-65.344131 46.413357 7.7794571
-65.328339 46.443005 7.6274471
-65.312866 46.461491 7.4733639
-64.993866 46.40403 4.0866194
-65.360527 46.37204 7.4616084
-65.344406 46.418652 7.3131557
-65.32943 46.424553 7.1575427
-65.039803 46.404602 4.0853815
-65.185684 46.425842 5.1534128
-65.171425 46.422619 5.0003223
-65.08606 46.405125 4.0843539
-65.508278 46.414005 8.1158342
-65.494408 46.36853 7.9463987
-65.450294 46.360054 7.4701147
-65.232437 46.396114 5.1533251
-65.218285 46.392948 5.0002251
-65.2034 46.408413 4.847949
-65.188957 46.412556 4.6951838
-65.174576 46.415359 4.5423827
-65.16024 46.416828 4.3895574
-65.132622 46.395767 4.0840392
-65.570763 46.377567 8.2780399
-65.554344 46.45084 8.133934
-65.482468 46.375782 7.3241215
-65.468529 46.352367 7.1630945
-65.280945 46.396122 5.1576552
-65.266869 46.393047 5.0042834
-65.253242 46.378643 4.8506665
-65.238518 46.392857 4.6981649
-65.22464 46.385754 4.5450826
-65.210419 46.387302 4.3922477
-65.195419 46.407494 4.2394223
-65.182137 46.386379 4.0865502
-65.167221 46.403893 3.9333858
-65.153206 46.400082 3.7803943
-65.601288 46.439026 8.1409845
-65.328812 46.406227 5.1622963
-65.314804 46.403248 5.0085659
-65.300865 46.398922 4.8549485
-65.286987 46.39325 4.7014565
-65.273178 46.386227 4.5481009
-65.259033 46.387856 4.3949962
-65.245354 46.378155 4.2418623
-65.230919 46.387093 4.088757
-65.216942 46.384697 3.9356458
-65.203026 46.380966 3.7825561
-65.189163 46.375893 3.6294992
-65.174469 46.389439 3.4756486
-65.160255 46.391655 3.3220131
-65.146088 46.392517 3.168272
-65.76561 46.479824 9.4678574
-65.662682 46.365215 8.2882166
-65.646782 46.428928 8.1415262
-65.375671 46.417004 5.1604214
-65.334106 46.404137 4.6985054
-65.320381 46.397148 4.5447912
-65.306725 46.388813 4.3912249
-65.293137 46.379135 4.2378187
-65.27961 46.368114 4.0845842
-65.264923 46.385723 3.9310582
-65.251526 46.372017 3.7779415
-65.237335 46.376949 3.6243675
-65.223625 46.370548 3.4710832
-65.209976 46.362804 3.3178551
-65.195488 46.373669 3.1635101
-65.18148 46.373199 3.009577
-65.811737 46.422832 9.4507875
-65.797089 46.39061 9.2747488
-65.693298 46.420082 8.1372232
-65.606377 46.441051 7.1829648
-65.342171 46.380337 4.22892
-65.32914 46.359306 4.075489
-65.314186 46.386887 3.9216123
-65.30088 46.373161 3.7682259
-65.286812 46.378067 3.6143777
-65.273201 46.371639 3.4608223
-65.259224 46.373844 3.3068154
-65.24572 46.364723 3.1532981
-65.231834 46.364227 2.9991796
-65.854065 46.440948 9.4106741
-65.839317 46.418896 9.2370052
-65.824089 46.443348 9.0774746
-65.809303 46.437378 8.9101448
-65.794342 46.4492 8.7482986
-65.765251 46.429527 8.4157505
-65.750702 46.427105 8.2525024
-65.650063 46.427616 7.1307011
-66.134666 46.431713 11.965463
-66.118324 46.437244 11.785707
-66.102097 46.440952 11.60646
-66.085983 46.442848 11.427739
-66.070045 46.479778 11.265137
-66.054138 46.487453 11.091014
-66.038322 46.511959 10.924774
-65.296913 46.288181 2.5725231
-66.154625 46.429245 11.588135
-66.138336 46.412655 11.401412
-66.122337 46.449406 11.238863
-66.106308 46.438393 11.057214
-66.090416 46.434811 10.880029
-66.074646 46.448078 10.710729
-66.058945 46.469048 10.545282
-66.325676 46.427662 12.868666
-66.223763 46.424793 11.749679
-66.20723 46.419094 11.566174
-66.190865 46.4207 11.387311
-66.174583 46.411278 11.205121
-66.142448 46.405434 10.850362
-66.126572 46.41848 10.681138
-66.110786 46.439232 10.515759
-66.09507 46.449039 10.347056
-66.079453 46.447807 10.175289
-66.063873 46.473213 10.013945
-66.048447 46.468719 9.8429546
-65.620041 46.294365 5.0759726
-66.305641 46.41 12.095761
-66.288879 46.417011 11.915127
-66.272163 46.413071 11.730883
-66.25563 46.416389 11.551333
-66.222801 46.399139 11.186115
-66.206612 46.396973 11.00837
-66.190575 46.402313 10.834914
-66.174667 46.42458 10.669143
-66.158806 46.426567 10.49642
-66.143044 46.426861 10.32417
-66.127388 46.406643 10.145653
-66.111809 46.431835 9.9844503
-66.096344 46.42712 9.813633
-66.080894 46.449238 9.6527491
-66.065613 46.441292 9.4827738
-66.050301 46.46035 9.3222656
-65.664818 46.327003 5.0573797
-66.335938 46.4077 11.914153
-66.302887 46.416306 11.554049
-66.286453 46.408688 11.370841
-66.270157 46.399193 11.188342
-66.254021 46.397095 11.010349
-66.238075 46.411789 10.840343
-66.22213 46.39687 10.659755
-66.206345 46.398823 10.487025
-66.190674 46.408466 10.318225
-66.175079 46.40707 10.146376
-66.159592 46.394554 9.9717379
-66.144196 46.39925 9.8042088
-66.128891 46.402344 9.6370525
-66.113663 46.403835 9.4702845
-66.098412 46.432392 9.3128109
-66.083389 46.421211 9.143734
-66.068253 46.446804 8.9864464
-66.038391 46.45512 8.6611996
-65.811508 46.298038 6.1114464
-65.715012 46.288273 5.047122
-65.699951 46.337116 4.8989305
-66.449341 46.421577 12.691604
-66.432205 46.416775 12.499806
-66.381767 46.408436 11.937344
-66.36515 46.395691 11.748496
-66.348816 46.399281 11.568529
-66.332596 46.401051 11.389091
-66.316475 46.401009 11.210198
-66.300461 46.39917 11.031871
-66.284599 46.404831 10.857831
-66.268761 46.390133 10.676978
-66.253166 46.411007 10.511082
-66.237549 46.39278 10.331477
-66.222099 46.400978 10.162832
-66.206726 46.407551 9.9945269
-66.191444 46.403042 9.8233595
-66.176262 46.396866 9.6527271
-66.161186 46.389034 9.4826469
-66.146088 46.417755 9.3250122
-66.13118 46.406746 9.1557493
-66.116379 46.394104 8.9870834
-66.10157 46.39909 8.8244705
-66.086777 46.412205 8.6647863
-66.071899 46.443192 8.5103474
-66.057281 46.443729 8.34832
-65.738068 46.294289 4.7528777
-65.724281 46.30069 4.6020598
-65.710251 46.315762 4.4515095
-65.696243 46.329517 4.3007426
-65.681953 46.351944 4.1499186
-66.478302 46.412163 12.53235
-66.363319 46.408146 11.244313
-66.347389 46.406681 11.065572
-66.331619 46.412708 10.891125
-66.315765 46.379753 10.70257
-66.300247 46.391571 10.532887
-66.284805 46.401749 10.363511
-66.269402 46.391476 10.187673
-66.25415 46.407772 10.022429
-66.238953 46.394112 9.8476896
-66.223854 46.397713 9.6799393
-66.208839 46.399712 9.5125723
-66.193954 46.38102 9.3396444
-66.17907 46.398922 9.1790504
-66.164345 46.386551 9.0101109
-66.14959 46.401421 8.8499727
-66.135002 46.395531 8.6846657
-66.120438 46.397747 8.5223942
-66.105949 46.398453 8.3604412
-66.091614 46.387947 8.1964273
-66.07711 46.40509 8.0398588
-66.062653 46.420826 7.8833113
-66.048347 46.425381 7.724659
-66.03421 46.418705 7.5641685
-66.020035 46.420361 7.4060483
-65.721077 46.2826 4.0125642
-65.707291 46.292564 3.8615661
-65.693222 46.311203 3.7102935
-65.679794 46.308525 3.5590663
-65.665108 46.344486 3.4067578
-66.477394 46.39349 11.993684
-66.428627 46.388046 11.443702
-66.412727 46.39785 11.26812
-66.396767 46.387424 11.085325
-66.380928 46.37513 10.903268
-66.365433 46.398239 10.736542
-66.3498 46.382385 10.555689
-66.334412 46.392826 10.386073
-66.319099 46.40163 10.216776
-66.303818 46.389942 10.041177
-66.288689 46.4049 9.8759651
-66.273605 46.380341 9.6983385
-66.258644 46.382561 9.5308027
-66.243767 46.373642 9.3606758
-66.228958 46.382214 9.1969385
-66.214165 46.40844 9.0391054
-66.199577 46.385147 8.8675194
-66.184982 46.389111 8.70469
-66.170403 46.401222 8.544735
-66.156006 46.392494 8.3799543
-66.141556 46.40163 8.220479
-66.127472 46.370403 8.0519047
-66.112923 46.405788 7.8998356
-66.09903 46.371479 7.7324157
-66.084763 46.384499 7.5762124
-66.070648 46.386314 7.4180889
-66.056595 46.386696 7.2602077
-66.042236 46.415146 7.108007
-66.028427 46.402866 6.948669
-65.731712 46.27837 3.5708859
-65.718689 46.26453 3.4199431
-65.705406 46.259361 3.2688549
-65.690849 46.292809 3.1160486
-65.677284 46.294952 2.9641902
-65.663406 46.30574 2.8116138
-65.649544 46.315178 2.658772
-66.52578 46.394257 12.016191
-66.49308 46.386929 11.645576
-66.476997 46.389591 11.465248
-66.46093 46.381218 11.281568
-66.445053 46.380215 11.102415
-66.429428 46.395973 10.931296
-66.413673 46.382137 10.749499
-66.398155 46.385143 10.575609
-66.382683 46.377068 10.398697
-66.367386 46.38604 10.229239
-66.352142 46.383949 10.05679
-66.336983 46.38018 9.8848553
-66.321938 46.384224 9.716609
-66.306969 46.386658 9.5487413
-66.292084 46.387489 9.3812695
-66.277267 46.396297 9.2171192
-66.262558 46.38438 9.0475721
-66.247917 46.380447 8.8813753
-66.23336 46.374947 8.7156343
-66.218811 46.387203 8.5555153
-66.20446 46.368938 8.3880663
-66.190041 46.378201 8.2285099
-66.175743 46.376274 8.0668039
-66.161446 46.382599 7.9076943
-66.147049 46.407001 7.7530956
-66.133308 46.361549 7.5838852
-66.119209 46.363483 7.4256754
-66.105072 46.373795 7.2696061
-66.091209 46.363045 7.109992
-66.077057 46.380379 6.9560008
-66.062813 46.406212 6.8035893
-65.713425 46.256054 2.8183222
-66.588303 46.398544 12.21911
-66.506821 46.376472 11.292713
-66.490952 46.375618 11.113317
-66.475418 46.400795 10.94569
-66.459587 46.377831 10.759913
-66.444077 46.380978 10.585779
-66.428703 46.391785 10.415596
-66.413361 46.391552 10.242323
-66.398109 46.389626 10.069545
-66.38298 46.395473 9.9005213
-66.367882 46.38073 9.7255392
-66.352905 46.373775 9.5543442
-66.338028 46.374706 9.3867054
-66.323235 46.38361 9.2223873
-66.308502 46.390972 9.0583277
-66.293877 46.377567 8.8890486
-66.279343 46.362541 8.7203913
-66.264816 46.374889 8.5601044
-66.250336 46.385765 8.3999653
-66.235962 46.385468 8.2375765
-66.221657 46.383667 8.0755301
-66.207428 46.380371 7.9138403
-66.193199 46.385345 7.7546773
-66.179024 46.38887 7.5957279
-66.165092 46.371349 7.433033
-66.151154 46.362141 7.2728205
-66.137184 46.361294 7.1148472
-66.123169 46.36887 6.9588704
-66.109444 46.355324 6.7997127
-66.651848 46.390751 12.420271
-66.585861 46.376125 11.670196
-66.569786 46.379105 11.489387
-66.553802 46.38026 11.309114
-66.537926 46.379604 11.129395
-66.522224 46.386417 10.953983
-66.506454 46.372887 10.771691
-66.491005 46.385525 10.600885
-66.475571 46.387146 10.426888
-66.46022 46.387062 10.253367
-66.444916 46.375851 10.077014
-66.429794 46.381817 9.9078264
-66.414803 46.405132 9.7453279
-66.399727 46.369858 9.5643911
-66.384857 46.380466 9.3995008
-66.370041 46.370396 9.2290211
-66.355316 46.397041 9.0704594
-66.340652 46.39341 8.9035902
-66.326103 46.368919 8.731843
-66.311569 46.381413 8.5712233
-66.297081 46.392429 8.4107485
-66.282654 46.401978 8.2504339
-66.268372 46.390614 8.0856352
-66.254242 46.367958 7.9191175
-66.240013 46.373024 7.7597847
-66.225845 46.37664 7.6006646
-66.211899 46.359211 7.4377937
-66.197777 46.36972 7.2812138
-66.183891 46.359161 7.121079
-66.169868 46.366837 6.9648461
-66.156013 46.363251 6.8070731
-66.664963 46.390862 12.071389
-66.632095 46.375702 11.694952
-66.616005 46.37896 11.513826
-66.600243 46.398808 11.341036
-66.584122 46.380009 11.153192
-66.568321 46.377819 10.97372
-66.552795 46.392441 10.802155
-66.537102 46.377392 10.620132
-66.52166 46.379238 10.44589
-66.506248 46.36998 10.268707
-66.491043 46.377819 10.098849
-66.475914 46.384026 9.9293365
-66.460854 46.388611 9.7601833
-66.445808 46.372555 9.5852308
-66.430916 46.373856 9.4170094
-66.4161 46.373558 9.2491941
-66.401375 46.381252 9.0846395
-66.386711 46.368183 8.9148436
-66.372124 46.372757 8.751009
-66.357597 46.375805 8.5874729
-66.343117 46.387016 8.4267521
-66.32869 46.396751 8.2661896
-66.314438 46.375851 8.098793
-66.30014 46.382595 7.9388399
-66.285957 46.378117 7.7769194
-66.271774 46.381931 7.6174607
-66.257576 46.394093 7.4602227
-66.243752 46.365578 7.2954097
-66.229851 46.35519 7.1350102
-66.215927 46.353184 6.9767847
-66.201859 46.369473 6.822144
-66.741005 46.385181 12.47724
-66.707748 46.378506 12.09746
-66.691353 46.376755 11.910701
-66.643051 46.378429 11.362233
-66.627068 46.369129 11.178037
-66.611404 46.376492 11.002067
-66.595627 46.363514 10.819181
-66.580315 46.386017 10.651411
-66.564888 46.388199 10.47676
-66.549347 46.360485 10.292307
-66.534302 46.387436 10.128893
-66.519028 46.365604 9.9491873
-66.504105 46.389381 9.7862282
-66.489029 46.364105 9.6078291
-66.474197 46.375198 9.4423704
-66.459404 46.375175 9.2742195
-66.444672 46.363968 9.1036396
-66.430046 46.370342 8.939189
-66.415482 46.384815 8.7777004
-66.400978 46.388145 8.6137447
-66.386551 46.380276 8.4475842
-66.372238 46.361141 8.2794886
-66.357918 46.369576 8.1191006
-66.343697 46.366802 7.9566369
-66.329491 46.372292 7.7967134
-66.315399 46.366547 7.6349096
-66.301186 46.388702 7.4795136
-66.287064 46.399666 7.3220935
-66.27356 46.340408 7.1519103
-66.259666 46.338596 6.9935079
-66.245644 46.355072 6.8387074
-66.684631 46.36861 11.384496
-66.668976 46.378036 11.207715
-66.653084 46.357914 11.020067
-66.637505 46.354458 10.840676
-66.622215 46.367874 10.669076
-66.606735 46.351543 10.487226
-66.591515 46.352161 10.313037
-66.576447 46.360504 10.142688
-66.561455 46.367207 9.9726791
-66.546478 46.362801 9.79984
-66.53167 46.375729 9.6337452
-66.516853 46.368031 9.4618282
-66.502151 46.368233 9.2934179
-66.487526 46.366833 9.1254253
-66.472992 46.373444 8.9606361
-66.458519 46.378521 8.7961273
-66.444107 46.37241 8.6293077
-66.429764 46.374401 8.4654846
-66.415504 46.365177 8.2995472
-66.401276 46.373833 8.1388187
-66.387169 46.361542 7.9737377
-66.373055 46.367226 7.8135548
-66.358994 46.371452 7.6535797
-66.344986 46.374222 7.4938264
-66.331108 46.36573 7.3323798
-66.317223 46.365589 7.173193
-66.303558 46.344322 7.0107541
-66.289627 46.360992 6.8556147
-66.740234 46.368313 11.587003
-66.724503 46.370567 11.405506
-66.70887 46.370998 11.224554
-66.693207 46.360348 11.040403
-66.677971 46.375717 10.868035
-66.662598 46.370758 10.688743
-66.647324 46.364014 10.510064
-66.632225 46.364883 10.335455
-66.617134 46.35463 10.157977
-66.602272 46.361515 9.9877119
-66.587364 46.347813 9.8114195
-66.572701 46.360889 9.645153
-66.558098 46.372406 9.4791059
-66.54348 46.363247 9.3074083
-66.528954 46.352432 9.1362915
-66.514534 46.349583 8.9685497
-66.500214 46.364407 8.8066397
-66.485931 46.358433 8.639636
-66.471718 46.360561 8.4756336
-66.457573 46.361172 8.3119516
-66.443512 46.350544 8.1462488
-66.429443 46.36758 7.9878807
-66.415482 46.363674 7.8251615
-66.401588 46.358269 7.6628194
-66.387772 46.351372 7.5008669
-66.373894 46.362614 7.343183
-66.360062 46.372437 7.1855745
-66.346489 46.351322 7.0227709
-66.33268 46.368137 6.8672848
-66.319801 46.284855 6.6958423
-66.811279 46.369553 11.976178
-66.795334 46.366631 11.789158
-66.764 46.373428 11.424981
-66.748459 46.374077 11.243698
-66.73278 46.354382 11.055444
-66.717545 46.360634 10.879145
-66.702393 46.36515 10.70328
-66.687218 46.358585 10.524344
-66.672134 46.350239 10.34604
-66.657234 46.349541 10.171742
-66.642616 46.375488 10.007778
-66.627785 46.362011 9.8310575
-66.613113 46.3563 9.6581478
-66.598572 46.35844 9.4888172
-66.584099 46.358971 9.3198853
-66.569695 46.357895 9.1513691
-66.555389 46.364826 8.986062
-66.541122 46.360584 8.8183355
-66.526932 46.345108 8.6484547
-66.512825 46.366711 8.4893322
-66.498787 46.348087 8.3204145
-66.484772 46.36673 8.1616096
-66.470863 46.354729 7.9959869
-66.457008 46.350941 7.8330865
-66.443176 46.355423 7.6726685
-66.429443 46.348656 7.510448
-66.415672 46.360023 7.3525028
-66.402061 46.350315 7.1909308
-66.388382 46.358818 7.0333185
-66.374741 46.365913 6.8758068
-66.3619 46.282749 6.7040644
-66.855537 46.379711 12.00282
-66.792488 46.366917 11.261033
-66.76149 46.344593 10.892293
-66.746361 46.349277 10.716266
-66.731308 46.352238 10.540688
-66.71624 46.344086 10.36213
-66.701347 46.343582 10.187583
-66.686539 46.341377 10.013535
-66.671814 46.337479 9.8400049
-66.657288 46.350899 9.6732407
-66.642815 46.362751 9.5066948
-66.628258 46.344379 9.3315239
-66.613953 46.362614 9.1685743
-66.599663 46.36974 9.0029345
-66.585365 46.346439 8.829464
-66.571236 46.369713 8.6698761
-66.557129 46.372196 8.5051899
-66.543076 46.373154 8.3408213
-66.529091 46.372585 8.1767855
-66.515182 46.360764 8.0108147
-66.501328 46.357147 7.8475699
-66.487534 46.352028 7.6846995
-66.473816 46.345409 7.5222168
-66.460014 46.36673 7.3659592
-66.44651 46.337536 7.200326
-66.4328 46.356007 7.0443144
-66.419319 46.343525 6.8831763
-66.406136 46.299961 6.7176967
-66.868591 46.356773 11.640404
-66.83728 46.351482 11.272477
-66.821823 46.350677 11.091348
-66.806335 46.338768 10.9071
-66.79129 46.352959 10.734444
-66.776207 46.356129 10.558543
-66.761192 46.357574 10.383106
-66.746071 46.338478 10.201414
-66.7314 46.355335 10.033693
-66.716545 46.34219 9.8565454
-66.701988 46.355804 9.6894579
-66.687309 46.339264 9.5134687
-66.672882 46.349663 9.3470755
-66.658508 46.358501 9.1809282
-66.644073 46.336979 9.0066729
-66.629868 46.352268 8.8440161
-66.615608 46.327465 8.6709929
-66.601563 46.368698 8.5165443
-66.587463 46.35041 8.3470154
-66.573463 46.349945 8.1828947
-66.559509 46.357697 8.0214052
-66.545609 46.363976 7.860106
-66.531799 46.349239 7.694778
-66.517975 46.362339 7.536099
-66.504349 46.334782 7.369698
-66.490578 46.354794 7.2133522
-66.477051 46.334057 7.0498228
-66.463295 46.361092 6.89535
-66.450104 46.307812 6.7278194
-66.973907 46.368427 12.405468
-66.909706 46.353943 11.648609
-66.893944 46.347755 11.462127
-66.847755 46.354984 10.921717
-66.832481 46.350704 10.741428
-66.817299 46.344627 10.561749
-66.802414 46.355537 10.389596
-66.787491 46.355373 10.214393
-66.772644 46.3535 10.039685
-66.757797 46.340458 9.8622875
-66.743187 46.344666 9.6918278
-66.728714 46.356777 9.5247879
-66.714172 46.348213 9.3520651
-66.699814 46.357143 9.1856651
-66.685471 46.354912 9.0167351
-66.671127 46.331833 8.8428335
-66.656998 46.345665 8.680212
-66.642845 46.328991 8.5101109
-66.628845 46.359165 8.3529348
-66.614838 46.349083 8.1861038
-66.600899 46.366646 8.0266428
-66.587029 46.353508 7.8606
-66.573212 46.348595 7.6972151
-66.559402 46.361763 7.5382781
-66.5457 46.353886 7.3755088
-66.532066 46.344521 7.2131534
-66.518494 46.333668 7.0512242
-66.504822 46.35091 6.894803
-66.491493 46.317413 6.7303038
-66.950783 46.355885 11.646745
-66.935043 46.349716 11.460021
-66.919403 46.34164 11.273995
-66.904282 46.359455 11.099997
-66.888809 46.347702 10.915182
-66.873573 46.343403 10.734729
-66.85865 46.356018 10.561939
-66.843681 46.357578 10.386005
-66.828583 46.338589 10.203825
-66.813866 46.346111 10.032314
-66.799049 46.333042 9.8547544
-66.784393 46.327728 9.6810064
-66.77018 46.36837 9.5229759
-66.755524 46.340725 9.344018
-66.741211 46.349625 9.1774435
-66.726891 46.347366 9.0083437
-66.71273 46.362766 8.8450871
-66.69854 46.357361 8.6767168
-66.684395 46.340694 8.5062838
-66.670395 46.351494 8.343852
-66.656425 46.351093 8.1792192
-66.642517 46.358906 8.017211
-66.62867 46.335972 7.8488054
-66.614861 46.350552 7.6895556
-66.601143 46.334324 7.5242753
-66.587456 46.336182 7.3634467
-66.573776 46.346409 7.2047167
-66.560226 46.335529 7.0425324
-66.546684 46.333027 6.8824735
-66.533432 46.289597 6.7163033
-68.239616 46.732288 26.379745
-68.197701 46.636726 25.866007
-66.992599 46.351414 11.634884
-66.976837 46.345169 11.448007
-66.961472 46.355476 11.269512
-66.946022 46.354759 11.087653
-66.930527 46.342926 10.902687
-66.91526 46.338547 10.722076
-66.900566 46.369808 10.556152
-66.885101 46.333794 10.366141
-66.870415 46.352341 10.1974
-66.855568 46.350395 10.022282
-66.840797 46.346745 9.8476772
-66.826103 46.341404 9.673604
-66.811646 46.353439 9.5061302
-66.797165 46.354347 9.3359432
-66.782631 46.334476 9.1604471
-66.768356 46.341713 8.9940434
-66.754173 46.357033 8.8306074
-66.73996 46.35154 8.6620741
-66.725815 46.344463 8.4940119
-66.711739 46.335804 8.326437
-66.697784 46.354729 8.1664333
-66.68383 46.33326 7.9973478
-66.66996 46.33947 7.8355246
-66.65612 46.363758 7.6781106
-66.642365 46.347469 7.5125036
-66.628677 46.329647 7.3474684
-66.614983 46.339783 7.1885591
-66.601326 46.348492 7.0297365
-66.587837 46.32621 6.8659854
-68.180939 46.611122 25.063658
-68.147209 46.58638 24.664221
-67.084412 46.354118 12.188053
-67.068268 46.353588 11.999043
-67.036423 46.355885 11.626964
-67.020386 46.340397 11.435945
-67.004768 46.3414 11.253454
-66.989243 46.340576 11.071522
-66.97393 46.347233 10.89384
-66.958557 46.342812 10.712996
-66.943275 46.336586 10.532763
-66.928314 46.347359 10.360021
-66.9133 46.34705 10.184248
-66.898468 46.354477 10.012239
-66.883499 46.341301 9.8342142
-66.868622 46.326374 9.6568851
-66.85408 46.33831 9.4893255
-66.839668 46.358231 9.3249331
-66.825027 46.338299 9.1492109
-66.810776 46.3647 8.9880953
-66.79628 46.34148 8.8134928
-66.782066 46.355194 8.6500902
-66.767784 46.338379 8.4792709
-66.753647 46.339333 8.3139744
-66.739586 46.34848 8.1513596
-66.725555 46.346401 7.9866576
-66.711578 46.3428 7.8223166
-66.697662 46.357246 7.6625404
-66.683807 46.340866 7.4967828
-66.669991 46.342579 7.3354464
-66.656273 46.32317 7.1706762
-66.642441 46.361309 7.0170279
-66.628883 46.329098 6.8512902
-66.615463 46.28548 6.6847692
-68.170982 46.591656 24.309414
-67.082413 46.349609 11.618475
-67.066757 46.361691 11.439042
-67.050507 46.335052 11.244672
-67.035164 46.35273 11.070086
-67.019279 46.331505 10.881082
-67.004074 46.34568 10.707343
-66.988663 46.339447 10.526879
-66.973587 46.350212 10.353893
-66.958565 46.35931 10.181227
-66.943268 46.338398 9.999114
-66.928391 46.344109 9.8273792
-66.913483 46.338673 9.652916
-66.898643 46.331547 9.4790001
-66.883965 46.332302 9.3085785
-66.869431 46.34103 9.1414165
-66.854942 46.34819 8.9745159
-66.840508 46.353798 8.8078918
-66.826073 46.348198 8.6389618
-66.811752 46.350681 8.4730167
-66.797417 46.33223 8.3025351
-66.783279 46.351044 8.1420975
-66.769112 46.339191 7.9748926
-66.755035 46.345295 7.8125663
-66.741013 46.359707 7.652534
-66.727028 46.353081 7.488543
-66.713089 46.354771 7.3268723
-66.699196 46.354992 7.1654472
-66.685432 46.324215 6.9990377
-66.671562 46.351059 6.8433843
-68.156326 46.567684 23.587708
-67.159027 46.348667 11.990114
-67.142593 46.337063 11.797301
-67.110764 46.344666 11.429778
-67.094795 46.33646 11.242993
-67.079247 46.344898 11.064416
-67.063759 46.351574 10.886254
-67.048492 46.365837 10.712108
-67.032578 46.331593 10.520739
-67.017326 46.332954 10.344168
-67.002274 46.342018 10.171417
-66.987038 46.330517 9.9924908
-66.972221 46.345699 9.8237658
-66.957253 46.340275 9.6490602
-66.942352 46.333164 9.4749022
-66.92762 46.333931 9.3042336
-66.912956 46.33308 9.1339779
-66.898422 46.340229 8.9669104
-66.883881 46.336182 8.7974434
-66.869461 46.340195 8.6310263
-66.855087 46.342663 8.4649143
-66.840698 46.324184 8.2942753
-66.826523 46.342979 8.1336632
-66.812317 46.340843 7.9685512
-66.798157 46.327419 7.8016319
-66.784103 46.341785 7.641511
-66.770073 46.335114 7.4774399
-66.756096 46.326942 7.3137717
-66.742149 46.346764 7.1560063
-66.728302 46.325798 6.9911852
-66.714447 46.332905 6.8319507
-68.19429 46.597218 23.636507
-68.162361 46.565197 23.258755
-68.132233 46.548622 22.904779
-68.074646 46.529144 22.230659
-67.214684 46.34005 12.177551
-67.198631 46.348648 11.992136
-67.166176 46.332722 11.610829
-67.150375 46.335621 11.427161
-67.13517 46.364395 11.2555
-67.118996 46.335899 11.061463
-67.103584 46.342602 10.883131
-67.087936 46.328876 10.698071
-67.07267 46.33202 10.520782
-67.057617 46.342827 10.347376
-67.042229 46.323689 10.164283
-67.027306 46.331085 9.9917774
-67.01268 46.355793 9.8259659
-66.997749 46.350437 9.6509247
-66.982895 46.343388 9.4764309
-66.968033 46.325092 9.2995777
-66.953598 46.343426 9.1348295
-66.938965 46.331406 8.9619064
-66.924622 46.346638 8.7976122
-66.910126 46.331387 8.6256752
-66.895821 46.333858 8.4593878
-66.881569 46.334785 8.2934198
-66.867409 46.343903 8.1301212
-66.853233 46.332043 7.9624991
-66.839172 46.338142 7.7997408
-66.825134 46.332981 7.6351061
-66.81115 46.316509 7.4688644
-66.797249 46.337761 7.3108411
-66.783379 46.328114 7.1472445
-66.769539 46.33667 6.9875584
-66.75576 46.333935 6.8263183
-68.458885 46.714222 26.412441
-68.225311 46.582821 23.644711
-68.196732 46.591835 23.310579
-68.166809 46.575741 22.956106
-68.137115 46.554844 22.603403
-68.110626 46.571239 22.295204
-68.080383 46.52705 21.931742
-68.052818 46.513573 21.605413
-67.238091 46.347183 11.997321
-67.205879 46.33144 11.615516
-67.190567 46.35284 11.439398
-67.17495 46.354053 11.255857
-67.159401 46.353424 11.072873
-67.1436 46.332359 10.883144
-67.12854 46.346695 10.708649
-67.113235 46.340614 10.527444
-67.098297 46.351528 10.353699
-67.083 46.332493 10.170269
-67.068192 46.339989 9.9974232
-67.053192 46.326866 9.8185873
-67.038513 46.331009 9.6466227
-67.023994 46.343048 9.4780455
-67.009232 46.324818 9.3009338
-66.994911 46.343212 9.1359215
-66.980461 46.340866 8.9654942
-66.966156 46.346546 8.7981806
-66.951828 46.341007 8.6285706
-66.937622 46.343555 8.461935
-66.923523 46.354259 8.2980385
-66.909332 46.334297 8.1273022
-66.89537 46.351696 7.9662509
-66.88131 46.328594 7.7965612
-66.867386 46.323456 7.6317468
-66.853531 46.326607 7.469317
-66.839729 46.338097 7.3090286
-66.825951 46.348152 7.1488152
-66.812233 46.327229 6.9834728
-66.798546 46.334373 6.8237042
-68.491402 46.701553 26.432198
-68.259514 46.571785 23.663113
-68.232697 46.601486 23.350666
-68.202965 46.585808 22.995813
-68.173965 46.572266 22.649904
-68.148155 46.596142 22.348377
-68.119553 46.573696 22.00556
-67.295013 46.335388 12.191318
-67.279198 46.344212 12.005404
-67.21611 46.333088 11.255298
-67.200684 46.332508 11.072223
-67.185333 46.330101 10.889722
-67.170219 46.335213 10.711394
-67.155174 46.338573 10.533513
-67.140045 46.330803 10.352681
-67.12513 46.330666 10.175828
-67.110161 46.319355 9.9962206
-67.09539 46.315758 9.8204622
-67.08094 46.329479 9.6514111
-67.066299 46.32254 9.4765654
-67.051842 46.323475 9.3052044
-67.037437 46.322788 9.1342564
-67.023277 46.339706 8.969245
-67.009064 46.34547 8.801671
-66.99482 46.340015 8.6317987
-66.980583 46.323284 8.4598951
-66.966713 46.353432 8.3007431
-66.952599 46.333546 8.1297436
-66.938652 46.331532 7.9639287
-66.924751 46.327988 7.7984753
-66.910942 46.332703 7.6354766
-66.89711 46.306538 7.4667106
-66.883446 46.337692 7.3101482
-66.869759 46.337978 7.1478448
-66.856117 46.346645 6.9875383
-66.842529 46.324291 6.8223724
-68.532959 46.68372 26.442709
-68.302505 46.568512 23.687494
-68.274193 46.578018 23.352924
-68.244522 46.562416 22.998009
-68.218109 46.583698 22.687902
-68.192841 46.614967 22.39312
-68.136848 46.580643 21.722404
-68.108192 46.5424 21.375765
-68.080254 46.506752 21.038029
-67.355103 46.339996 12.393981
-67.338783 46.332775 12.198769
-67.322998 46.341717 12.012615
-67.275658 46.338875 11.449317
-67.26017 46.340279 11.265362
-67.244934 46.349113 11.085703
-67.229401 46.33757 10.899137
-67.213966 46.324142 10.713323
-67.198944 46.327576 10.535276
-67.18383 46.31987 10.354279
-67.16909 46.329227 10.180593
-67.154121 46.318012 10.000737
-67.139107 46.29554 9.8183899
-67.124939 46.328316 9.655427
-67.110313 46.321465 9.4803305
-67.095978 46.33205 9.3116398
-67.081375 46.312294 9.1346788
-67.067154 46.319653 8.9667435
-67.052971 46.325451 8.7990828
-67.038918 46.339344 8.6342993
-67.024605 46.313004 8.4596376
-67.010651 46.323795 8.295476
-66.996613 46.313641 8.1268082
-66.982796 46.331139 7.9654064
-66.968819 46.308136 7.7953653
-66.955078 46.322659 7.6343594
-66.941269 46.306335 7.4674163
-66.927628 46.327732 7.3086848
-66.913948 46.318226 7.1443839
-66.90033 46.317066 6.9822507
-66.886757 46.324306 6.8220415
-68.581673 46.672417 26.44767
-68.352943 46.584507 23.721117
-68.324051 46.587498 23.378902
-68.296379 46.599674 23.052622
-68.267342 46.586697 22.706112
-68.241539 46.611137 22.403969
-68.135918 46.612179 21.151123
-68.10804 46.573017 20.814226
-68.078979 46.507236 20.459129
-68.054832 46.510998 20.173197
-68.029457 46.48867 19.86865
-68.00518 46.477516 19.578827
-67.401695 46.33078 12.392242
-67.385574 46.332649 12.201093
-67.369301 46.323452 12.006427
-67.337471 46.317337 11.627467
-67.322304 46.338997 11.450692
-67.306572 46.331215 11.262678
-67.290932 46.321526 11.075381
-67.275749 46.328552 10.896134
-67.260269 46.31514 10.710164
-67.245216 46.318592 10.531956
-67.230392 46.3297 10.357625
-67.215462 46.329708 10.18028
-67.200447 46.318531 10.000182
-67.186081 46.343521 9.8334312
-67.171066 46.319408 9.6512918
-67.156403 46.312569 9.4760332
-67.142166 46.332729 9.3100929
-67.127625 46.322594 9.135725
-67.113251 46.320396 8.9647026
-67.099045 46.326225 8.7967901
-67.084877 46.33049 8.6291676
-67.070671 46.323513 8.4593477
-67.05661 46.32465 8.2924309
-67.042595 46.324242 8.1258459
-67.028625 46.322292 7.9596076
-67.014763 46.328575 7.7958918
-67.000847 46.313805 7.6282263
-66.987068 46.317081 7.4651031
-66.973366 46.32869 7.3041186
-66.959641 46.319191 7.139565
-66.945992 46.318039 6.9771767
-66.932373 46.305561 6.8134093
-68.627167 46.6693 26.45908
-68.395142 46.541321 23.687273
-68.37104 46.605438 23.410831
-68.340744 46.583447 23.048042
-68.313248 46.591274 22.722984
-68.287971 46.622883 22.427696
-68.104805 46.583622 20.248108
-68.076111 46.509487 19.896498
-68.052704 46.513687 19.619364
-68.027649 46.484001 19.317493
-68.004555 46.481094 19.042976
-67.981613 46.474777 18.769697
-67.957527 46.44175 18.478874
-67.446434 46.331287 12.393375
-67.430542 46.342274 12.206202
-67.414238 46.333157 12.011222
-67.398262 46.331154 11.821095
-67.382362 46.327202 11.631628
-67.366547 46.32132 11.442839
-67.351013 46.322754 11.258563
-67.335953 46.340893 11.082312
-67.320358 46.329407 10.89535
-67.305405 46.344044 10.719859
-67.289963 46.328884 10.534178
-67.274788 46.321259 10.352696
-67.259842 46.321266 10.175187
-67.245125 46.329006 10.00142
-67.230301 46.325596 9.8248396
-67.215553 46.320477 9.6487885
-67.200996 46.323196 9.4762812
-67.186501 46.32428 9.3041706
-67.171936 46.314137 9.1296387
-67.157562 46.311935 8.9584503
-67.143242 46.308117 8.7877035
-67.129265 46.331669 8.6251554
-67.114952 46.315025 8.452589
-67.10096 46.325851 8.2879152
-67.086998 46.335175 8.1234045
-67.072807 46.30402 7.9500976
-67.059059 46.329796 7.7906108
-67.045166 46.32481 7.6247687
-67.031372 46.328102 7.4613037
-67.01754 46.310276 7.2942638
-67.003807 46.300739 7.1296282
-66.990234 46.338947 6.974082
-66.976563 46.316624 6.8082442
-68.662498 46.656002 26.466442
-68.433617 46.555557 23.72316
-68.408585 46.606361 23.431765
-68.378395 46.584564 23.068729
-68.35051 46.58564 22.736248
-68.324844 46.610371 22.433653
-68.117126 46.550007 19.947601
-68.092415 46.532021 19.650257
-68.069237 46.533066 19.373873
-68.044861 46.507675 19.07947
-68.021103 46.486263 18.793036
-67.998383 46.476799 18.520685
-67.975815 46.463963 18.249645
-67.95256 46.432014 17.967686
-67.503235 46.326252 12.589932
-67.47126 46.341297 12.210284
-67.438629 46.312054 11.816587
-67.423027 46.317284 11.631007
-67.407486 46.320644 11.445947
-67.392227 46.331394 11.265236
-67.376816 46.331089 11.081187
-67.361473 46.328945 10.897712
-67.346207 46.32497 10.714827
-67.331192 46.328552 10.53604
-67.315887 46.311588 10.350902
-67.30101 46.311626 10.173223
-67.286354 46.319393 9.9992838
-67.271599 46.316013 9.8225327
-67.256897 46.310921 9.6463118
-67.242409 46.313667 9.4736319
-67.227974 46.31477 9.3013487
-67.213837 46.33342 9.1351366
-67.199257 46.312084 8.9580317
-67.184982 46.308308 8.7870293
-67.170769 46.302921 8.6164827
-67.156898 46.324982 8.4538927
-67.14286 46.326164 8.2864628
-67.12896 46.335526 8.1216908
-67.114937 46.323891 7.9526134
-67.101112 46.330208 7.7883782
-67.087212 46.315468 7.6202054
-67.073471 46.318768 7.4565635
-67.059853 46.340221 7.2969546
-67.046074 46.311089 7.1281719
-67.032455 46.309937 6.9653502
-67.018921 46.327042 6.8060884
-68.690887 46.637299 26.478731
-68.438873 46.582096 23.43564
-68.4095 46.56728 23.079748
-68.383438 46.589363 22.768629
-68.356995 46.600395 22.451494
-68.128075 46.546505 19.685804
-68.105545 46.555523 19.415478
-68.081795 46.538216 19.126993
-68.058212 46.517269 18.840006
-68.035233 46.500484 18.560825
-68.012413 46.480217 18.283089
-67.990181 46.464382 18.01297
-67.967262 46.429344 17.7321
-67.946571 46.430752 17.482914
-67.925606 46.421154 17.22884
-67.559593 46.343636 12.805258
-67.494919 46.329262 12.023245
-67.478661 46.309174 11.824517
-67.463425 46.323696 11.642659
-67.4478 46.318001 11.453372
-67.432251 46.310379 11.264782
-67.416779 46.300842 11.076907
-67.401794 46.308018 10.89707
-67.387054 46.322765 10.721233
-67.371803 46.307713 10.535212
-67.356812 46.30019 10.353386
-67.342415 46.319157 10.182182
-67.327881 46.327053 10.007903
-67.31324 46.323795 9.8308105
-67.298508 46.309311 9.6511669
-67.284142 46.312149 9.4782276
-67.269829 46.313343 9.3056831
-67.255569 46.312901 9.1335497
-67.241608 46.330055 8.9673347
-67.22744 46.326412 8.7959003
-67.213326 46.321152 8.6249228
-67.199272 46.314281 8.4544163
-67.185181 46.296108 8.2819853
-67.171425 46.305481 8.1172018
-67.157692 46.313347 7.9525952
-67.144066 46.329483 7.7903357
-67.130272 46.314808 7.6218963
-67.116768 46.337772 7.4619594
-67.10302 46.310234 7.2924085
-67.089439 46.300781 7.1272449
-67.075974 46.309517 6.9659705
-67.062515 46.30695 6.8031516
-68.716858 46.632404 26.518618
-68.468773 46.594345 23.487555
-68.440231 46.58696 23.138443
-68.41291 46.588783 22.805309
-68.38575 46.586189 22.473627
-68.160843 46.557354 19.725603
-68.070717 46.544094 18.624014
-68.047676 46.516624 18.339367
-68.02607 46.509235 18.074743
-68.003349 46.474812 17.793156
-67.982445 46.468826 17.537258
-67.960861 46.443684 17.270674
-67.940224 46.431469 17.017298
-67.919334 46.408077 16.759377
-67.89975 46.406155 16.520027
-67.880653 46.409687 16.287348
-67.842407 46.400402 15.819246
-67.822906 46.379131 15.578598
-67.548759 46.314899 12.222819
-67.533577 46.333382 12.039654
-67.517479 46.313496 11.840589
-67.501953 46.309864 11.650448
-67.486946 46.322704 11.468776
-67.471558 46.315269 11.279847
-67.456459 46.315193 11.095367
-67.441422 46.313274 10.911459
-67.426651 46.318863 10.731713
-67.411743 46.313324 10.548921
-67.396721 46.296574 10.363341
-67.382492 46.315678 10.191882
-67.368126 46.323711 10.017344
-67.353638 46.320587 9.8399878
-67.339058 46.306236 9.660079
-67.325005 46.318741 9.4898748
-67.310837 46.320084 9.3169842
-67.296585 46.310204 9.1416702
-67.282532 46.308254 8.969698
-67.26889 46.333591 8.80616
-67.254807 46.31881 8.6322498
-67.241005 46.321739 8.4639721
-67.227142 46.313408 8.2935982
-67.213524 46.322929 8.1283808
-67.199852 46.321198 7.9610953
-67.18615 46.308163 7.7920103
-67.172646 46.313118 7.6276159
-67.159172 46.316582 7.463438
-67.145683 46.308743 7.2975879
-67.132332 46.31905 7.1357875
-67.118927 46.308212 6.9706097
-67.105606 46.305737 6.8075194
-68.744843 46.602642 26.527021
-68.499039 46.565933 23.495306
-68.470757 46.558708 23.146112
-68.444206 46.567635 22.82007
-68.419853 46.600315 22.523804
-68.19532 46.553337 19.751987
-68.106384 46.549049 18.655539
-68.040352 46.496674 17.835732
-68.019188 46.483139 17.57333
-67.998566 46.474464 17.318171
-67.977676 46.454636 17.058353
-67.957314 46.439816 16.805708
-67.937088 46.421974 16.554337
-67.918526 46.434113 16.326862
-67.89817 46.402206 16.072271
-67.879807 46.408955 15.846713
-67.860817 46.396378 15.611114
-67.841942 46.381077 15.376655
-67.603722 46.316528 12.431767
-67.588097 46.318985 12.239389
-67.572296 46.31036 12.04349
-67.556816 46.308838 11.852444
-67.541412 46.305363 11.662052
-67.526085 46.299942 11.472337
-67.511276 46.311073 11.290949
-67.496078 46.301872 11.10248
-67.481178 46.300072 10.918399
-67.466537 46.305771 10.738481
-67.45195 46.309711 10.559006
-67.437416 46.311897 10.379992
-67.422943 46.312344 10.201456
-67.408348 46.301594 10.020165
-67.394157 46.308033 9.8458824
-67.379852 46.303295 9.6688776
-67.365768 46.306389 9.4954166
-67.351578 46.298267 9.3194313
-67.337875 46.317226 9.152524
-67.323921 46.315422 8.9802065
-67.31015 46.321625 8.8109951
-67.296181 46.306938 8.6369038
-67.282272 46.290592 8.4634504
-67.268753 46.301712 8.2978935
-67.255157 46.301598 8.1301689
-67.241699 46.309673 7.9650331
-67.228188 46.306488 7.7979264
-67.214638 46.291981 7.6291165
-67.201363 46.305309 7.4668345
-67.188042 46.307362 7.3027072
-67.174706 46.2981 7.1370034
-67.161507 46.307018 6.9751959
-67.148293 46.30463 6.8118382
-68.785057 46.592957 26.544592
-68.539017 46.544056 23.496853
-68.513466 46.571316 23.183748
-68.485435 46.559757 22.835823
-68.459122 46.564564 22.510918
-68.235962 46.52449 19.746149
-68.0634 46.510128 17.609444
-68.04158 46.477684 17.335999
-68.021538 46.474239 17.08762
-68.001213 46.459709 16.834545
-67.980629 46.433968 16.577023
-67.961342 46.429859 16.337891
-67.942162 46.42297 16.099806
-67.92347 46.421658 15.868305
-67.904144 46.400921 15.626907
-67.886391 46.41111 15.408223
-67.868004 46.401905 15.179699
-67.849037 46.373043 14.941804
-67.830879 46.358574 14.715553
-67.814178 46.376015 14.51065
-67.796227 46.356621 14.286334
-67.647354 46.314476 12.438645
-67.631508 46.307968 12.241812
-67.616264 46.317616 12.054023
-67.600571 46.307091 11.858598
-67.585449 46.312885 11.67194
-67.570152 46.307598 11.481899
-67.555153 46.309616 11.29637
-67.540215 46.30978 11.11139
-67.52491 46.289486 10.919671
-67.510109 46.285908 10.736012
-67.495979 46.308605 10.563437
-67.481293 46.301479 10.380762
-67.467239 46.320831 10.208716
-67.452843 46.319645 10.030341
-67.438164 46.297764 9.8461466
-67.4244 46.321609 9.6782188
-67.410011 46.305752 9.4983406
-67.396011 46.30727 9.3250189
-67.38205 46.30714 9.1521063
-67.368004 46.295765 8.9768677
-67.354416 46.311623 8.8102341
-67.340721 46.316296 8.6411362
-67.326836 46.300034 8.4673433
-67.313347 46.31123 8.3014441
-67.299675 46.301468 8.1310472
-67.286057 46.290112 7.9611645
-67.272766 46.306461 7.7982879
-67.259247 46.292004 7.6292205
-67.245781 46.275978 7.4607096
-67.232727 46.30748 7.30229
-67.219467 46.30809 7.1381454
-67.206192 46.297371 6.9725242
-67.193062 46.304867 6.8106384
-68.828476 46.579865 26.539129
-68.585892 46.57114 23.534657
-68.558769 46.578037 23.199434
-68.53022 46.559628 22.844103
-68.503929 46.564484 22.519011
-68.280411 46.517281 19.745987
-68.068153 46.507446 17.115381
-68.048607 46.509457 16.873388
-68.027977 46.484055 16.615238
-68.007874 46.463799 16.364174
-67.988281 46.448856 16.120016
-67.9692 46.439392 15.882581
-67.949852 46.418789 15.640827
-67.931358 46.412239 15.411064
-67.913696 46.420048 15.192882
-67.89576 46.416908 14.970245
-67.877563 46.402699 14.743404
-67.859825 46.39455 14.522722
-67.842178 46.383942 14.30302
-67.82431 46.362183 14.079418
-67.807518 46.364166 13.871489
-67.790176 46.346325 13.654803
-67.774178 46.361423 13.457908
-67.676437 46.309624 12.241244
-67.661194 46.319298 12.053212
-67.629875 46.296265 11.662706
-67.615311 46.318554 11.484264
-67.600075 46.311386 11.294599
-67.584908 46.302296 11.105645
-67.57003 46.300598 10.921074
-67.555435 46.306404 10.74066
-67.5411 46.319817 10.564177
-67.526604 46.322128 10.384584
-67.512154 46.322697 10.205468
-67.497192 46.293148 10.017118
-67.483055 46.299644 9.8424129
-67.468956 46.304474 9.6680698
-67.454575 46.288563 9.4881144
-67.440903 46.309162 9.3205309
-67.426941 46.309036 9.1473665
-67.41288 46.297657 8.9718819
-67.399155 46.303875 8.8023252
-67.385475 46.308521 8.6330566
-67.371948 46.321278 8.4665813
-67.357857 46.283989 8.288209
-67.344536 46.303326 8.1247892
-67.331009 46.301704 7.9568954
-67.317528 46.298534 7.7893605
-67.304085 46.293823 7.6221981
-67.290688 46.287579 7.4554229
-67.277489 46.299442 7.2928467
-67.264236 46.300014 7.1285291
-67.251022 46.299103 6.9644685
-67.237831 46.296711 6.8006783
-68.872528 46.581131 26.547586
-68.629936 46.572456 23.541739
-68.601212 46.558693 23.18466
-68.574776 46.567928 22.857994
-68.54744 46.55883 22.518448
-68.322479 46.488621 19.724703
-68.014931 46.483097 15.911816
-67.995155 46.454357 15.664069
-67.976997 46.456467 15.439145
-67.958931 46.456043 15.215093
-67.93988 46.427513 14.976337
-67.922012 46.421947 14.754333
-67.904243 46.41391 14.53328
-67.887253 46.420742 14.323161
-67.870003 46.416592 14.108843
-67.853165 46.41885 13.900229
-67.835442 46.392483 13.678117
-67.819405 46.407814 13.480598
-67.801888 46.376709 13.260594
-67.785095 46.360992 13.050908
-67.768394 46.34301 12.84222
-67.752083 46.331776 12.638916
-67.735855 46.318378 12.4365
-67.720001 46.311913 12.239198
-67.704483 46.312492 12.046796
-67.689034 46.311108 11.85503
-67.673653 46.307758 11.663918
-67.658585 46.311676 11.477369
-67.643341 46.304478 11.287546
-67.628159 46.295357 11.098436
-67.613739 46.312248 10.920994
-67.598907 46.308746 10.736688
-67.583923 46.294048 10.549503
-67.569641 46.305672 10.37331
-67.554993 46.296745 10.190792
-67.540993 46.3144 10.018644
-67.526649 46.311459 9.8403673
-67.512177 46.297279 9.6595459
-67.497948 46.290871 9.4824219
-67.484276 46.311462 9.3145781
-67.470299 46.311321 9.1411629
-67.456528 46.31916 8.970912
-67.4422 46.286854 8.7903099
-67.428383 46.281769 8.6183815
-67.415009 46.304127 8.4543867
-67.40139 46.305592 8.2855644
-67.387581 46.286045 8.1124344
-67.37439 46.313595 7.951159
-67.360779 46.300652 7.7811365
-67.347328 46.29591 7.6137209
-67.333908 46.289635 7.4466929
-67.320625 46.291645 7.2819595
-67.307442 46.302002 7.1192784
-67.294144 46.291206 6.9532385
-67.280945 46.288757 6.7892771
-68.920242 46.577648 26.5597
-68.676285 46.555988 23.53793
-68.649689 46.569763 23.209684
-68.62162 46.558338 22.861229
-68.595306 46.563309 22.535769
-68.369011 46.47929 19.726713
-68.042809 46.479069 15.685555
-68.006126 46.472691 15.230427
-67.969818 46.45607 14.779184
-67.950928 46.422401 14.542466
-67.933563 46.420677 14.327071
-67.916275 46.416595 14.112528
-67.899414 46.418919 13.903686
-67.882294 46.410198 13.690846
-67.865585 46.408001 13.483602
-67.849274 46.412464 13.281746
-67.832413 46.396965 13.071525
-67.815346 46.370235 12.857862
-67.799271 46.368164 12.658453
-67.783272 46.364006 12.459774
-67.767067 46.348705 12.257644
-67.751221 46.340378 12.060566
-67.735184 46.320866 11.860237
-67.719505 46.308422 11.664845
-67.703903 46.293961 11.470288
-67.688629 46.286743 11.280388
-67.674156 46.305431 11.102369
-67.659004 46.294468 10.913672
-67.644386 46.300285 10.732847
-67.629364 46.285587 10.545506
-67.615288 46.306622 10.372544
-67.600601 46.297729 10.189784
-67.585983 46.287037 10.007682
-67.572014 46.303017 9.8357096
-67.557693 46.298355 9.6577969
-67.543617 46.301517 9.4834137
-67.529572 46.303024 9.3094244
-67.515411 46.293289 9.1330233
-67.501785 46.310715 8.9654226
-67.487572 46.288044 8.7873173
-67.473862 46.292641 8.6177082
-67.460052 46.28598 8.4459162
-67.446686 46.306831 8.2818089
-67.432831 46.287292 8.1084328
-67.419518 46.305107 7.944663
-67.405876 46.292149 7.7744761
-67.392601 46.306965 7.6110144
-67.379051 46.290905 7.4416723
-67.365646 46.2831 7.2747927
-67.352364 46.283604 7.1101327
-67.339195 46.292473 6.9474492
-67.325905 46.280155 6.7815986
-68.970024 46.572357 26.572857
-68.724762 46.544754 23.54249
-68.696457 46.537891 23.192467
-68.670471 46.554169 22.872721
-68.642471 46.538181 22.525784
-68.417473 46.483768 19.742908
-67.946709 46.44437 13.922792
-67.928833 46.418259 13.700015
-67.912056 46.41618 13.492468
-67.895676 46.420757 13.290306
-67.879364 46.423206 13.088806
-67.862503 46.405624 12.879124
-67.846039 46.394779 12.674815
-67.830544 46.408871 12.484225
-67.813652 46.375679 12.273074
-67.798004 46.376633 12.079647
-67.781868 46.357323 11.878772
-67.766357 46.354259 11.68679
-67.75013 46.321602 11.483837
-67.734779 46.314541 11.293461
-67.719734 46.314831 11.107516
-67.704269 46.29464 10.914862
-67.689362 46.291168 10.730236
-67.674515 46.285866 10.546216
-67.660164 46.297546 10.369611
-67.645851 46.307537 10.193318
-67.630951 46.287457 10.007663
-67.616531 46.284504 9.8291435
-67.602364 46.289345 9.6542187
-67.588234 46.292519 9.4796715
-67.574142 46.294037 9.3055172
-67.560097 46.293907 9.131773
-67.546257 46.30175 8.9611855
-67.532288 46.298367 8.7882214
-67.518372 46.293354 8.6157112
-67.504646 46.296406 8.4461536
-67.490814 46.288181 8.2745142
-67.477295 46.29781 8.1079998
-67.463676 46.296169 7.9394326
-67.449982 46.283211 7.7690816
-67.436775 46.307812 7.6075068
-67.423058 46.281967 7.4359431
-67.40979 46.293797 7.2726727
-67.396538 46.304165 7.1094751
-67.382973 46.273666 6.9394979
-67.369774 46.281059 6.7768288
-68.772781 46.54435 23.550287
-68.745987 46.558228 23.221748
-68.718231 46.553852 22.880173
-68.691704 46.558983 22.554358
-68.463448 46.476341 19.742064
-67.906006 46.407001 12.878755
-67.88945 46.396183 12.674223
-67.873871 46.410305 12.483397
-67.810402 46.392502 11.700887
-67.794838 46.387642 11.509026
-67.778572 46.353092 11.306465
-67.76342 46.353527 11.119962
-67.748322 46.352108 10.934027
-67.732811 46.330151 10.74157
-67.717613 46.315609 10.553515
-67.702263 46.289776 10.362856
-67.688538 46.328053 10.196328
-67.673317 46.298569 10.007049
-67.658401 46.276672 9.8219175
-67.644356 46.291008 9.6498919
-67.630333 46.30373 9.4780788
-67.615974 46.295708 9.3007011
-67.601486 46.27639 9.1210861
-67.587761 46.293804 8.953146
-67.573883 46.300034 8.7826653
-67.559723 46.285351 8.6073494
-67.545929 46.288372 8.4376268
-67.532166 46.289825 8.2682199
-67.51857 46.299442 8.1014519
-67.504745 46.288044 7.9304132
-67.491089 46.284817 7.7620425
-67.477592 46.289833 7.5960984
-67.464005 46.283535 7.4284034
-67.450363 46.265884 7.2592268
-67.437248 46.295856 7.0996242
-67.423683 46.275169 6.9312067
-67.410339 46.272667 6.7666554
-69.070244 46.568085 26.580406
-68.822998 46.546909 23.555243
-68.796616 46.567692 23.23374
-68.7687 46.563374 22.891937
-68.74147 46.561535 22.558796
-68.514359 46.516724 19.777531
-67.762115 46.346447 10.558034
-67.74733 46.348907 10.377062
-67.73214 46.33073 10.18996
-67.717682 46.339085 10.013342
-67.702629 46.317276 9.8276539
-67.687859 46.303146 9.6458788
-67.673347 46.296783 9.4677858
-67.659088 46.298283 9.2931433
-67.644501 46.278934 9.1132965
-67.630692 46.296326 8.9450998
-67.616386 46.283241 8.7690916
-67.602631 46.297478 8.6013727
-67.588425 46.281116 8.4263754
-67.57502 46.311642 8.2639647
-67.560905 46.292076 8.0898676
-67.547256 46.300117 7.9231071
-67.533249 46.277332 7.7501388
-67.519669 46.282288 7.5840273
-67.505997 46.275928 7.4161716
-67.492584 46.287682 7.2524714
-67.479179 46.297966 7.0888457
-67.465424 46.267372 6.9184837
-67.451996 46.264809 6.7537684
-69.120773 46.563847 26.579435
-68.874817 46.57629 23.589828
-68.845436 46.562798 23.231867
-68.818451 46.572361 22.904255
-68.790497 46.563557 22.563797
-68.561867 46.518829 19.780952
-67.730301 46.343639 9.6516323
-67.715652 46.337364 9.47297
-67.701065 46.329372 9.2948666
-67.68634 46.310074 9.1145382
-67.671501 46.279408 8.932251
-67.657623 46.295185 8.7640743
-67.643425 46.290085 8.5909185
-67.629272 46.28336 8.4182339
-67.615326 46.284729 8.2484159
-67.6017 46.303993 8.0835228
-67.587669 46.292519 7.9120021
-67.573814 46.289219 7.7431378
-67.559875 46.274578 7.5726066
-67.546112 46.268166 7.4045906
-67.532494 46.270035 7.2388482
