# .PCD v0.7 - Point Cloud Data file format
VERSION 0.7
FIELDS x y z
SIZE 4 4 4
TYPE F F F
COUNT 1 1 1
WIDTH 1561
HEIGHT 1
VIEWPOINT 0 0 0 1 0 0 0
POINTS 1561
DATA ascii
-77.021088 45.580532 23.305637
-77.021088 45.580517 23.173216
-77.021088 45.580502 23.040794
-77.021088 45.580486 22.908373
-77.021088 45.580471 22.775951
-77.021088 45.580456 22.64353
-77.021088 45.580441 22.511108
-77.021088 45.580425 22.378687
-77.021088 45.58041 22.246265
-77.021088 45.580395 22.113844
-77.021088 45.580379 21.981422
-77.021088 45.580364 21.849001
-77.021088 45.580349 21.716579
-77.021088 45.580334 21.584158
-77.021088 45.580318 21.451736
-77.021088 45.580303 21.319315
-77.021088 45.580288 21.186893
-77.021088 45.580273 21.054472
-77.021088 45.580257 20.92205
-77.021088 45.580242 20.789629
-77.021088 45.580227 20.657207
-77.021088 45.580212 20.524786
-77.021088 45.580196 20.392365
-77.021088 45.580181 20.259943
-77.021088 45.580166 20.127522
-77.021088 45.580151 19.9951
-77.021088 45.580135 19.862679
-77.021088 45.58012 19.730257
-77.021088 45.580105 19.597836
-77.021088 45.58009 19.465414
-77.021088 45.580074 19.332993
-77.021088 45.580059 19.200571
-77.021088 45.580044 19.06815
-77.021088 45.580029 18.935728
-77.021088 45.580013 18.803307
-77.021088 45.579998 18.670885
-77.021088 45.579983 18.538464
-77.021088 45.579967 18.406042
-77.021088 45.579952 18.273621
-77.021088 45.579937 18.141199
-77.021088 45.579922 18.008778
-77.021088 45.579906 17.876356
-77.021088 45.579891 17.743935
-77.021088 45.579876 17.611513
-77.021088 45.579861 17.479092
-77.021088 45.579845 17.34667
-77.021088 45.57983 17.214249
-77.021088 45.579815 17.081827
-77.021088 45.5798 16.949406
-77.021088 45.579784 16.816984
-77.021088 45.579769 16.684563
-77.021088 45.579754 16.552141
-77.021088 45.579739 16.41972
-77.021088 45.579723 16.287298
-77.021088 45.579708 16.154877
-77.021088 45.579693 16.022455
-77.021088 45.579678 15.890035
-77.021088 45.579662 15.757614
-77.021088 45.579647 15.625194
-77.021088 45.579632 15.492773
-77.021088 45.579617 15.360353
-77.021088 45.579601 15.227932
-77.021088 45.579586 15.095511
-77.021088 45.579571 14.963091
-77.021088 45.579556 14.83067
-77.021088 45.57954 14.69825
-77.021088 45.579525 14.565829
-77.021088 45.57951 14.433409
-77.021088 45.579494 14.300988
-77.021088 45.579479 14.168568
-77.021088 45.579464 14.036147
-77.021088 45.579449 13.903727
-77.021088 45.579433 13.771306
-77.021088 45.579418 13.638885
-77.021088 45.579403 13.506465
-77.021088 45.579388 13.374044
-77.021088 45.579372 13.241624
-77.021088 45.579357 13.109203
-77.021088 45.579342 12.976783
-77.021088 45.579327 12.844362
-77.021088 45.579311 12.711942
-77.021088 45.579296 12.579521
-77.021088 45.579281 12.447101
-77.021088 45.579266 12.31468
-77.021088 45.57925 12.18226
-77.021088 45.579235 12.049839
-77.021088 45.57922 11.917418
-77.021088 45.579205 11.784998
-77.021088 45.579189 11.652577
-77.021088 45.579174 11.520157
-77.021088 45.579159 11.387736
-77.021088 45.579144 11.255316
-77.021088 45.579128 11.122895
-77.021088 45.579113 10.990475
-77.021088 45.579098 10.858054
-77.021088 45.579082 10.725634
-77.021088 45.579067 10.593213
-77.021088 45.579052 10.460793
-77.021088 45.579037 10.328372
-77.021088 45.579021 10.195951
-77.021088 45.579006 10.063531
-77.021088 45.578991 9.9311104
-77.021088 45.578976 9.7986898
-77.021088 45.57896 9.6662693
-77.021088 45.578945 9.5338488
-77.021088 45.57893 9.4014282
-77.021088 45.578915 9.2690077
-77.021088 45.578899 9.1365871
-77.021088 45.578884 9.0041666
-77.021088 45.578869 8.8717461
-77.021088 45.578854 8.7393255
-77.021088 45.578838 8.606905
-77.021088 45.578823 8.4744844
-77.021088 45.578808 8.3420639
-77.021088 45.578793 8.2096434
-77.021088 45.578777 8.0772228
-77.021088 45.578762 7.9448018
-77.021088 45.578747 7.8123808
-77.021088 45.578732 7.6799598
-77.021088 45.578716 7.5475388
-77.021088 45.578701 7.4151177
-77.021088 45.578686 7.2826967
-77.021088 45.578671 7.1502757
-77.021088 45.578655 7.0178547
-77.021088 45.57864 6.8854337
-77.021088 45.578625 6.7530127
-77.021088 45.578609 6.6205916
-77.021088 45.578594 6.4881706
-77.021088 45.578579 6.3557496
-77.021088 45.578564 6.2233286
-77.021088 45.578548 6.0909076
-77.021088 45.578533 5.9584866
-77.021088 45.578518 5.8260655
-77.021088 45.578503 5.6936445
-77.021088 45.578487 5.5612235
-77.021088 45.578472 5.4288025
-77.021088 45.578457 5.2963815
-77.021088 45.578442 5.1639605
-77.021088 45.578426 5.0315394
-77.021088 45.578411 4.8991184
-77.021088 45.578396 4.7666974
-77.021088 45.578381 4.6342764
-77.021088 45.578365 4.5018554
-77.021088 45.57835 4.3694344
-77.021088 45.578335 4.2370133
-77.021088 45.57832 4.1045923
-77.021088 45.578304 3.9721713
-77.021088 45.578289 3.8397503
-77.021088 45.578274 3.7073293
-77.021088 45.578259 3.5749083
-77.021088 45.578243 3.4424872
-77.021088 45.578228 3.3100662
-77.021088 45.578213 3.1776452
-77.021088 45.578197 3.0452242
-77.021088 45.578182 2.9128032
-77.021088 45.578167 2.7803822
-77.021088 45.578152 2.6479611
-77.021088 45.578136 2.5155401
-77.021088 45.578121 2.3831191
-77.021088 45.578106 2.2506981
-77.021088 45.578091 2.1182771
-77.021088 45.578075 1.9858561
-77.021088 45.57806 1.853435
-77.021088 45.578045 1.721014
-77.021088 45.57803 1.588593
-77.021088 45.578014 1.456172
-77.021088 45.577999 1.323751
-77.021088 45.577984 1.19133
-77.021088 45.577969 1.0589089
-77.021088 45.577953 0.92648798
-77.021088 45.577938 0.79406703
-76.945801 45.584953 33.89933
-76.945801 45.584938 33.766911
-76.945801 45.584923 33.634491
-76.945801 45.584908 33.502071
-76.945801 45.584892 33.369652
-76.945801 45.584877 33.237232
-76.945801 45.584862 33.104813
-76.945801 45.584846 32.972393
-76.945801 45.584831 32.839973
-76.945801 45.584816 32.707554
-76.945801 45.584801 32.575134
-76.945801 45.584785 32.442715
-76.945801 45.58477 32.310295
-76.945801 45.584755 32.177876
-76.945801 45.58474 32.045456
-76.945801 45.584724 31.913034
-76.945801 45.584709 31.780613
-76.945801 45.584694 31.648191
-76.945801 45.584679 31.51577
-76.945801 45.584663 31.383348
-76.945801 45.584648 31.250927
-76.945801 45.584633 31.118505
-76.945801 45.584618 30.986084
-76.945801 45.584602 30.853662
-76.945801 45.584587 30.721241
-76.945801 45.584572 30.58882
-76.945801 45.584557 30.456398
-76.945801 45.584541 30.323977
-76.945801 45.584526 30.191555
-76.945801 45.584511 30.059134
-76.945801 45.584496 29.926712
-76.945801 45.58448 29.794291
-76.945801 45.584465 29.661869
-76.945801 45.58445 29.529448
-76.945801 45.584435 29.397026
-76.945801 45.584419 29.264605
-76.945801 45.584404 29.132183
-76.945801 45.584389 28.999762
-76.945801 45.584373 28.86734
-76.945801 45.584358 28.734919
-76.945801 45.584343 28.602497
-76.945801 45.584328 28.470076
-76.945801 45.584312 28.337654
-76.945801 45.584297 28.205233
-76.945801 45.584282 28.072811
-76.945801 45.584267 27.94039
-76.945801 45.584251 27.807968
-76.945801 45.584236 27.675547
-76.945801 45.584221 27.543125
-76.945801 45.584206 27.410704
-76.945801 45.58419 27.278282
-76.945801 45.584175 27.145861
-76.945801 45.58416 27.013439
-76.945801 45.584145 26.881018
-76.945801 45.584129 26.748596
-76.945801 45.584114 26.616175
-76.945801 45.584099 26.483753
-76.945801 45.584084 26.351332
-76.945801 45.584068 26.21891
-76.945801 45.584053 26.086489
-76.945801 45.584038 25.954067
-76.945801 45.584023 25.821646
-76.945801 45.584007 25.689224
-76.945801 45.583992 25.556803
-76.945801 45.583977 25.424381
-76.945801 45.583961 25.29196
-76.945801 45.583946 25.159538
-76.945801 45.583931 25.027117
-76.945801 45.583916 24.894695
-76.945801 45.5839 24.762274
-76.945801 45.583885 24.629852
-76.945801 45.58387 24.497431
-76.945801 45.583855 24.365009
-76.945801 45.583839 24.232588
-76.945801 45.583824 24.100166
-76.945801 45.583809 23.967745
-76.945801 45.583794 23.835323
-76.945801 45.583778 23.702902
-76.945801 45.583763 23.57048
-76.945801 45.583748 23.438059
-76.945801 45.583733 23.305637
-76.945801 45.583717 23.173216
-76.945801 45.583702 23.040794
-76.945801 45.583687 22.908373
-76.945801 45.583672 22.775951
-76.945801 45.583656 22.64353
-76.945801 45.583641 22.511108
-76.945801 45.583626 22.378687
-76.945801 45.583611 22.246265
-76.945801 45.583595 22.113844
-76.945801 45.58358 21.981422
-76.945801 45.583565 21.849001
-76.945801 45.583549 21.716579
-76.945801 45.583534 21.584158
-76.945801 45.583519 21.451736
-76.945801 45.583504 21.319315
-76.945801 45.583488 21.186893
-76.945801 45.583473 21.054472
-76.945801 45.583458 20.92205
-76.945801 45.583443 20.789629
-76.945801 45.583427 20.657207
-76.945801 45.583412 20.524786
-76.945801 45.583397 20.392365
-76.945801 45.583382 20.259943
-76.945801 45.583366 20.127522
-76.945801 45.583351 19.9951
-76.945801 45.583336 19.862679
-76.945801 45.583321 19.730257
-76.945801 45.583305 19.597836
-76.945801 45.58329 19.465414
-76.945801 45.583275 19.332993
-76.945801 45.58326 19.200571
-76.945801 45.583244 19.06815
-76.945801 45.583229 18.935728
-76.945801 45.583214 18.803307
-76.945801 45.583199 18.670885
-76.945801 45.583183 18.538464
-76.945801 45.583168 18.406042
-76.945801 45.583153 18.273621
-76.945801 45.583138 18.141199
-76.945801 45.583122 18.008778
-76.945801 45.583107 17.876356
-76.945801 45.583092 17.743935
-76.945801 45.583076 17.611513
-76.945801 45.583061 17.479092
-76.945801 45.583046 17.34667
-76.945801 45.583031 17.214249
-76.945801 45.583015 17.081827
-76.945801 45.583 16.949406
-76.945801 45.582985 16.816984
-76.945801 45.58297 16.684563
-76.945801 45.582954 16.552141
-76.945801 45.582939 16.41972
-76.945801 45.582924 16.287298
-76.945801 45.582909 16.154877
-76.945801 45.582893 16.022455
-76.945801 45.582878 15.890035
-76.945801 45.582863 15.757614
-76.945801 45.582848 15.625194
-76.945801 45.582832 15.492773
-76.945801 45.582817 15.360353
-76.945801 45.582802 15.227932
-76.945801 45.582787 15.095511
-76.945801 45.582771 14.963091
-76.945801 45.582756 14.83067
-76.945801 45.582741 14.69825
-76.945801 45.582726 14.565829
-76.945801 45.58271 14.433409
-76.945801 45.582695 14.300988
-76.945801 45.58268 14.168568
-76.945801 45.582664 14.036147
-76.945801 45.582649 13.903727
-76.945801 45.582634 13.771306
-76.945801 45.582619 13.638885
-76.945801 45.582603 13.506465
-76.945801 45.582588 13.374044
-76.945801 45.582573 13.241624
-76.945801 45.582558 13.109203
-76.945801 45.582542 12.976783
-76.945801 45.582527 12.844362
-76.945801 45.582512 12.711942
-76.945801 45.582497 12.579521
-76.945801 45.582481 12.447101
-76.945801 45.582466 12.31468
-76.945801 45.582451 12.18226
-76.945801 45.582436 12.049839
-76.945801 45.58242 11.917418
-76.945801 45.582405 11.784998
-76.945801 45.58239 11.652577
-76.945801 45.582375 11.520157
-76.945801 45.582359 11.387736
-76.945801 45.582344 11.255316
-76.945801 45.582329 11.122895
-76.945801 45.582314 10.990475
-76.945801 45.582298 10.858054
-76.945801 45.582283 10.725634
-76.945801 45.582268 10.593213
-76.945801 45.582253 10.460793
-76.945801 45.582237 10.328372
-76.945801 45.582222 10.195951
-76.945801 45.582207 10.063531
-76.945801 45.582191 9.9311104
-76.945801 45.582176 9.7986898
-76.945801 45.582161 9.6662693
-76.945801 45.582146 9.5338488
-76.945801 45.58213 9.4014282
-76.945801 45.582115 9.2690077
-76.945801 45.5821 9.1365871
-76.945801 45.582085 9.0041666
-76.945801 45.582069 8.8717461
-76.945801 45.582054 8.7393255
-76.945801 45.582039 8.606905
-76.945801 45.582024 8.4744844
-76.945801 45.582008 8.3420639
-76.945801 45.581993 8.2096434
-76.945801 45.581978 8.0772228
-76.945801 45.581963 7.9448018
-76.945801 45.581947 7.8123808
-76.945801 45.581932 7.6799598
-76.945801 45.581917 7.5475388
-76.945801 45.581902 7.4151177
-76.945801 45.581886 7.2826967
-76.945801 45.581871 7.1502757
-76.945801 45.581856 7.0178547
-76.945801 45.581841 6.8854337
-76.945801 45.581825 6.7530127
-76.945801 45.58181 6.6205916
-76.945801 45.581795 6.4881706
-76.945801 45.581779 6.3557496
-76.945801 45.581764 6.2233286
-76.945801 45.581749 6.0909076
-76.945801 45.581734 5.9584866
-76.945801 45.581718 5.8260655
-76.945801 45.581703 5.6936445
-76.945801 45.581688 5.5612235
-76.945801 45.581673 5.4288025
-76.945801 45.581657 5.2963815
-76.945801 45.581642 5.1639605
-76.945801 45.581627 5.0315394
-76.945801 45.581612 4.8991184
-76.945801 45.581596 4.7666974
-76.945801 45.581581 4.6342764
-76.945801 45.581566 4.5018554
-76.945801 45.581551 4.3694344
-76.945801 45.581535 4.2370133
-76.945801 45.58152 4.1045923
-76.945801 45.581505 3.9721713
-76.945801 45.58149 3.8397503
-76.945801 45.581474 3.7073293
-76.945801 45.581459 3.5749083
-76.945801 45.581444 3.4424872
-76.945801 45.581429 3.3100662
-76.945801 45.581413 3.1776452
-76.945801 45.581398 3.0452242
-76.945801 45.581383 2.9128032
-76.945801 45.581367 2.7803822
-76.945801 45.581352 2.6479611
-76.945801 45.581337 2.5155401
-76.945801 45.581322 2.3831191
-76.945801 45.581306 2.2506981
-76.945801 45.581291 2.1182771
-76.945801 45.581276 1.9858561
-76.945801 45.581261 1.853435
-76.945801 45.581245 1.721014
-76.945801 45.58123 1.588593
-76.945801 45.581215 1.456172
-76.945801 45.5812 1.323751
-76.945801 45.581184 1.19133
-76.945801 45.581169 1.0589089
-76.945801 45.581154 0.92648798
-76.945801 45.581139 0.79406703
-76.870514 45.588154 33.89933
-76.870514 45.588139 33.766911
-76.870514 45.588123 33.634491
-76.870514 45.588108 33.502071
-76.870514 45.588093 33.369652
-76.870514 45.588078 33.237232
-76.870514 45.588062 33.104813
-76.870514 45.588047 32.972393
-76.870514 45.588032 32.839973
-76.870514 45.588017 32.707554
-76.870514 45.588001 32.575134
-76.870514 45.587986 32.442715
-76.870514 45.587971 32.310295
-76.870514 45.587955 32.177876
-76.870514 45.58794 32.045456
-76.870514 45.587925 31.913034
-76.870514 45.58791 31.780613
-76.870514 45.587894 31.648191
-76.870514 45.587879 31.51577
-76.870514 45.587864 31.383348
-76.870514 45.587849 31.250927
-76.870514 45.587833 31.118505
-76.870514 45.587818 30.986084
-76.870514 45.587803 30.853662
-76.870514 45.587788 30.721241
-76.870514 45.587772 30.58882
-76.870514 45.587757 30.456398
-76.870514 45.587742 30.323977
-76.870514 45.587727 30.191555
-76.870514 45.587711 30.059134
-76.870514 45.587696 29.926712
-76.870514 45.587681 29.794291
-76.870514 45.587666 29.661869
-76.870514 45.58765 29.529448
-76.870514 45.587635 29.397026
-76.870514 45.58762 29.264605
-76.870514 45.587605 29.132183
-76.870514 45.587589 28.999762
-76.870514 45.587574 28.86734
-76.870514 45.587559 28.734919
-76.870514 45.587543 28.602497
-76.870514 45.587528 28.470076
-76.870514 45.587513 28.337654
-76.870514 45.587498 28.205233
-76.870514 45.587482 28.072811
-76.870514 45.587467 27.94039
-76.870514 45.587452 27.807968
-76.870514 45.587437 27.675547
-76.870514 45.587421 27.543125
-76.870514 45.587406 27.410704
-76.870514 45.587391 27.278282
-76.870514 45.587376 27.145861
-76.870514 45.58736 27.013439
-76.870514 45.587345 26.881018
-76.870514 45.58733 26.748596
-76.870514 45.587315 26.616175
-76.870514 45.587299 26.483753
-76.870514 45.587284 26.351332
-76.870514 45.587269 26.21891
-76.870514 45.587254 26.086489
-76.870514 45.587238 25.954067
-76.870514 45.587223 25.821646
-76.870514 45.587208 25.689224
-76.870514 45.587193 25.556803
-76.870514 45.587177 25.424381
-76.870514 45.587162 25.29196
-76.870514 45.587147 25.159538
-76.870514 45.587132 25.027117
-76.870514 45.587116 24.894695
-76.870514 45.587101 24.762274
-76.870514 45.587086 24.629852
-76.870514 45.58707 24.497431
-76.870514 45.587055 24.365009
-76.870514 45.58704 24.232588
-76.870514 45.587025 24.100166
-76.870514 45.587009 23.967745
-76.870514 45.586994 23.835323
-76.870514 45.586979 23.702902
-76.870514 45.586964 23.57048
-76.870514 45.586948 23.438059
-76.870514 45.586933 23.305637
-76.870514 45.586918 23.173216
-76.870514 45.586903 23.040794
-76.870514 45.586887 22.908373
-76.870514 45.586872 22.775951
-76.870514 45.586857 22.64353
-76.870514 45.586842 22.511108
-76.870514 45.586826 22.378687
-76.870514 45.586811 22.246265
-76.870514 45.586796 22.113844
-76.870514 45.586781 21.981422
-76.870514 45.586765 21.849001
-76.870514 45.58675 21.716579
-76.870514 45.586735 21.584158
-76.870514 45.58672 21.451736
-76.870514 45.586704 21.319315
-76.870514 45.586689 21.186893
-76.870514 45.586674 21.054472
-76.870514 45.586658 20.92205
-76.870514 45.586643 20.789629
-76.870514 45.586628 20.657207
-76.870514 45.586613 20.524786
-76.870514 45.586597 20.392365
-76.870514 45.586582 20.259943
-76.870514 45.586567 20.127522
-76.870514 45.586552 19.9951
-76.870514 45.586536 19.862679
-76.870514 45.586521 19.730257
-76.870514 45.586506 19.597836
-76.870514 45.586491 19.465414
-76.870514 45.586475 19.332993
-76.870514 45.58646 19.200571
-76.870514 45.586445 19.06815
-76.870514 45.58643 18.935728
-76.870514 45.586414 18.803307
-76.870514 45.586399 18.670885
-76.870514 45.586384 18.538464
-76.870514 45.586369 18.406042
-76.870514 45.586353 18.273621
-76.870514 45.586338 18.141199
-76.870514 45.586323 18.008778
-76.870514 45.586308 17.876356
-76.870514 45.586292 17.743935
-76.870514 45.586277 17.611513
-76.870514 45.586262 17.479092
-76.870514 45.586246 17.34667
-76.870514 45.586231 17.214249
-76.870514 45.586216 17.081827
-76.870514 45.586201 16.949406
-76.870514 45.586185 16.816984
-76.870514 45.58617 16.684563
-76.870514 45.586155 16.552141
-76.870514 45.58614 16.41972
-76.870514 45.586124 16.287298
-76.870514 45.586109 16.154877
-76.870514 45.586094 16.022455
-76.870514 45.586079 15.890035
-76.870514 45.586063 15.757614
-76.870514 45.586048 15.625194
-76.870514 45.586033 15.492773
-76.870514 45.586018 15.360353
-76.870514 45.586002 15.227932
-76.870514 45.585987 15.095511
-76.870514 45.585972 14.963091
-76.870514 45.585957 14.83067
-76.870514 45.585941 14.69825
-76.870514 45.585926 14.565829
-76.870514 45.585911 14.433409
-76.870514 45.585896 14.300988
-76.870514 45.58588 14.168568
-76.870514 45.585865 14.036147
-76.870514 45.58585 13.903727
-76.870514 45.585835 13.771306
-76.870514 45.585819 13.638885
-76.870514 45.585804 13.506465
-76.870514 45.585789 13.374044
-76.870514 45.585773 13.241624
-76.870514 45.585758 13.109203
-76.870514 45.585743 12.976783
-76.870514 45.585728 12.844362
-76.870514 45.585712 12.711942
-76.870514 45.585697 12.579521
-76.870514 45.585682 12.447101
-76.870514 45.585667 12.31468
-76.870514 45.585651 12.18226
-76.870514 45.585636 12.049839
-76.870514 45.585621 11.917418
-76.870514 45.585606 11.784998
-76.870514 45.58559 11.652577
-76.870514 45.585575 11.520157
-76.870514 45.58556 11.387736
-76.870514 45.585545 11.255316
-76.870514 45.585529 11.122895
-76.870514 45.585514 10.990475
-76.870514 45.585499 10.858054
-76.870514 45.585484 10.725634
-76.870514 45.585468 10.593213
-76.870514 45.585453 10.460793
-76.870514 45.585438 10.328372
-76.870514 45.585423 10.195951
-76.870514 45.585407 10.063531
-76.870514 45.585392 9.9311104
-76.870514 45.585377 9.7986898
-76.870514 45.585361 9.6662693
-76.870514 45.585346 9.5338488
-76.870514 45.585331 9.4014282
-76.870514 45.585316 9.2690077
-76.870514 45.5853 9.1365871
-76.870514 45.585285 9.0041666
-76.870514 45.58527 8.8717461
-76.870514 45.585255 8.7393255
-76.870514 45.585239 8.606905
-76.870514 45.585224 8.4744844
-76.870514 45.585209 8.3420639
-76.870514 45.585194 8.2096434
-76.870514 45.585178 8.0772228
-76.870514 45.585163 7.9448018
-76.870514 45.585148 7.8123808
-76.870514 45.585133 7.6799598
-76.870514 45.585117 7.5475388
-76.870514 45.585102 7.4151177
-76.870514 45.585087 7.2826967
-76.870514 45.585072 7.1502757
-76.870514 45.585056 7.0178547
-76.870514 45.585041 6.8854337
-76.870514 45.585026 6.7530127
-76.870514 45.585011 6.6205916
-76.870514 45.584995 6.4881706
-76.870514 45.58498 6.3557496
-76.870514 45.584965 6.2233286
-76.870514 45.584949 6.0909076
-76.870514 45.584934 5.9584866
-76.870514 45.584919 5.8260655
-76.870514 45.584904 5.6936445
-76.870514 45.584888 5.5612235
-76.870514 45.584873 5.4288025
-76.870514 45.584858 5.2963815
-76.870514 45.584843 5.1639605
-76.870514 45.584827 5.0315394
-76.870514 45.584812 4.8991184
-76.870514 45.584797 4.7666974
-76.870514 45.584782 4.6342764
-76.870514 45.584766 4.5018554
-76.870514 45.584751 4.3694344
-76.870514 45.584736 4.2370133
-76.870514 45.584721 4.1045923
-76.870514 45.584705 3.9721713
-76.870514 45.58469 3.8397503
-76.870514 45.584675 3.7073293
-76.870514 45.58466 3.5749083
-76.870514 45.584644 3.4424872
-76.870514 45.584629 3.3100662
-76.870514 45.584614 3.1776452
-76.870514 45.584599 3.0452242
-76.870514 45.584583 2.9128032
-76.870514 45.584568 2.7803822
-76.870514 45.584553 2.6479611
-76.870514 45.584538 2.5155401
-76.870514 45.584522 2.3831191
-76.870514 45.584507 2.2506981
-76.870514 45.584492 2.1182771
-76.870514 45.584476 1.9858561
-76.870514 45.584461 1.853435
-76.870514 45.584446 1.721014
-76.870514 45.584431 1.588593
-76.870514 45.584415 1.456172
-76.870514 45.5844 1.323751
-76.870514 45.584385 1.19133
-76.870514 45.58437 1.0589089
-76.870514 45.584354 0.92648798
-76.870514 45.584339 0.79406703
-76.795227 45.591354 33.89933
-76.795227 45.591339 33.766911
-76.795227 45.591324 33.634491
-76.795227 45.591309 33.502071
-76.795227 45.591293 33.369652
-76.795227 45.591278 33.237232
-76.795227 45.591263 33.104813
-76.795227 45.591248 32.972393
-76.795227 45.591232 32.839973
-76.795227 45.591217 32.707554
-76.795227 45.591202 32.575134
-76.795227 45.591187 32.442715
-76.795227 45.591171 32.310295
-76.795227 45.591156 32.177876
-76.795227 45.591141 32.045456
-76.795227 45.591125 31.913034
-76.795227 45.59111 31.780613
-76.795227 45.591095 31.648191
-76.795227 45.59108 31.51577
-76.795227 45.591064 31.383348
-76.795227 45.591049 31.250927
-76.795227 45.591034 31.118505
-76.795227 45.591019 30.986084
-76.795227 45.591003 30.853662
-76.795227 45.590988 30.721241
-76.795227 45.590973 30.58882
-76.795227 45.590958 30.456398
-76.795227 45.590942 30.323977
-76.795227 45.590927 30.191555
-76.795227 45.590912 30.059134
-76.795227 45.590897 29.926712
-76.795227 45.590881 29.794291
-76.795227 45.590866 29.661869
-76.795227 45.590851 29.529448
-76.795227 45.590836 29.397026
-76.795227 45.59082 29.264605
-76.795227 45.590805 29.132183
-76.795227 45.59079 28.999762
-76.795227 45.590775 28.86734
-76.795227 45.590759 28.734919
-76.795227 45.590744 28.602497
-76.795227 45.590729 28.470076
-76.795227 45.590714 28.337654
-76.795227 45.590698 28.205233
-76.795227 45.590683 28.072811
-76.795227 45.590668 27.94039
-76.795227 45.590652 27.807968
-76.795227 45.590637 27.675547
-76.795227 45.590622 27.543125
-76.795227 45.590607 27.410704
-76.795227 45.590591 27.278282
-76.795227 45.590576 27.145861
-76.795227 45.590561 27.013439
-76.795227 45.590546 26.881018
-76.795227 45.59053 26.748596
-76.795227 45.590515 26.616175
-76.795227 45.5905 26.483753
-76.795227 45.590485 26.351332
-76.795227 45.590469 26.21891
-76.795227 45.590454 26.086489
-76.795227 45.590439 25.954067
-76.795227 45.590424 25.821646
-76.795227 45.590408 25.689224
-76.795227 45.590393 25.556803
-76.795227 45.590378 25.424381
-76.795227 45.590363 25.29196
-76.795227 45.590347 25.159538
-76.795227 45.590332 25.027117
-76.795227 45.590317 24.894695
-76.795227 45.590302 24.762274
-76.795227 45.590286 24.629852
-76.795227 45.590271 24.497431
-76.795227 45.590256 24.365009
-76.795227 45.59024 24.232588
-76.795227 45.590225 24.100166
-76.795227 45.59021 23.967745
-76.795227 45.590195 23.835323
-76.795227 45.590179 23.702902
-76.795227 45.590164 23.57048
-76.795227 45.590149 23.438059
-76.795227 45.590134 23.305637
-76.795227 45.590118 23.173216
-76.795227 45.590103 23.040794
-76.795227 45.590088 22.908373
-76.795227 45.590073 22.775951
-76.795227 45.590057 22.64353
-76.795227 45.590042 22.511108
-76.795227 45.590027 22.378687
-76.795227 45.590012 22.246265
-76.795227 45.589996 22.113844
-76.795227 45.589981 21.981422
-76.795227 45.589966 21.849001
-76.795227 45.589951 21.716579
-76.795227 45.589935 21.584158
-76.795227 45.58992 21.451736
-76.795227 45.589905 21.319315
-76.795227 45.58989 21.186893
-76.795227 45.589874 21.054472
-76.795227 45.589859 20.92205
-76.795227 45.589844 20.789629
-76.795227 45.589828 20.657207
-76.795227 45.589813 20.524786
-76.795227 45.589798 20.392365
-76.795227 45.589783 20.259943
-76.795227 45.589767 20.127522
-76.795227 45.589752 19.9951
-76.795227 45.589737 19.862679
-76.795227 45.589722 19.730257
-76.795227 45.589706 19.597836
-76.795227 45.589691 19.465414
-76.795227 45.589676 19.332993
-76.795227 45.589661 19.200571
-76.795227 45.589645 19.06815
-76.795227 45.58963 18.935728
-76.795227 45.589615 18.803307
-76.795227 45.5896 18.670885
-76.795227 45.589584 18.538464
-76.795227 45.589569 18.406042
-76.795227 45.589554 18.273621
-76.795227 45.589539 18.141199
-76.795227 45.589523 18.008778
-76.795227 45.589508 17.876356
-76.795227 45.589493 17.743935
-76.795227 45.589478 17.611513
-76.795227 45.589462 17.479092
-76.795227 45.589447 17.34667
-76.795227 45.589432 17.214249
-76.795227 45.589417 17.081827
-76.795227 45.589401 16.949406
-76.795227 45.589386 16.816984
-76.795227 45.589371 16.684563
-76.795227 45.589355 16.552141
-76.795227 45.58934 16.41972
-76.795227 45.589325 16.287298
-76.795227 45.58931 16.154877
-76.795227 45.589294 16.022455
-76.795227 45.589279 15.890035
-76.795227 45.589264 15.757614
-76.795227 45.589249 15.625194
-76.795227 45.589233 15.492773
-76.795227 45.589218 15.360353
-76.795227 45.589203 15.227932
-76.795227 45.589188 15.095511
-76.795227 45.589172 14.963091
-76.795227 45.589157 14.83067
-76.795227 45.589142 14.69825
-76.795227 45.589127 14.565829
-76.795227 45.589111 14.433409
-76.795227 45.589096 14.300988
-76.795227 45.589081 14.168568
-76.795227 45.589066 14.036147
-76.795227 45.58905 13.903727
-76.795227 45.589035 13.771306
-76.795227 45.58902 13.638885
-76.795227 45.589005 13.506465
-76.795227 45.588989 13.374044
-76.795227 45.588974 13.241624
-76.795227 45.588959 13.109203
-76.795227 45.588943 12.976783
-76.795227 45.588928 12.844362
-76.795227 45.588913 12.711942
-76.795227 45.588898 12.579521
-76.795227 45.588882 12.447101
-76.795227 45.588867 12.31468
-76.795227 45.588852 12.18226
-76.795227 45.588837 12.049839
-76.795227 45.588821 11.917418
-76.795227 45.588806 11.784998
-76.795227 45.588791 11.652577
-76.795227 45.588776 11.520157
-76.795227 45.58876 11.387736
-76.795227 45.588745 11.255316
-76.795227 45.58873 11.122895
-76.795227 45.588715 10.990475
-76.795227 45.588699 10.858054
-76.795227 45.588684 10.725634
-76.795227 45.588669 10.593213
-76.795227 45.588654 10.460793
-76.795227 45.588638 10.328372
-76.795227 45.588623 10.195951
-76.795227 45.588608 10.063531
-76.795227 45.588593 9.9311104
-76.795227 45.588577 9.7986898
-76.795227 45.588562 9.6662693
-76.795227 45.588547 9.5338488
-76.795227 45.588531 9.4014282
-76.795227 45.588516 9.2690077
-76.795227 45.588501 9.1365871
-76.795227 45.588486 9.0041666
-76.795227 45.58847 8.8717461
-76.795227 45.588455 8.7393255
-76.795227 45.58844 8.606905
-76.795227 45.588425 8.4744844
-76.795227 45.588409 8.3420639
-76.795227 45.588394 8.2096434
-76.795227 45.588379 8.0772228
-76.795227 45.588364 7.9448018
-76.795227 45.588348 7.8123808
-76.795227 45.588333 7.6799598
-76.795227 45.588318 7.5475388
-76.795227 45.588303 7.4151177
-76.795227 45.588287 7.2826967
-76.795227 45.588272 7.1502757
-76.795227 45.588257 7.0178547
-76.795227 45.588242 6.8854337
-76.795227 45.588226 6.7530127
-76.795227 45.588211 6.6205916
-76.795227 45.588196 6.4881706
-76.795227 45.588181 6.3557496
-76.795227 45.588165 6.2233286
-76.795227 45.58815 6.0909076
-76.795227 45.588135 5.9584866
-76.795227 45.58812 5.8260655
-76.795227 45.588104 5.6936445
-76.795227 45.588089 5.5612235
-76.795227 45.588074 5.4288025
-76.795227 45.588058 5.2963815
-76.795227 45.588043 5.1639605
-76.795227 45.588028 5.0315394
-76.795227 45.588013 4.8991184
-76.795227 45.587997 4.7666974
-76.795227 45.587982 4.6342764
-76.795227 45.587967 4.5018554
-76.795227 45.587952 4.3694344
-76.795227 45.587936 4.2370133
-76.795227 45.587921 4.1045923
-76.795227 45.587906 3.9721713
-76.795227 45.587891 3.8397503
-76.795227 45.587875 3.7073293
-76.795227 45.58786 3.5749083
-76.795227 45.587845 3.4424872
-76.795227 45.58783 3.3100662
-76.795227 45.587814 3.1776452
-76.795227 45.587799 3.0452242
-76.795227 45.587784 2.9128032
-76.795227 45.587769 2.7803822
-76.795227 45.587753 2.6479611
-76.795227 45.587738 2.5155401
-76.795227 45.587723 2.3831191
-76.795227 45.587708 2.2506981
-76.795227 45.587692 2.1182771
-76.795227 45.587677 1.9858561
-76.795227 45.587662 1.853435
-76.795227 45.587646 1.721014
-76.795227 45.587631 1.588593
-76.795227 45.587616 1.456172
-76.795227 45.587601 1.323751
-76.795227 45.587585 1.19133
-76.795227 45.58757 1.0589089
-76.795227 45.587555 0.92648798
-76.795227 45.58754 0.79406703
-76.71994 45.594555 33.89933
-76.71994 45.59454 33.766911
-76.71994 45.594524 33.634491
-76.71994 45.594509 33.502071
-76.71994 45.594494 33.369652
-76.71994 45.594479 33.237232
-76.71994 45.594463 33.104813
-76.71994 45.594448 32.972393
-76.71994 45.594433 32.839973
-76.71994 45.594418 32.707554
-76.71994 45.594402 32.575134
-76.71994 45.594387 32.442715
-76.71994 45.594372 32.310295
-76.71994 45.594357 32.177876
-76.71994 45.594341 32.045456
-76.71994 45.594326 31.913034
-76.71994 45.594311 31.780613
-76.71994 45.594296 31.648191
-76.71994 45.59428 31.51577
-76.71994 45.594265 31.383348
-76.71994 45.59425 31.250927
-76.71994 45.594234 31.118505
-76.71994 45.594219 30.986084
-76.71994 45.594204 30.853662
-76.71994 45.594189 30.721241
-76.71994 45.594173 30.58882
-76.71994 45.594158 30.456398
-76.71994 45.594143 30.323977
-76.71994 45.594128 30.191555
-76.71994 45.594112 30.059134
-76.71994 45.594097 29.926712
-76.71994 45.594082 29.794291
-76.71994 45.594067 29.661869
-76.71994 45.594051 29.529448
-76.71994 45.594036 29.397026
-76.71994 45.594021 29.264605
-76.71994 45.594006 29.132183
-76.71994 45.59399 28.999762
-76.71994 45.593975 28.86734
-76.71994 45.59396 28.734919
-76.71994 45.593945 28.602497
-76.71994 45.593929 28.470076
-76.71994 45.593914 28.337654
-76.71994 45.593899 28.205233
-76.71994 45.593884 28.072811
-76.71994 45.593868 27.94039
-76.71994 45.593853 27.807968
-76.71994 45.593838 27.675547
-76.71994 45.593822 27.543125
-76.71994 45.593807 27.410704
-76.71994 45.593792 27.278282
-76.71994 45.593777 27.145861
-76.71994 45.593761 27.013439
-76.71994 45.593746 26.881018
-76.71994 45.593731 26.748596
-76.71994 45.593716 26.616175
-76.71994 45.5937 26.483753
-76.71994 45.593685 26.351332
-76.71994 45.59367 26.21891
-76.71994 45.593655 26.086489
-76.71994 45.593639 25.954067
-76.71994 45.593624 25.821646
-76.71994 45.593609 25.689224
-76.71994 45.593594 25.556803
-76.71994 45.593578 25.424381
-76.71994 45.593563 25.29196
-76.71994 45.593548 25.159538
-76.71994 45.593533 25.027117
-76.71994 45.593517 24.894695
-76.71994 45.593502 24.762274
-76.71994 45.593487 24.629852
-76.71994 45.593472 24.497431
-76.71994 45.593456 24.365009
-76.71994 45.593441 24.232588
-76.71994 45.593426 24.100166
-76.71994 45.59341 23.967745
-76.71994 45.593395 23.835323
-76.71994 45.59338 23.702902
-76.71994 45.593365 23.57048
-76.71994 45.593349 23.438059
-76.71994 45.593334 23.305637
-76.71994 45.593319 23.173216
-76.71994 45.593304 23.040794
-76.71994 45.593288 22.908373
-76.71994 45.593273 22.775951
-76.71994 45.593258 22.64353
-76.71994 45.593243 22.511108
-76.71994 45.593227 22.378687
-76.71994 45.593212 22.246265
-76.71994 45.593197 22.113844
-76.71994 45.593182 21.981422
-76.71994 45.593166 21.849001
-76.71994 45.593151 21.716579
-76.71994 45.593136 21.584158
-76.71994 45.593121 21.451736
-76.71994 45.593105 21.319315
-76.71994 45.59309 21.186893
-76.71994 45.593075 21.054472
-76.71994 45.59306 20.92205
-76.71994 45.593044 20.789629
-76.71994 45.593029 20.657207
-76.71994 45.593014 20.524786
-76.71994 45.592999 20.392365
-76.71994 45.592983 20.259943
-76.71994 45.592968 20.127522
-76.71994 45.592953 19.9951
-76.71994 45.592937 19.862679
-76.71994 45.592922 19.730257
-76.71994 45.592907 19.597836
-76.71994 45.592892 19.465414
-76.71994 45.592876 19.332993
-76.71994 45.592861 19.200571
-76.71994 45.592846 19.06815
-76.71994 45.592831 18.935728
-76.71994 45.592815 18.803307
-76.71994 45.5928 18.670885
-76.71994 45.592785 18.538464
-76.71994 45.59277 18.406042
-76.71994 45.592754 18.273621
-76.71994 45.592739 18.141199
-76.71994 45.592724 18.008778
-76.71994 45.592709 17.876356
-76.71994 45.592693 17.743935
-76.71994 45.592678 17.611513
-76.71994 45.592663 17.479092
-76.71994 45.592648 17.34667
-76.71994 45.592632 17.214249
-76.71994 45.592617 17.081827
-76.71994 45.592602 16.949406
-76.71994 45.592587 16.816984
-76.71994 45.592571 16.684563
-76.71994 45.592556 16.552141
-76.71994 45.592541 16.41972
-76.71994 45.592525 16.287298
-76.71994 45.59251 16.154877
-76.71994 45.592495 16.022455
-76.71994 45.59248 15.890035
-76.71994 45.592464 15.757614
-76.71994 45.592449 15.625194
-76.71994 45.592434 15.492773
-76.71994 45.592419 15.360353
-76.71994 45.592403 15.227932
-76.71994 45.592388 15.095511
-76.71994 45.592373 14.963091
-76.71994 45.592358 14.83067
-76.71994 45.592342 14.69825
-76.71994 45.592327 14.565829
-76.71994 45.592312 14.433409
-76.71994 45.592297 14.300988
-76.71994 45.592281 14.168568
-76.71994 45.592266 14.036147
-76.71994 45.592251 13.903727
-76.71994 45.592236 13.771306
-76.71994 45.59222 13.638885
-76.71994 45.592205 13.506465
-76.71994 45.59219 13.374044
-76.71994 45.592175 13.241624
-76.71994 45.592159 13.109203
-76.71994 45.592144 12.976783
-76.71994 45.592129 12.844362
-76.71994 45.592113 12.711942
-76.71994 45.592098 12.579521
-76.71994 45.592083 12.447101
-76.71994 45.592068 12.31468
-76.71994 45.592052 12.18226
-76.71994 45.592037 12.049839
-76.71994 45.592022 11.917418
-76.71994 45.592007 11.784998
-76.71994 45.591991 11.652577
-76.71994 45.591976 11.520157
-76.71994 45.591961 11.387736
-76.71994 45.591946 11.255316
-76.71994 45.59193 11.122895
-76.71994 45.591915 10.990475
-76.71994 45.5919 10.858054
-76.71994 45.591885 10.725634
-76.71994 45.591869 10.593213
-76.71994 45.591854 10.460793
-76.71994 45.591839 10.328372
-76.71994 45.591824 10.195951
-76.71994 45.591808 10.063531
-76.71994 45.591793 9.9311104
-76.71994 45.591778 9.7986898
-76.71994 45.591763 9.6662693
-76.71994 45.591747 9.5338488
-76.71994 45.591732 9.4014282
-76.71994 45.591717 9.2690077
-76.71994 45.591702 9.1365871
-76.71994 45.591686 9.0041666
-76.71994 45.591671 8.8717461
-76.71994 45.591656 8.7393255
-76.71994 45.59164 8.606905
-76.71994 45.591625 8.4744844
-76.71994 45.59161 8.3420639
-76.71994 45.591595 8.2096434
-76.71994 45.591579 8.0772228
-76.71994 45.591564 7.9448018
-76.71994 45.591549 7.8123808
-76.71994 45.591534 7.6799598
-76.71994 45.591518 7.5475388
-76.71994 45.591503 7.4151177
-76.71994 45.591488 7.2826967
-76.71994 45.591473 7.1502757
-76.71994 45.591457 7.0178547
-76.71994 45.591442 6.8854337
-76.71994 45.591427 6.7530127
-76.71994 45.591412 6.6205916
-76.71994 45.591396 6.4881706
-76.71994 45.591381 6.3557496
-76.71994 45.591366 6.2233286
-76.71994 45.591351 6.0909076
-76.71994 45.591335 5.9584866
-76.71994 45.59132 5.8260655
-76.71994 45.591305 5.6936445
-76.71994 45.59129 5.5612235
-76.71994 45.591274 5.4288025
-76.71994 45.591259 5.2963815
-76.71994 45.591244 5.1639605
-76.71994 45.591228 5.0315394
-76.71994 45.591213 4.8991184
-76.71994 45.591198 4.7666974
-76.71994 45.591183 4.6342764
-76.71994 45.591167 4.5018554
-76.71994 45.591152 4.3694344
-76.71994 45.591137 4.2370133
-76.71994 45.591122 4.1045923
-76.71994 45.591106 3.9721713
-76.71994 45.591091 3.8397503
-76.71994 45.591076 3.7073293
-76.71994 45.591061 3.5749083
-76.71994 45.591045 3.4424872
-76.71994 45.59103 3.3100662
-76.71994 45.591015 3.1776452
-76.71994 45.591 3.0452242
-76.71994 45.590984 2.9128032
-76.71994 45.590969 2.7803822
-76.71994 45.590954 2.6479611
-76.71994 45.590939 2.5155401
-76.71994 45.590923 2.3831191
-76.71994 45.590908 2.2506981
-76.71994 45.590893 2.1182771
-76.71994 45.590878 1.9858561
-76.71994 45.590862 1.853435
-76.71994 45.590847 1.721014
-76.71994 45.590832 1.588593
-76.71994 45.590816 1.456172
-76.71994 45.590801 1.323751
-76.71994 45.590786 1.19133
-76.71994 45.590771 1.0589089
-76.71994 45.590755 0.92648798
-76.71994 45.59074 0.79406703
-76.644653 45.597755 33.89933
-76.644653 45.59774 33.766911
-76.644653 45.597725 33.634491
-76.644653 45.59771 33.502071
-76.644653 45.597694 33.369652
-76.644653 45.597679 33.237232
-76.644653 45.597664 33.104813
-76.644653 45.597649 32.972393
-76.644653 45.597633 32.839973
-76.644653 45.597618 32.707554
-76.644653 45.597603 32.575134
-76.644653 45.597588 32.442715
-76.644653 45.597572 32.310295
-76.644653 45.597557 32.177876
-76.644653 45.597542 32.045456
-76.644653 45.597527 31.913034
-76.644653 45.597511 31.780613
-76.644653 45.597496 31.648191
-76.644653 45.597481 31.51577
-76.644653 45.597466 31.383348
-76.644653 45.59745 31.250927
-76.644653 45.597435 31.118505
-76.644653 45.59742 30.986084
-76.644653 45.597404 30.853662
-76.644653 45.597389 30.721241
-76.644653 45.597374 30.58882
-76.644653 45.597359 30.456398
-76.644653 45.597343 30.323977
-76.644653 45.597328 30.191555
-76.644653 45.597313 30.059134
-76.644653 45.597298 29.926712
-76.644653 45.597282 29.794291
-76.644653 45.597267 29.661869
-76.644653 45.597252 29.529448
-76.644653 45.597237 29.397026
-76.644653 45.597221 29.264605
-76.644653 45.597206 29.132183
-76.644653 45.597191 28.999762
-76.644653 45.597176 28.86734
-76.644653 45.59716 28.734919
-76.644653 45.597145 28.602497
-76.644653 45.59713 28.470076
-76.644653 45.597115 28.337654
-76.644653 45.597099 28.205233
-76.644653 45.597084 28.072811
-76.644653 45.597069 27.94039
-76.644653 45.597054 27.807968
-76.644653 45.597038 27.675547
-76.644653 45.597023 27.543125
-76.644653 45.597008 27.410704
-76.644653 45.596992 27.278282
-76.644653 45.596977 27.145861
-76.644653 45.596962 27.013439
-76.644653 45.596947 26.881018
-76.644653 45.596931 26.748596
-76.644653 45.596916 26.616175
-76.644653 45.596901 26.483753
-76.644653 45.596886 26.351332
-76.644653 45.59687 26.21891
-76.644653 45.596855 26.086489
-76.644653 45.59684 25.954067
-76.644653 45.596825 25.821646
-76.644653 45.596809 25.689224
-76.644653 45.596794 25.556803
-76.644653 45.596779 25.424381
-76.644653 45.596764 25.29196
-76.644653 45.596748 25.159538
-76.644653 45.596733 25.027117
-76.644653 45.596718 24.894695
-76.644653 45.596703 24.762274
-76.644653 45.596687 24.629852
-76.644653 45.596672 24.497431
-76.644653 45.596657 24.365009
-76.644653 45.596642 24.232588
-76.644653 45.596626 24.100166
-76.644653 45.596611 23.967745
-76.644653 45.596596 23.835323
-76.644653 45.596581 23.702902
-76.644653 45.596565 23.57048
-76.644653 45.59655 23.438059
-76.644653 45.596535 23.305637
-76.644653 45.596519 23.173216
-76.644653 45.596504 23.040794
-76.644653 45.596489 22.908373
-76.644653 45.596474 22.775951
-76.644653 45.596458 22.64353
-76.644653 45.596443 22.511108
-76.644653 45.596428 22.378687
-76.644653 45.596413 22.246265
-76.644653 45.596397 22.113844
-76.644653 45.596382 21.981422
-76.644653 45.596367 21.849001
-76.644653 45.596352 21.716579
-76.644653 45.596336 21.584158
-76.644653 45.596321 21.451736
-76.644653 45.596306 21.319315
-76.644653 45.596291 21.186893
-76.644653 45.596275 21.054472
-76.644653 45.59626 20.92205
-76.644653 45.596245 20.789629
-76.644653 45.59623 20.657207
-76.644653 45.596214 20.524786
-76.644653 45.596199 20.392365
-76.644653 45.596184 20.259943
-76.644653 45.596169 20.127522
-76.644653 45.596153 19.9951
-76.644653 45.596138 19.862679
-76.644653 45.596123 19.730257
-76.644653 45.596107 19.597836
-76.644653 45.596092 19.465414
-76.644653 45.596077 19.332993
-76.644653 45.596062 19.200571
-76.644653 45.596046 19.06815
-76.644653 45.596031 18.935728
-76.644653 45.596016 18.803307
-76.644653 45.596001 18.670885
-76.644653 45.595985 18.538464
-76.644653 45.59597 18.406042
-76.644653 45.595955 18.273621
-76.644653 45.59594 18.141199
-76.644653 45.595924 18.008778
-76.644653 45.595909 17.876356
-76.644653 45.595894 17.743935
-76.644653 45.595879 17.611513
-76.644653 45.595863 17.479092
-76.644653 45.595848 17.34667
-76.644653 45.595833 17.214249
-76.644653 45.595818 17.081827
-76.644653 45.595802 16.949406
-76.644653 45.595787 16.816984
-76.644653 45.595772 16.684563
-76.644653 45.595757 16.552141
-76.644653 45.595741 16.41972
-76.644653 45.595726 16.287298
-76.644653 45.595711 16.154877
-76.644653 45.595695 16.022455
-76.644653 45.59568 15.890035
-76.644653 45.595665 15.757614
-76.644653 45.59565 15.625194
-76.644653 45.595634 15.492773
-76.644653 45.595619 15.360353
-76.644653 45.595604 15.227932
-76.644653 45.595589 15.095511
-76.644653 45.595573 14.963091
-76.644653 45.595558 14.83067
-76.644653 45.595543 14.69825
-76.644653 45.595528 14.565829
-76.644653 45.595512 14.433409
-76.644653 45.595497 14.300988
-76.644653 45.595482 14.168568
-76.644653 45.595467 14.036147
-76.644653 45.595451 13.903727
-76.644653 45.595436 13.771306
-76.644653 45.595421 13.638885
-76.644653 45.595406 13.506465
-76.644653 45.59539 13.374044
-76.644653 45.595375 13.241624
-76.644653 45.59536 13.109203
-76.644653 45.595345 12.976783
-76.644653 45.595329 12.844362
-76.644653 45.595314 12.711942
-76.644653 45.595299 12.579521
-76.644653 45.595284 12.447101
-76.644653 45.595268 12.31468
-76.644653 45.595253 12.18226
-76.644653 45.595238 12.049839
-76.644653 45.595222 11.917418
-76.644653 45.595207 11.784998
-76.644653 45.595192 11.652577
-76.644653 45.595177 11.520157
-76.644653 45.595161 11.387736
-76.644653 45.595146 11.255316
-76.644653 45.595131 11.122895
-76.644653 45.595116 10.990475
-76.644653 45.5951 10.858054
-76.644653 45.595085 10.725634
-76.644653 45.59507 10.593213
-76.644653 45.595055 10.460793
-76.644653 45.595039 10.328372
-76.644653 45.595024 10.195951
-76.644653 45.595009 10.063531
-76.644653 45.594994 9.9311104
-76.644653 45.594978 9.7986898
-76.644653 45.594963 9.6662693
-76.644653 45.594948 9.5338488
-76.644653 45.594933 9.4014282
-76.644653 45.594917 9.2690077
-76.644653 45.594902 9.1365871
-76.644653 45.594887 9.0041666
-76.644653 45.594872 8.8717461
-76.644653 45.594856 8.7393255
-76.644653 45.594841 8.606905
-76.644653 45.594826 8.4744844
-76.644653 45.59481 8.3420639
-76.644653 45.594795 8.2096434
-76.644653 45.59478 8.0772228
-76.644653 45.594765 7.9448018
-76.644653 45.594749 7.8123808
-76.644653 45.594734 7.6799598
-76.644653 45.594719 7.5475388
-76.644653 45.594704 7.4151177
-76.644653 45.594688 7.2826967
-76.644653 45.594673 7.1502757
-76.644653 45.594658 7.0178547
-76.644653 45.594643 6.8854337
-76.644653 45.594627 6.7530127
-76.644653 45.594612 6.6205916
-76.644653 45.594597 6.4881706
-76.644653 45.594582 6.3557496
-76.644653 45.594566 6.2233286
-76.644653 45.594551 6.0909076
-76.644653 45.594536 5.9584866
-76.644653 45.594521 5.8260655
-76.644653 45.594505 5.6936445
-76.644653 45.59449 5.5612235
-76.644653 45.594475 5.4288025
-76.644653 45.59446 5.2963815
-76.644653 45.594444 5.1639605
-76.644653 45.594429 5.0315394
-76.644653 45.594414 4.8991184
-76.644653 45.594398 4.7666974
-76.644653 45.594383 4.6342764
-76.644653 45.594368 4.5018554
-76.644653 45.594353 4.3694344
-76.644653 45.594337 4.2370133
-76.644653 45.594322 4.1045923
-76.644653 45.594307 3.9721713
-76.644653 45.594292 3.8397503
-76.644653 45.594276 3.7073293
-76.644653 45.594261 3.5749083
-76.644653 45.594246 3.4424872
-76.644653 45.594231 3.3100662
-76.644653 45.594215 3.1776452
-76.644653 45.5942 3.0452242
-76.644653 45.594185 2.9128032
-76.644653 45.59417 2.7803822
-76.644653 45.594154 2.6479611
-76.644653 45.594139 2.5155401
-76.644653 45.594124 2.3831191
-76.644653 45.594109 2.2506981
-76.644653 45.594093 2.1182771
-76.644653 45.594078 1.9858561
-76.644653 45.594063 1.853435
-76.644653 45.594048 1.721014
-76.644653 45.594032 1.588593
-76.644653 45.594017 1.456172
-76.644653 45.594002 1.323751
-76.644653 45.593987 1.19133
-76.644653 45.593971 1.0589089
-76.644653 45.593956 0.92648798
-76.644653 45.593941 0.79406703
-76.569366 45.600956 33.89933
-76.569366 45.600941 33.766911
-76.569366 45.600925 33.634491
-76.569366 45.60091 33.502071
-76.569366 45.600895 33.369652
-76.569366 45.60088 33.237232
-76.569366 45.600864 33.104813
-76.569366 45.600849 32.972393
-76.569366 45.600834 32.839973
-76.569366 45.600819 32.707554
-76.569366 45.600803 32.575134
-76.569366 45.600788 32.442715
-76.569366 45.600773 32.310295
-76.569366 45.600758 32.177876
-76.569366 45.600742 32.045456
-76.569366 45.600727 31.913034
-76.569366 45.600712 31.780613
-76.569366 45.600697 31.648191
-76.569366 45.600681 31.51577
-76.569366 45.600666 31.383348
-76.569366 45.600651 31.250927
-76.569366 45.600636 31.118505
-76.569366 45.60062 30.986084
-76.569366 45.600605 30.853662
-76.569366 45.60059 30.721241
-76.569366 45.600574 30.58882
-76.569366 45.600559 30.456398
-76.569366 45.600544 30.323977
-76.569366 45.600529 30.191555
-76.569366 45.600513 30.059134
-76.569366 45.600498 29.926712
-76.569366 45.600483 29.794291
-76.569366 45.600468 29.661869
-76.569366 45.600452 29.529448
-76.569366 45.600437 29.397026
-76.569366 45.600422 29.264605
-76.569366 45.600407 29.132183
-76.569366 45.600391 28.999762
-76.569366 45.600376 28.86734
-76.569366 45.600361 28.734919
-76.569366 45.600346 28.602497
-76.569366 45.60033 28.470076
-76.569366 45.600315 28.337654
-76.569366 45.6003 28.205233
-76.569366 45.600285 28.072811
-76.569366 45.600269 27.94039
-76.569366 45.600254 27.807968
-76.569366 45.600239 27.675547
-76.569366 45.600224 27.543125
-76.569366 45.600208 27.410704
-76.569366 45.600193 27.278282
-76.569366 45.600178 27.145861
-76.569366 45.600163 27.013439
-76.569366 45.600147 26.881018
-76.569366 45.600132 26.748596
-76.569366 45.600117 26.616175
-76.569366 45.600101 26.483753
-76.569366 45.600086 26.351332
-76.569366 45.600071 26.21891
-76.569366 45.600056 26.086489
-76.569366 45.60004 25.954067
-76.569366 45.600025 25.821646
-76.569366 45.60001 25.689224
-76.569366 45.599995 25.556803
-76.569366 45.599979 25.424381
-76.569366 45.599964 25.29196
-76.569366 45.599949 25.159538
-76.569366 45.599934 25.027117
-76.569366 45.599918 24.894695
-76.569366 45.599903 24.762274
-76.569366 45.599888 24.629852
-76.569366 45.599873 24.497431
-76.569366 45.599857 24.365009
-76.569366 45.599842 24.232588
-76.569366 45.599827 24.100166
-76.569366 45.599812 23.967745
-76.569366 45.599796 23.835323
-76.569366 45.599781 23.702902
-76.569366 45.599766 23.57048
-76.569366 45.599751 23.438059
-76.569366 45.599735 23.305637
-76.569366 45.59972 23.173216
-76.569366 45.599705 23.040794
-76.569366 45.599689 22.908373
-76.569366 45.599674 22.775951
-76.569366 45.599659 22.64353
-76.569366 45.599644 22.511108
-76.569366 45.599628 22.378687
-76.569366 45.599613 22.246265
-76.569366 45.599598 22.113844
-76.569366 45.599583 21.981422
-76.569366 45.599567 21.849001
-76.569366 45.599552 21.716579
-76.569366 45.599537 21.584158
-76.569366 45.599522 21.451736
-76.569366 45.599506 21.319315
-76.569366 45.599491 21.186893
-76.569366 45.599476 21.054472
-76.569366 45.599461 20.92205
-76.569366 45.599445 20.789629
-76.569366 45.59943 20.657207
-76.569366 45.599415 20.524786
-76.569366 45.5994 20.392365
-76.569366 45.599384 20.259943
-76.569366 45.599369 20.127522
-76.569366 45.599354 19.9951
-76.569366 45.599339 19.862679
-76.569366 45.599323 19.730257
-76.569366 45.599308 19.597836
-76.569366 45.599293 19.465414
-76.569366 45.599277 19.332993
-76.569366 45.599262 19.200571
-76.569366 45.599247 19.06815
-76.569366 45.599232 18.935728
-76.569366 45.599216 18.803307
-76.569366 45.599201 18.670885
-76.569366 45.599186 18.538464
-76.569366 45.599171 18.406042
-76.569366 45.599155 18.273621
-76.569366 45.59914 18.141199
-76.569366 45.599125 18.008778
-76.569366 45.59911 17.876356
-76.569366 45.599094 17.743935
-76.569366 45.599079 17.611513
-76.569366 45.599064 17.479092
-76.569366 45.599049 17.34667
-76.569366 45.599033 17.214249
-76.569366 45.599018 17.081827
-76.569366 45.599003 16.949406
-76.569366 45.598988 16.816984
-76.569366 45.598972 16.684563
-76.569366 45.598957 16.552141
-76.569366 45.598942 16.41972
-76.569366 45.598927 16.287298
-76.569366 45.598911 16.154877
