# .PCD v0.7 - Point Cloud Data file format
VERSION 0.7
FIELDS x y z
SIZE 4 4 4
TYPE F F F
COUNT 1 1 1
WIDTH 1558
HEIGHT 1
VIEWPOINT 0 0 0 1 0 0 0
POINTS 1558
DATA ascii
-71.038528 46.118057 10.592321
-71.024872 46.114716 10.386686
-71.011215 46.109386 10.181668
-70.998726 46.13065 9.9863443
-70.985825 46.140549 9.7882404
-70.97216 46.129436 9.5847712
-70.958138 46.10677 9.3792229
-70.945587 46.120617 9.1852951
-70.932304 46.113377 8.9863882
-70.920441 46.142948 8.7981291
-70.906792 46.122364 8.5976238
-70.893845 46.119308 8.4025955
-70.880898 46.114449 8.2080278
-70.868607 46.127293 8.0182934
-70.855965 46.128654 7.8266177
-70.843315 46.128262 7.6352801
-70.830658 46.126133 7.4442964
-70.817986 46.122265 7.2536821
-70.805313 46.116665 7.0634532
-70.793533 46.138912 6.8786244
-71.234062 46.145912 12.970885
-71.161804 46.141422 11.8784
-71.147285 46.132061 11.661383
-71.091377 46.119965 10.818514
-71.077713 46.118847 10.61195
-71.064049 46.115723 10.405983
-71.050774 46.120102 10.203738
-71.037109 46.113029 9.9989376
-71.023834 46.113529 9.7977314
-71.011307 46.131271 9.6027451
-70.997635 46.118408 9.3996258
-70.983978 46.1036 9.1972141
-70.972137 46.135098 9.0085611
-70.958122 46.106876 8.804677
-70.945534 46.115471 8.611475
-70.93293 46.122288 8.4185457
-70.918945 46.088406 8.2168293
-70.907669 46.130627 8.0335674
-70.894363 46.112614 7.8373547
-70.881386 46.10257 7.6438322
-70.869049 46.110355 7.4546895
-70.856064 46.096794 7.2620592
-70.844315 46.120827 7.0770125
-70.831924 46.123516 6.8885088
-71.22451 46.136787 12.323979
-71.195671 46.124905 11.887227
-71.168129 46.132183 11.464474
-71.153732 46.118671 11.248703
-71.140175 46.121761 11.040671
-71.126198 46.113415 10.82984
-71.113037 46.121868 10.626296
-71.099472 46.118904 10.419991
-71.085907 46.113945 10.2143
-71.073112 46.126045 10.015295
-71.060692 46.145821 9.8195515
-71.047112 46.135059 9.6153994
-71.033913 46.131939 9.414712
-71.02034 46.117298 9.2118711
-71.007866 46.129662 9.017581
-70.994293 46.111225 8.8159552
-70.981796 46.119949 8.6224108
-70.96859 46.107471 8.4244261
-70.956406 46.122337 8.23388
-70.943871 46.125729 8.0412827
-70.931313 46.127357 7.8490052
-70.917763 46.097866 7.6510158
-70.905525 46.105751 7.4616117
-70.893578 46.121754 7.27425
-70.880356 46.096725 7.0798917
-70.86837 46.109329 6.8929691
-71.200867 46.125294 11.47667
-71.173248 46.115147 11.052354
-71.160263 46.125755 10.84798
-71.133461 46.122154 10.434093
-71.120445 46.126842 10.23117
-71.10743 46.129597 10.028712
-71.093636 46.111328 9.8208494
-71.080612 46.110184 9.619545
-71.067581 46.107132 9.4187622
-71.054916 46.111801 9.2212124
-71.042603 46.124275 9.0266619
-71.029556 46.11562 8.8272953
-71.016861 46.114784 8.6309614
-71.004501 46.121834 8.4374247
-70.991791 46.117378 8.2419024
-70.979065 46.111118 8.0468512
-70.967339 46.13237 7.8585997
-70.954269 46.112782 7.6622701
-70.941849 46.110985 7.4704976
-70.9291 46.097626 7.277245
-70.918228 46.141529 7.0951147
-70.904526 46.095165 6.8974442
-71.236626 46.116814 11.492659
-71.169891 46.114532 10.448804
-71.157013 46.119385 10.245625
-71.143341 46.103256 10.036847
-71.131226 46.123283 9.8406801
-71.118317 46.122345 9.6389503
-71.105026 46.109901 9.4349566
-71.092857 46.124367 9.2397633
-71.079567 46.108097 9.0369453
-71.067009 46.109234 8.8399277
-71.054794 46.118229 8.6457787
-71.042557 46.125443 8.4518976
-71.02961 46.111416 8.2537479
-71.017006 46.105289 8.0584316
-71.004402 46.097359 7.8636031
-70.992119 46.097427 7.6713004
-70.979828 46.095741 7.4793482
-70.968163 46.111958 7.2914629
-70.9552 46.087143 7.0965562
-70.943184 46.090096 6.9074278
-71.288757 46.118492 11.727606
-71.262009 46.122723 11.304269
-71.248413 46.117031 11.091784
-71.234825 46.109241 10.880015
-71.221642 46.108803 10.672265
-71.209267 46.125278 10.47151
-71.195671 46.111382 10.261675
-71.182472 46.104954 10.055671
-71.170441 46.125183 9.8591747
-71.157234 46.114872 9.6542339
-71.144402 46.112194 9.4527645
-71.131195 46.097992 9.2491274
-71.119835 46.130062 9.0593061
-71.106621 46.112099 8.8567085
-71.093407 46.092209 8.6548672
-71.081619 46.109241 8.4632654
-71.06945 46.114811 8.2694969
-71.056923 46.10886 8.0738316
-71.044052 46.091331 7.8765411
-71.032516 46.111118 7.6880293
-71.019638 46.090004 7.4917607
-71.007408 46.08672 7.2999101
-70.995804 46.101364 7.111979
-70.984169 46.114338 6.9241009
-71.314339 46.126556 11.538418
-71.300362 46.113857 11.321375
-71.287224 46.117733 11.112093
-71.260513 46.109943 10.691908
-71.247765 46.117168 10.487621
-71.2342 46.103455 10.277529
-71.221832 46.116245 10.077353
-71.208664 46.108067 9.8715734
-71.195877 46.107479 9.6693325
-71.183464 46.114567 9.4703999
-71.17141 46.129417 9.2745409
-71.158958 46.132816 9.076273
-71.145401 46.105373 8.8707876
-71.133659 46.124397 8.6785021
-71.120468 46.10284 8.4768305
-71.107979 46.098835 8.2805214
-71.09584 46.102764 8.0868816
-71.084015 46.114693 7.8956738
-71.071495 46.105324 7.7005644
-71.058975 46.094158 7.5059724
-71.046768 46.091034 7.3137751
-71.034554 46.086159 7.1219563
-71.022957 46.099255 6.9339099
-71.290634 46.120049 10.502418
-71.276672 46.097019 10.288863
-71.264313 46.109947 10.08844
-71.251144 46.101906 9.8824072
-71.238365 46.101456 9.6799154
-71.225967 46.108677 9.480732
-71.21241 46.085182 9.2737827
-71.200363 46.098255 9.0782251
-71.187553 46.090202 8.8778143
-71.175468 46.099636 8.6829062
-71.163361 46.107285 8.4882622
-71.150528 46.093689 8.2893229
-71.13839 46.097736 8.0954285
-71.126579 46.109776 7.9039664
-71.113724 46.090733 7.7065635
-71.10154 46.089462 7.5137448
-71.08934 46.086441 7.3212881
-71.077454 46.091511 7.1309867
-71.065224 46.085018 6.9392166
-71.7938 46.187416 17.814711
-71.305214 46.09679 10.089017
-71.292854 46.10788 9.8887367
-71.279686 46.09795 9.683033
-71.267288 46.10524 9.4835968
-71.254112 46.091423 9.2791061
-71.242073 46.104584 9.08321
-71.229256 46.096611 8.8824625
-71.217178 46.106125 8.6872139
-71.204346 46.094433 8.4874849
-71.19223 46.100327 8.2929506
-71.180099 46.104439 8.0987148
-71.168289 46.116547 7.9069104
-71.155083 46.087784 7.7071338
-71.143242 46.096359 7.516005
-71.130043 46.063938 7.3176188
-71.119484 46.108356 7.1343355
-71.106918 46.092079 6.9404445
-71.788025 46.182934 17.009325
-71.771523 46.183979 16.747974
-71.754486 46.173592 16.482414
-71.4142 46.106274 11.124368
-71.401009 46.10833 10.914898
-71.374176 46.096889 10.494474
-71.348557 46.105831 10.08592
-71.335327 46.097839 9.8793945
-71.322884 46.107006 9.6792765
-71.30925 46.08551 9.4711409
-71.297165 46.100483 9.2746906
-71.284683 46.104 9.0758343
-71.272552 46.115334 8.8799143
-71.258911 46.086113 8.6744337
-71.246758 46.093765 8.4793644
-71.234581 46.099628 8.2845764
-71.222382 46.10371 8.0900869
-71.209465 46.086479 7.8916845
-71.197235 46.086979 7.6980095
-71.185333 46.09552 7.5066233
-71.173409 46.102337 7.3154283
-71.160789 46.087761 7.1208973
-71.14817 46.071407 6.9269314
-71.713676 46.171856 14.979695
-71.697449 46.159054 14.731482
-71.681236 46.143547 14.484392
-71.666519 46.152016 14.252135
-71.547691 46.115147 12.41396
-71.491516 46.105503 11.542056
-71.477684 46.102329 11.327669
-71.464287 46.106415 11.117417
-71.437027 46.099014 10.695296
-71.410591 46.102383 10.282083
-71.384521 46.107376 9.8739901
-71.371063 46.097397 9.6678123
-71.358009 46.095036 9.4651003
-71.34494 46.090759 9.2629204
-71.332245 46.094219 9.0639057
-71.320305 46.115158 8.8703547
-71.306824 46.095589 8.6670961
-71.29409 46.09351 8.4693346
-71.281708 46.099331 8.2743015
-71.268585 46.08387 8.075181
-71.256531 46.095863 7.8830385
-71.243744 46.086544 7.6870112
-71.230949 46.075428 7.4915018
-71.219856 46.111622 7.3057837
-71.206688 46.08717 7.1091647
-71.195183 46.110172 6.9216828
-71.71077 46.175278 14.026417
-71.679077 46.153297 13.551867
-71.664467 46.161152 13.326721
-71.64888 46.148548 13.093901
-71.633301 46.133511 12.862074
-71.617737 46.116055 12.631266
-71.603127 46.114571 12.409349
-71.546021 46.11425 11.540172
-71.531845 46.111107 11.325481
-71.517662 46.105843 11.111482
-71.503922 46.107876 10.901552
-71.489738 46.098431 10.688913
-71.475983 46.096371 10.480221
-71.448875 46.095722 10.067701
-71.435097 46.087662 9.8608017
-71.422546 46.106331 9.6631508
-71.408356 46.084785 9.4545689
-71.394966 46.080467 9.252244
-71.381966 46.083885 9.0530796
-71.36895 46.085449 8.8543167
-71.3563 46.094852 8.6584129
-71.343628 46.102463 8.4627752
-71.330933 46.10828 8.2674189
-71.318214 46.112309 8.0723619
-71.304756 46.09502 7.873414
-71.291649 46.08567 7.6771555
-71.279953 46.113739 7.4891424
-71.266121 46.081215 7.2899013
-71.25367 46.086189 7.0985956
-71.24086 46.07959 6.905838
-71.701843 46.167782 13.09516
-71.671524 46.16283 12.643785
-71.656593 46.161491 12.421249
-71.64167 46.157902 12.199458
-71.625343 46.12431 11.967159
-71.610893 46.125443 11.750844
-71.596436 46.124432 11.535178
-71.581978 46.121284 11.320182
-71.567062 46.106628 11.102445
-71.552605 46.099216 10.888933
-71.539459 46.118027 10.685963
-71.524559 46.097042 10.470502
-71.510521 46.092918 10.262187
-71.49691 46.09631 10.057521
-71.482857 46.088203 9.8503942
-71.469643 46.09726 9.6496429
-71.45681 46.114037 9.4520111
-71.442329 46.090492 9.2438269
-71.428665 46.08424 9.0417376
-71.41539 46.085751 8.8427382
-71.402481 46.095104 8.6465912
-71.389557 46.102661 8.4507113
-71.376228 46.09869 8.2528477
-71.362885 46.092892 8.0554533
-71.350273 46.104813 7.8627362
-71.337265 46.105206 7.6681695
-71.323174 46.074409 7.4681745
-71.311203 46.100689 7.2800956
-71.297798 46.085953 7.084866
-71.285416 46.098991 6.8952084
-71.674721 46.171764 11.978132
-71.659676 46.163734 11.757504
-71.629135 46.131695 11.315194
-71.615013 46.135796 11.103999
-71.600883 46.137844 10.893353
-71.585411 46.10952 10.673485
-71.571274 46.107403 10.464241
-71.557129 46.10326 10.255604
-71.542976 46.097111 10.047594
-71.528831 46.088955 9.84023
-71.514671 46.078812 9.6335306
-71.501762 46.09549 9.4358101
-71.488411 46.100719 9.2356071
-71.474632 46.094433 9.0331926
-71.46125 46.095913 8.8338604
-71.447853 46.095543 8.6349468
-71.434059 46.083614 8.4341249
-71.421021 46.089275 8.2384443
-71.40834 46.102901 8.0452385
-71.394508 46.085464 7.8459105
-71.381416 46.085754 7.6512642
-71.368309 46.084278 7.4569664
-71.35553 46.090858 7.2648668
-71.342384 46.085873 7.0712285
-71.329216 46.079132 6.8779864
-71.672043 46.159428 11.321083
-71.657509 46.154228 11.105968
-71.643883 46.165741 10.898248
-71.629776 46.165821 10.687671
-71.614784 46.144917 10.471329
-71.600243 46.131371 10.259017
-71.585701 46.115757 10.047498
-71.571167 46.098083 9.8367891
-71.557053 46.087944 9.6297569
-71.543777 46.095028 9.4289284
-71.530479 46.100235 9.2284679
-71.51635 46.084274 9.0232067
-71.503433 46.095379 8.8262091
-71.489296 46.075592 8.6221895
-71.477119 46.102451 8.4306431
-71.463737 46.098389 8.2322769
-71.449585 46.072983 8.0300407
-71.437317 46.094547 7.8390555
-71.423897 46.08503 7.6420636
-71.411201 46.093319 7.4494205
-71.396675 46.050755 7.2478271
-71.384659 46.075184 7.0595016
-71.37294 46.107803 6.8727164
-71.655602 46.152088 10.474414
-71.641182 46.138607 10.261765
-71.628075 46.151634 10.058931
-71.61322 46.124546 9.8447104
-71.600075 46.133667 9.6428537
-71.586075 46.121696 9.4358292
-71.572899 46.127003 9.2348547
-71.558464 46.101486 9.0264921
-71.544456 46.083641 8.8215427
-71.53125 46.083241 8.6221933
-71.518417 46.09071 8.4256172
-71.505562 46.096378 8.2293262
-71.491913 46.080742 8.0289993
-71.479019 46.08279 7.8334937
-71.465729 46.073265 7.6363244
-71.452423 46.061932 7.4396749
-71.439117 46.048794 7.2435613
-71.427597 46.083069 7.056705
-71.414955 46.086143 6.8645945
-71.658676 46.158833 9.8606567
-71.645142 46.158558 9.6553698
-71.631165 46.146744 9.4478397
-71.616768 46.123318 9.2383337
-71.604034 46.136475 9.0400782
-71.590858 46.138138 8.8395472
-71.577263 46.128246 8.6370125
-71.562859 46.097027 8.4304066
-71.550049 46.102779 8.2337723
-71.53643 46.087227 8.0331011
-71.523575 46.089355 7.8372517
-71.509949 46.070118 7.6377397
-71.497429 46.078457 7.444654
-71.484886 46.08506 7.2517619
-71.471588 46.070248 7.0555973
-71.459 46.073353 6.8633113
-71.631294 46.162979 9.0556192
-71.616905 46.14542 8.8496761
-71.60334 46.145294 8.6493292
-71.589752 46.143311 8.4494171
-71.575745 46.129745 8.2477036
-71.562523 46.133804 8.0509615
-71.548889 46.126297 7.8524532
-71.535629 46.126755 7.6564431
-71.521202 46.096004 7.4550476
-71.507538 46.083023 7.2581797
-71.494232 46.078087 7.0636024
-71.480186 46.051678 6.8661141
-71.432655 46.159184 7.9036784
-71.419029 46.149803 7.7050843
-71.405014 46.128788 7.5051064
-71.391754 46.125584 7.3094697
-71.378471 46.120605 7.1142135
-71.365166 46.113857 6.919354
-71.425217 46.153996 7.0874915
-71.411232 46.137207 6.8905144
-71.490112 46.064388 6.8151445
-71.531311 46.053272 6.8025627
-71.570999 46.04097 6.7954125
-71.612518 46.066498 6.8012824
-71.656433 46.079437 6.8181014
-71.702744 46.110115 6.8469362
-71.660072 46.120892 4.9435654
-71.645905 46.085159 4.7491388
-71.632408 46.067654 4.5566416
-71.619225 46.058437 4.3650675
-71.605682 46.037548 4.1733456
-71.592758 46.03495 3.9827278
-71.832977 46.0905 6.8799481
-71.716667 46.080929 5.1314263
-71.653786 46.103306 4.1734872
-71.640358 46.080769 3.9813342
-71.6269 46.056545 3.7896492
-71.613426 46.03064 3.5984466
-71.600861 46.033047 3.4079349
-71.760796 46.108238 5.1186604
-71.634323 46.11018 3.1992631
-71.620468 46.06916 3.0082448
-71.805817 46.116577 5.0976896
-71.653755 46.142921 2.7905977
-71.851875 46.14473 5.078805
-71.695587 46.10944 2.7668836
-73.906509 46.116611 33.274567
-73.868523 46.109264 32.721069
-73.890511 46.092052 32.250252
-73.245689 46.17831 19.907307
-73.272911 46.177124 19.958466
-73.785446 46.10215 27.541586
-73.773293 46.099113 26.768303
-73.836311 46.085972 27.223942
-73.783562 46.078239 25.621563
-73.626724 46.179047 22.107775
-73.606659 46.173962 21.769505
-73.609703 46.15266 21.126625
-73.63063 46.142876 20.830545
-73.614662 46.169605 20.534245
-72.8228 46.050739 6.8713055
-72.869881 46.043598 6.8754067
-73.594597 46.145699 18.739462
-73.578346 46.148548 18.450556
-73.642326 46.118252 18.722683
-73.627419 46.137543 18.444862
-72.965889 46.024036 6.8578281
-73.552193 46.144485 14.724234
-73.537056 46.128735 14.465734
-73.525116 46.155174 14.230058
-73.48365 46.147575 13.492847
-73.601814 46.06321 14.961626
-73.589592 46.085732 14.720395
-73.578598 46.123699 14.488508
-73.565552 46.132404 14.24385
-73.525314 46.134399 13.510227
-73.512619 46.142231 13.272716
-73.499855 46.147678 13.035869
-73.616402 46.059483 14.473463
-73.565582 46.097118 13.508396
-73.55172 46.086704 13.262842
-73.540367 46.110439 13.034027
-73.52829 46.122734 12.801721
-73.515495 46.123493 12.566187
-73.503906 46.140442 12.338782
-73.479218 46.149052 11.878223
-73.609993 46.051464 13.500392
-73.597466 46.059288 13.262952
-73.5868 46.092232 13.037993
-73.574112 46.095394 12.801666
-73.561348 46.096195 12.566051
-73.548515 46.094639 12.331169
-73.536247 46.100048 12.10066
-73.524544 46.112526 11.874304
-73.514023 46.141541 11.655328
-73.499641 46.112133 11.416296
-73.489586 46.146275 11.20146
-73.476334 46.131168 10.970636
-73.632301 46.036873 13.026958
-73.606926 46.04073 12.555333
-73.594772 46.048393 12.324309
-73.583824 46.072384 12.101112
-73.572159 46.084908 11.874673
-73.558495 46.067146 11.638349
-73.546677 46.075207 11.413127
-73.534782 46.081093 11.188423
-73.521561 46.065918 10.957845
-73.512024 46.10535 10.7469
-73.500526 46.114342 10.526749
-73.488953 46.121254 10.307031
-73.478539 46.14521 10.093514
-73.464973 46.119286 9.8661814
-73.454399 46.139198 9.6533775
-73.083458 46.114964 2.8269496
-73.568756 46.048286 10.960711
-73.557419 46.059345 10.740227
-73.546623 46.07782 10.523196
-73.5345 46.075207 10.300516
-73.523544 46.089588 10.084207
-73.511276 46.082787 9.8626184
-73.49955 46.083488 9.6443968
-73.488365 46.091778 9.4293089
-73.478317 46.117378 9.2196617
-73.468185 46.141087 9.0100565
-73.204994 46.021202 4.2323327
-73.197144 46.080299 4.0331697
-73.131424 46.068695 2.8234119
-73.570679 46.044983 10.073851
-73.558479 46.038124 9.8523436
-73.549316 46.077202 9.6450253
-73.536964 46.066269 9.4244366
-73.52578 46.072556 9.2096214
-73.513901 46.067184 8.992733
-73.502563 46.069489 8.77878
-73.49115 46.069824 8.5652428
-73.479065 46.058456 8.3499413
-73.469292 46.084122 8.1437187
-73.459435 46.107948 7.9374542
-73.449478 46.12994 7.7311654
-73.561707 46.033848 8.9787312
-73.552277 46.065151 8.7718668
-73.540314 46.05574 8.5557919
-73.529495 46.063797 8.3447113
-73.51799 46.060181 8.1318035
-73.507011 46.064388 7.921391
-73.495361 46.0569 7.7093563
-73.484238 46.057281 7.499681
-73.473618 46.065598 7.2921257
-73.463501 46.081898 7.0864496
-73.542374 46.02354 7.6924777
-73.533142 46.053238 7.4883409
-73.523811 46.081139 7.2840428
-73.510254 46.038353 7.067863
-75.764648 46.089806 24.147495
-75.745987 46.108215 23.793306
-75.724342 46.099533 23.421074
-75.706116 46.11676 23.076166
-75.660751 46.068954 22.333975
-75.839684 46.157673 23.420301
-75.731209 46.107204 21.633305
-75.708298 46.079254 21.277519
-75.688927 46.078831 20.947525
-75.66935 46.074493 20.618959
-75.609444 46.038231 19.642275
-75.955544 46.158531 23.76392
-75.931519 46.141747 23.384771
-75.717094 46.042728 19.936937
-75.708801 46.132881 19.686583
-75.688889 46.121712 19.368809
-75.671646 46.131695 19.069103
-75.650414 46.104969 18.748692
-75.614067 46.099289 18.150206
-76.022652 46.14159 23.763422
-76.001434 46.147606 23.403431
-75.78627 46.050194 19.952225
-75.778999 46.148697 19.707146
-75.723282 46.14637 18.784317
-76.08429 46.142448 23.789307
-76.061256 46.133511 23.416124
-76.041862 46.150547 23.070158
-76.018333 46.132557 22.700319
-75.848114 46.045513 19.968531
-75.841042 46.144184 19.723146
-76.147987 46.147678 23.811352
-76.123848 46.131546 23.431311
-76.105324 46.15659 23.091324
-75.90834 46.038815 19.974182
-75.846436 46.145088 18.809223
-75.554634 46.077442 14.057753
-75.539856 46.083103 13.80546
-75.472603 46.0158 12.777986
-75.460876 46.045631 12.545024
-75.443336 46.017513 12.290788
-75.352051 46.125252 11.034499
-75.319969 46.084373 10.554586
-75.307007 46.093731 10.326356
-75.292038 46.081863 10.092876
-75.278793 46.086895 9.8657055
-75.264488 46.080212 9.6363354
-75.250046 46.071369 9.4076309
-75.233643 46.041096 9.1745968
-75.22261 46.066551 8.957139
-75.205956 46.031967 8.7257032
-75.192825 46.033985 8.5043621
-75.180466 46.043694 8.285614
-75.16436 46.012466 8.0588064
-75.151726 46.018147 7.8409624
-75.138962 46.021854 7.6234274
-75.124275 46.004021 7.4025655
-75.348022 46.114643 9.8794794
-75.333588 46.108131 9.6495304
-75.319016 46.099449 9.4202433
-75.304306 46.088612 9.1916409
-75.290398 46.085289 8.9661627
-75.277275 46.08955 8.7435751
-75.262177 46.072372 8.5168886
-75.248779 46.072521 8.2952986
-75.234337 46.060905 8.0720682
-75.221588 46.066746 7.8534617
-75.205978 46.041294 7.6294289
-75.191162 46.02356 7.408061
-75.178009 46.023415 7.1908603
-75.164719 46.021317 6.9740205
-75.298897 46.089149 8.0849762
-75.284317 46.07563 7.8617759
-75.272354 46.089382 7.6449599
-75.256599 46.062035 7.4209924
-75.244354 46.071846 7.204844
-75.231964 46.079731 6.988884
-76.236595 46.145351 19.745596
-75.421959 46.048271 3.9093771
-75.403809 45.987484 3.6945169
-75.390923 45.984543 3.4822404
-75.425003 46.08625 2.8029349
-76.503723 46.095798 19.90696
-75.733513 46.107212 6.8671765
-75.487785 46.068226 2.7697587
-76.569977 46.079201 19.869932
-75.683319 45.990536 5.083292
-76.641464 46.102959 19.8447
-75.753014 46.05611 5.0447736
-76.956299 46.1479 23.963453
-76.707375 46.130119 19.816116
-76.999084 46.098976 23.866415
-76.760109 46.125992 19.764185
-76.271362 46.088894 11.519713
-77.048531 46.113312 23.817867
-76.329483 46.088615 11.470881
-75.812737 45.980602 2.7403262
-77.110695 46.140324 23.783339
-76.396614 46.115406 11.433287
-76.022583 46.043633 5.058857
-77.180267 46.12817 23.715626
-76.953537 46.073994 19.890036
-77.358147 46.038586 25.485416
-77.341492 46.080708 25.127939
-77.272186 46.067963 23.96501
-77.03318 46.091339 19.837297
-76.552368 46.113407 11.57093
-77.435547 46.035084 25.381847
-77.38987 46.03804 24.602562
-77.373352 46.077255 24.254541
-77.349541 46.066917 23.868917
-77.336906 46.127983 23.548853
-77.111916 46.109825 19.766258
-77.423698 46.050747 23.759197
-77.40506 46.072437 23.407568
-77.383713 46.074524 23.044638
-77.369049 46.118687 22.720554
-77.346985 46.112297 22.360418
-77.326927 46.117252 22.014103
-76.316101 46.095379 5.0222168
-77.394463 46.047195 21.885504
-77.378555 46.078365 21.565283
-77.316917 46.069157 20.552713
-77.303299 46.109638 20.254328
-77.369057 46.046749 20.144918
-77.348938 46.04192 19.819656
-76.922302 46.098759 11.495389
-76.526299 46.007267 5.0540791
-76.984589 46.104576 11.455873
-76.597343 46.032146 5.0098619
-77.225098 46.103767 14.489792
-76.551453 46.079651 2.7855275
-77.282104 46.049652 14.447923
-77.26741 46.051548 14.183116
-77.254967 46.068878 13.927255
-77.304344 46.003323 13.611602
-77.239899 46.055508 12.354403
-77.232063 46.101368 12.120784
-77.216438 46.089096 11.866882
-77.186996 46.075844 11.368374
-77.175697 46.093842 11.129734
-77.285294 46.021145 11.793982
-77.271912 46.024445 11.548016
-77.258301 46.025379 11.302704
-77.246986 46.042805 11.064276
-77.234161 46.04855 10.823194
-77.217316 46.023594 10.573852
-77.207825 46.053219 10.342713
-77.198097 46.080734 10.11167
-77.181839 46.058403 9.8673067
-77.170387 46.072025 9.6343317
-76.907646 46.004375 5.0771613
-77.341232 45.987904 11.473985
-77.274803 45.99435 10.26377
-77.262596 46.002121 10.027496
-77.248894 45.998138 9.7890177
-77.236229 46.001507 9.5537634
-77.227142 46.031494 9.3264894
-77.2229 46.097931 9.1088657
-77.205734 46.066071 8.8673439
-76.982727 45.990044 5.0113621
-77.284798 46.003685 9.0347633
-77.270302 45.990456 8.7985048
-77.245743 45.996178 8.3367414
-77.234398 46.005596 8.1085463
-77.220276 45.993519 7.8767042
-77.211014 46.018288 7.6530147
-77.200249 46.031322 7.4275079
-77.193047 46.071671 7.2072849
-77.179291 46.061176 6.9786243
-77.264069 45.988449 7.1547904
-74.595062 46.072216 1.2601274
-74.860069 46.053104 1.2667943
-75.12661 46.062702 1.2662451
-75.517677 46.102104 4.4404798
-75.502594 46.10289 4.0418944
-75.486267 46.090248 3.6431475
-75.389236 46.021263 1.2587759
-75.780403 46.059582 4.4282937
-75.768417 46.090157 4.0309377
-75.657372 46.028248 1.2450254
-76.089928 46.042759 5.6133294
-76.063065 46.071491 4.8148232
-75.945526 46.087326 1.6248192
-75.922096 46.004093 1.2278821
-76.363792 46.097153 5.6048265
-76.329514 46.056412 4.8001361
-76.212715 46.07172 1.6073089
-76.188927 45.988457 1.2100496
-76.626259 46.030937 5.5896935
-76.598763 46.049606 4.7888136
-76.478859 46.034836 1.5927614
-76.920273 46.087605 5.9802594
-76.905991 46.092258 5.5777783
-76.870171 46.041496 4.7705984
-77.174965 46.043625 5.550961
-77.160385 46.044605 5.1486397
-77.13781 45.982666 4.7430348
-77.136223 46.085594 4.3474135
-77.027405 46.03529 1.5427506
-77.447327 46.012856 5.5287542
-77.438118 46.053268 5.1288719
-77.413994 45.981373 4.7220969
-77.411751 46.074219 4.3253932
-77.295609 45.963512 1.5183247
-78.415062 46.09568 24.371012
-78.366463 46.125626 22.908628
-77.746452 46.064144 5.9255466
-77.725639 46.019142 5.5178585
-77.708496 46.00021 5.1133137
-77.675568 45.97155 4.3071547
-77.63224 45.971634 3.10357
-77.616409 45.961411 2.7026997
-77.588768 45.970192 1.9017808
-78.697411 46.105988 24.387243
-78.372047 46.054413 15.529412
-78.020271 46.009403 5.9077301
-78.006378 46.013702 5.5037513
-77.990578 46.004612 5.0993595
-77.9561 45.965996 4.2914953
-77.914238 45.975796 3.0865719
-78.980988 46.11668 24.399441
-78.889069 46.089188 21.939869
-78.298592 45.973057 5.8875837
-78.284775 45.977249 5.4833403
-78.271927 45.987801 5.0800185
-78.225906 45.968842 3.8696537
-78.209564 45.955524 3.4669204
-78.181229 45.958008 2.6632867
-79.160522 46.115788 21.479259
-79.125969 46.110214 20.53021
-79.066887 46.052921 19.113447
-78.944984 46.086956 15.533075
-78.882889 46.084698 13.793594
-78.868637 46.090889 13.36552
-78.584702 45.973824 5.8720241
-78.569427 45.968098 5.4664207
-79.447159 46.094494 21.478149
-79.399879 46.015827 20.498655
-79.354752 46.041195 19.113798
-79.229805 46.056774 15.523844
-79.216377 46.06937 15.08917
-79.202347 46.077957 14.655349
-79.186104 46.073017 14.219868
-79.169266 46.064056 13.785481
-79.063858 46.064785 10.812134
-79.051994 46.082882 10.396974
-79.036362 46.077862 9.978816
-79.006599 46.076164 9.1478844
-78.987671 46.05027 8.7305241
-78.977806 46.07933 8.3223038
-78.96257 46.07547 7.9103317
-78.946785 46.067989 7.4989486
-78.918343 46.071667 6.6810875
-78.902504 46.063244 6.2723212
-78.842155 45.957508 5.0454783
-79.733269 46.02866 21.449123
-79.713104 46.105175 20.532578
-79.527077 46.064495 15.51725
-79.506958 46.039188 15.071069
-79.499481 46.085728 14.647408
-79.478096 46.052231 14.20364
-79.461067 46.043232 13.768842
-79.391678 46.083324 11.643063
-79.371002 46.050865 11.214339
-79.359703 46.072609 10.798127
-79.339508 46.042171 10.373404
-79.330345 46.075909 9.96175
-79.296989 46.054626 9.1265907
-79.282753 46.057945 8.71311
-79.254204 46.063457 7.8890147
-79.23658 46.046104 7.4759507
-79.223343 46.054535 7.0669351
-79.207886 46.049587 6.6572304
-79.804367 46.018143 15.046977
-79.793449 46.045555 14.617636
-79.780167 46.059547 14.186316
-79.766243 46.069607 13.755756
-79.751678 46.075748 13.325994
-79.733047 46.058819 12.892505
-79.68367 46.042137 11.611583
-79.669403 46.048187 11.190391
-79.654518 46.050476 10.769868
-79.640739 46.058712 10.351816
-79.624626 46.053532 9.9326496
-79.611343 46.064068 9.5174446
-79.590591 46.032005 9.0966673
-79.562721 46.044491 8.2707214
-79.548744 46.050186 7.8590674
-79.532455 46.042503 7.4466705
-79.520699 46.060593 7.0381269
-79.501511 46.035923 6.6257639
-79.488571 46.046886 6.2178736
-79.786247 46.040504 6.1898136
-62.537273 46.201099 24.457678
-62.473743 46.191143 20.336866
-62.470043 46.236721 19.623308
-62.468216 46.189682 18.869915
-62.439678 46.197487 15.549823
-62.418476 46.170544 14.040906
-62.391624 46.226177 12.508828
-61.758316 46.153 3.5951107
-61.697948 46.222965 3.0324876
-61.753422 46.187481 2.8918195
-61.888813 46.136559 3.5970981
-61.820984 46.180035 2.8959808
-62.073509 46.156895 4.9827652
-61.952335 46.148266 3.600497
-61.887508 46.172585 2.8999991
-62.012638 46.179111 3.5882692
-62.005611 46.136974 3.4522901
-61.947918 46.20322 2.8851485
-62.010128 46.203739 2.8684721
-64.889595 46.250515 27.056618
-64.851402 46.217262 26.610371
-64.867332 46.255539 26.314413
-64.831459 46.235046 25.903414
-64.796074 46.196331 25.478617
-64.761971 46.176361 25.087366
-65.005928 46.285336 27.20537
-64.896454 46.262177 25.989315
-64.861115 46.230545 25.571798
-64.826546 46.192894 25.15641
-64.869041 46.212978 24.864004
-65.164322 46.280682 27.257967
-64.915474 46.194286 24.497707
-64.884285 46.243134 24.210463
-64.852592 46.236271 23.863001
-64.821289 46.211494 23.502008
-64.790894 46.201546 23.165348
-64.760834 46.16692 22.807953
-65.248772 46.280605 27.239828
-64.997673 46.198177 24.487209
-64.966721 46.266171 24.222782
-64.935074 46.278782 23.897865
-64.903473 46.260715 23.544018
-64.873009 46.270897 23.229332
-64.842949 46.270149 22.908443
-64.783958 46.214718 22.227032
-64.755295 46.173103 21.881823
-65.33329 46.269054 27.205206
-65.080032 46.195969 24.468685
-65.049248 46.276646 24.21944
-65.016861 46.269585 23.871601
-64.985321 46.270866 23.540403
-64.954559 46.28091 23.225561
-64.807907 46.24025 21.642023
-64.780121 46.217972 21.328407
-64.752777 46.177322 21.002316
-64.726143 46.160816 20.706165
-65.421509 46.269493 27.211065
-65.164894 46.189903 24.466053
-65.134117 46.277031 24.224314
-65.101494 46.276482 23.88393
-65.069572 46.27784 23.552538
-65.038033 46.268032 23.215078
-64.780853 46.234581 20.504837
-64.754562 46.181995 20.183292
-64.728943 46.161701 19.897867
-65.508682 46.261505 27.223026
-65.250687 46.227489 24.531012
-65.218201 46.263634 24.227608
-65.185608 46.276184 23.902306
-65.152847 46.257992 23.548138
-64.835159 46.256653 20.267817
-64.809235 46.266441 20.008753
-64.783607 46.250809 19.730457
-64.758392 46.209248 19.433542
-64.733696 46.20129 19.171524
-64.709442 46.159782 18.884556
-64.685555 46.160225 18.638266
-65.573601 46.278545 27.292389
-65.281967 46.267071 24.270191
-65.248978 46.267078 23.929386
-65.216881 46.275566 23.605095
-64.897911 46.207951 20.250797
-64.872353 46.26899 20.039492
-64.77227 46.246929 18.985998
-64.748276 46.21027 18.706249
-64.724655 46.20068 18.453859
-64.701523 46.164768 18.183634
-65.628334 46.285118 27.356174
-65.336586 46.240604 24.284544
-65.304169 46.253918 23.958776
-65.272049 46.256229 23.626713
-65.240959 46.273945 23.31846
-65.209991 46.274124 22.996485
-64.954567 46.184818 20.263361
-64.75882 46.267021 18.296638
-64.73616 46.197636 18.001694
-64.713722 46.179214 17.752476
-64.691666 46.157711 17.504568
-65.685074 46.254707 27.372356
-65.393967 46.193405 24.276781
-65.363571 46.265408 24.019344
-65.331154 46.255249 23.671751
-65.29982 46.26022 23.348198
-65.268623 46.247402 23.011145
-65.014297 46.167763 20.283649
-64.989319 46.251274 20.092461
-64.91433 46.264332 19.31876
-64.890038 46.254677 19.05644
-64.751869 46.23056 17.5902
-64.730118 46.206848 17.342661
-64.708885 46.164108 17.084467
-65.751137 46.246181 27.421505
-65.713234 46.270428 27.044601
-65.459717 46.189812 24.323324
-65.42897 46.24934 24.050396
-65.39653 46.239628 23.70257
-65.365379 46.251675 23.386265
-65.334503 46.252766 23.063753
-65.07962 46.178482 20.332397
-65.054649 46.255203 20.133986
-65.004234 46.268127 19.616377
-64.979515 46.262226 19.35251
-64.955208 46.260548 19.096413
-64.751663 46.248699 16.953402
-64.730835 46.216904 16.708879
-64.710732 46.149548 16.442598
-65.825005 46.254681 27.495089
-65.785736 46.255924 27.085651
-65.531128 46.179211 24.362526
-65.499924 46.226223 24.074165
-65.467575 46.223473 23.733709
-65.436539 46.242592 23.424665
-65.405548 46.244186 23.101871
-65.149475 46.174225 20.36783
-65.124359 46.236725 20.15551
-65.099136 46.267269 19.916269
-65.07386 46.257729 19.644222
-65.048981 46.244713 19.373476
-65.024673 46.25845 19.130302
-65.000648 46.261604 18.881495
-64.757927 46.188 16.282766
-64.737358 46.205589 16.081688
-64.717216 46.204357 15.869975
-64.678261 46.161095 15.427382
-65.897415 46.244282 27.533075
-65.857391 46.2341 27.107342
-65.571518 46.226604 24.117384
-65.539268 46.230934 23.784132
-65.508148 46.250626 23.474697
-65.476616 46.239391 23.136662
-65.194321 46.228748 20.180494
-65.168877 46.244865 19.927507
-65.143761 46.257839 19.675398
-65.118904 46.260189 19.417578
-65.094208 46.236671 19.141161
-65.070221 46.255238 18.905214
-64.805641 46.227451 16.119146
-64.78521 46.243206 15.91813
-64.765213 46.240055 15.706641
-64.745476 46.234486 15.496044
-64.726257 46.20966 15.275604
-64.707344 46.182259 15.056402
-64.688469 46.16935 14.848929
-65.96386 46.243587 27.576458
-65.923775 46.233906 27.150415
-65.637291 46.223705 24.150267
-65.605011 46.228428 23.81673
-65.572975 46.22197 23.477089
-65.541862 46.224255 23.153839
-65.512451 46.262745 22.876144
-65.259598 46.230637 20.209473
-65.234352 46.261845 19.969671
-65.209015 46.260406 19.703733
-65.183868 46.24062 19.425718
-65.159416 46.247456 19.175406
-65.135284 46.251194 18.926077
-64.870407 46.209965 16.125362
-64.84977 46.250717 15.940993
-64.829628 46.25618 15.734669
-64.809837 46.250931 15.523635
-64.790199 46.251709 15.318897
-64.751793 46.237858 14.906594
-64.732765 46.240303 14.709545
-64.713974 46.240582 14.513215
-64.695885 46.212746 14.302597
-64.678093 46.182518 14.093195
-64.660774 46.141171 13.880176
-66.027603 46.233376 27.614433
-65.988197 46.236095 27.204178
-65.701653 46.230705 24.200966
-65.670113 46.255695 23.889645
-65.637314 46.23011 23.526983
-65.606186 46.232956 23.203325
-65.576164 46.251713 22.903128
-65.322731 46.186138 20.200127
-65.29805 46.246868 19.987406
-65.27282 46.253124 19.727962
-65.247841 46.248638 19.462931
-65.223129 46.233261 19.192545
-65.199089 46.244858 18.949511
-64.934296 46.182381 16.128433
-64.913498 46.25639 15.966393
-64.893433 46.253826 15.754178
-64.873703 46.240459 15.537396
-64.854073 46.241444 15.332437
-64.834892 46.223179 15.117653
-64.81543 46.245045 14.930153
-64.796516 46.239216 14.727571
-64.686951 46.219101 13.564029
-64.670303 46.17149 13.353569
-64.653137 46.157089 13.162813
-66.09745 46.23616 27.691982
-66.057304 46.227924 27.265207
-65.768547 46.183197 24.205769
-65.737846 46.228119 23.917086
-65.706482 46.242764 23.599148
-65.674828 46.233063 23.260117
-65.644104 46.232235 22.93741
-65.390533 46.178272 20.238981
-65.365791 46.232098 20.019218
-65.340439 46.231361 19.752827
-65.315651 46.242226 19.500858
-65.290977 46.234882 19.236698
-65.266914 46.247009 18.993277
-65.001633 46.157578 16.144497
-64.980858 46.248383 15.993564
-64.960762 46.246178 15.781058
-64.940918 46.241543 15.569436
-64.921333 46.234493 15.358725
-64.902008 46.225052 15.148948
-64.882538 46.247292 14.961092
-64.8638 46.22472 14.747803
-64.667709 46.180233 12.656878
-64.651802 46.140221 12.460301
-64.634949 46.14349 12.285857
-66.167854 46.232891 27.773726
-66.127251 46.21978 27.338451
-66.091446 46.272518 27.000929
-65.83699 46.163063 24.25272
-65.806854 46.221722 23.978889
-65.774681 46.217293 23.638092
-65.743217 46.214882 23.306255
-65.712685 46.221455 22.990635
-65.458061 46.151665 20.268389
-65.434082 46.242714 20.082304
-65.408524 46.235298 19.808701
-65.38356 46.239346 19.549652
-65.358818 46.232616 19.285097
-65.334526 46.230148 19.02828
-65.310997 46.262726 18.8048
-65.047974 46.23732 16.024986
-65.027832 46.235523 15.81219
-65.008049 46.21455 15.589342
-64.988304 46.224651 15.389265
-64.968773 46.23254 15.189829
-64.949539 46.229713 14.985809
-64.930542 46.224606 14.782624
-64.66716 46.168755 11.975565
-66.234512 46.201294 27.801977
-66.194611 46.200584 27.382616
-66.158508 46.247913 27.036879
-65.904251 46.155315 24.302309
-65.873329 46.194927 24.005518
-65.841667 46.204174 23.679537
-65.810425 46.209007 23.354847
-65.77935 46.202709 23.024122
-65.500183 46.213833 20.099819
-65.474884 46.221565 19.839491
-65.449768 46.218559 19.573545
-65.425117 46.219727 19.315367
-65.40078 46.217674 19.058287
-65.377075 46.235352 18.821672
-65.134331 46.162968 16.219852
-65.113892 46.204952 16.034567
-65.093681 46.220005 15.832785
-65.073799 46.207703 15.615178
-65.054039 46.21814 15.414816
-65.034431 46.234825 15.220416
-65.015152 46.232376 15.016026
-64.996262 46.210533 14.802113
-64.715065 46.193878 11.833701
-64.698029 46.21854 11.671914
-64.682404 46.195385 11.49131
-64.667542 46.151794 11.304222
-64.652092 46.134178 11.129266
-66.305717 46.210258 27.850302
-66.266472 46.221924 27.446659
-66.227745 46.227829 27.044559
-65.94355 46.208702 24.050114
-65.910965 46.198563 23.701252
-65.879662 46.203663 23.376335
-65.848518 46.197624 23.045382
-65.568901 46.218605 20.125422
-65.543388 46.219215 19.85807
-65.518356 46.223923 19.598509
-65.493629 46.22538 19.340008
-65.469223 46.223614 19.082602
-65.445251 46.226284 18.832771
-65.201859 46.180336 16.245764
-65.181419 46.206074 16.048817
-65.161179 46.221325 15.846746
-65.141174 46.225956 15.639793
-65.121422 46.219845 15.428201
-65.101921 46.211323 15.217535
-65.082558 46.217434 15.018324
-65.063461 46.212791 14.814619
-65.04422 46.248878 14.63728
-64.796783 46.245564 12.035669
-64.781357 46.198696 11.841295
-64.764305 46.223499 11.679185
-64.7481 46.218983 11.50583
-64.732071 46.21273 11.333075
-64.716209 46.204742 11.160935
-64.700249 46.204384 10.99297
-64.684158 46.211754 10.828952
-64.66909 46.189316 10.655143
-64.654518 46.155697 10.478886
-64.639847 46.129749 10.30687
-66.378639 46.214729 27.864576
-66.337677 46.202682 27.428606
-66.300735 46.238434 27.066418
-66.044914 46.154163 24.336981
-66.014221 46.200706 24.047266
-65.983246 46.230225 23.743244
-65.950066 46.195557 23.373283
-65.919327 46.202965 23.056974
-65.638206 46.217442 20.127884
-65.612747 46.225502 19.867048
-65.587433 46.222816 19.600599
-65.562599 46.224304 19.341909
-65.538071 46.222565 19.084316
-65.514114 46.232922 18.840731
-65.269356 46.187866 16.250805
-65.24884 46.20541 16.047951
-65.228531 46.204044 15.834588
-65.20845 46.208611 15.627565
-65.188522 46.236118 15.437475
-65.168922 46.219242 15.221137
-65.149498 46.216911 15.016389
-65.130302 46.212296 14.812472
-64.863304 46.199554 12.010041
-64.846703 46.19846 11.835545
-64.829605 46.223274 11.673183
-64.813538 46.209507 11.49582
-64.797424 46.20322 11.322912
-64.780975 46.21384 11.157852
-64.764915 46.213512 10.989568
-64.748749 46.220913 10.825225
-64.733261 46.207909 10.65448
-64.717667 46.202648 10.487708
-64.70163 46.214699 10.327885
-64.686325 46.206249 10.162034
-64.670868 46.205715 9.9997921
-64.654228 46.241817 9.849802
-64.640015 46.209579 9.6794462
-64.626694 46.156464 9.5044489
-64.61219 46.140068 9.3415823
-64.597473 46.131752 9.1819839
-66.456665 46.226608 27.897663
-66.416183 46.226715 27.477474
-66.377434 46.238823 27.082966
-66.089783 46.221798 24.084888
-66.056458 46.205303 23.728071
-66.025093 46.217308 23.410143
-65.992386 46.184536 23.049223
-65.709892 46.213264 20.133192
-65.684448 46.228832 19.87887
-65.658768 46.218792 19.605549
-65.633751 46.220356 19.346676
-65.609055 46.218693 19.088902
-65.584938 46.229122 18.845125
-65.338112 46.135429 16.219034
-65.31765 46.194164 16.04442
-65.297249 46.226135 15.853054
-65.276993 46.222534 15.640147
-65.256973 46.216507 15.428142
-65.237167 46.22501 15.227692
-65.217667 46.197231 15.006941
-65.198265 46.209705 14.813294
-64.928467 46.234337 12.023603
-64.913055 46.169064 11.821037
-64.895493 46.212273 11.666377
-64.878647 46.22628 11.500183
-64.862595 46.210796 11.323195
-64.845795 46.230808 11.161425
-64.83033 46.202507 10.982158
-64.814049 46.209908 10.817657
-64.798172 46.20631 10.65013
-64.782448 46.201073 10.483124
-64.766869 46.194206 10.316653
-64.75116 46.195217 10.153853
-64.735283 46.204197 9.9944925
-64.628593 46.196342 8.8793964
-64.614471 46.174011 8.7179413
-64.601288 46.130695 8.5526161
-66.534302 46.207119 27.915916
-66.491905 46.183727 27.463482
-66.454193 46.213886 27.092978
-66.164429 46.19194 24.086637
-66.131523 46.18882 23.744753
-66.100288 46.207767 23.434097
-66.067604 46.182068 23.08033
-65.782898 46.207047 20.154636
-65.756714 46.200619 19.879986
-65.731232 46.205654 19.619875
-65.706406 46.222519 19.373951
-65.681511 46.221188 19.115862
-65.656929 46.216637 18.858902
-65.387756 46.192356 16.061453
-65.367233 46.216225 15.864278
-65.346863 46.229561 15.662085
-65.326653 46.206959 15.438951
-65.306717 46.215641 15.238292
-65.286995 46.213589 15.033051
-65.267487 46.209248 14.828638
-65.248077 46.237053 14.645448
-64.996475 46.190983 12.014411
-64.979973 46.171673 11.831592
-64.96273 46.196594 11.668918
-64.945587 46.219959 11.506345
-64.92939 46.204605 11.329123
-64.913162 46.19677 11.156288
-64.896416 46.215271 10.994676
-64.880486 46.204082 10.82288
-64.864235 46.210014 10.658484
-64.848114 46.214367 10.494443
-64.832924 46.188732 10.321164
-64.817101 46.189854 10.158125
-64.801117 46.198944 9.9985247
-64.618271 46.202335 8.1087704
-64.605095 46.162979 7.9475632
-64.591675 46.13192 7.7891531
-66.56105 46.168091 27.503893
-66.523293 46.198803 27.133148
-66.233795 46.200832 24.147297
-66.20076 46.198418 23.804958
-66.167183 46.171265 23.441839
-66.136612 46.193054 23.139618
-66.1082 46.251736 22.882317
-65.849953 46.195072 20.182034
-65.824097 46.203869 19.920523
-65.798538 46.209393 19.66003
-65.773087 46.204121 19.394022
-65.748306 46.21069 19.142241
-65.723816 46.214153 18.891455
-65.453629 46.18623 16.084276
-65.433037 46.202072 15.88129
-65.412567 46.198914 15.66796
-65.39238 46.210163 15.46631
-65.372383 46.219185 15.26529
-65.35257 46.191929 15.043951
-65.333015 46.187786 14.839392
-65.313606 46.215778 14.656065
-65.044594 46.162266 11.843833
-65.027168 46.196602 11.684787
-65.010185 46.21093 11.518129
-64.993721 46.205055 11.344357
-64.977417 46.197437 11.171198
-64.96064 46.216152 11.009271
-64.944633 46.205173 10.837148
-64.928337 46.211311 10.672429
-64.912407 46.206425 10.504776
-64.896622 46.199902 10.337655
-64.881248 46.182255 10.167959
-64.864967 46.201031 10.011158
-64.848213 46.237453 9.8603573
-64.606865 46.222137 7.3560576
-66.546059 46.258148 26.867651
-66.29055 46.176689 24.170807
-66.258644 46.194504 23.850758
-66.226768 46.201336 23.524437
-66.194954 46.197021 23.192072
-66.164795 46.215435 22.890472
-65.907204 46.153404 20.182755
-65.882339 46.192024 19.948042
-65.856644 46.190441 19.680645
-65.831253 46.185486 19.414431
-65.806938 46.207546 19.175459
-65.782318 46.203777 18.917894
-65.512733 46.179874 16.107292
-65.492256 46.204346 15.909555
-65.471863 46.209911 15.701322
-65.451683 46.213135 15.493837
-65.431656 46.197094 15.276485
-65.411957 46.221123 15.086464
-65.392395 46.217453 14.881304
-65.373047 46.211494 14.676991
-65.104179 46.180218 11.867881
-65.087296 46.187172 11.696784
-65.070549 46.192432 11.526105
-65.053764 46.205292 11.359561
-65.037476 46.197895 11.18607
-65.021553 46.179413 11.009672
-65.004761 46.206059 10.851361
-64.988937 46.193581 10.679565
-64.973045 46.188839 10.511741
-64.956825 46.201397 10.350867
-64.941208 46.193443 10.183957
-64.925995 46.174351 10.014565
-64.908821 46.22998 9.8696127
-66.347351 46.166748 24.208735
-66.315567 46.185043 23.88839
-66.284485 46.205715 23.576643
-66.25209 46.188522 23.229099
-66.221733 46.200596 22.91988
-65.964958 46.142059 20.209818
-65.941345 46.218113 20.008366
-65.914825 46.187279 19.713823
-65.889503 46.182739 19.447271
-65.86528 46.205196 19.207966
-65.841103 46.217125 18.962946
-65.571449 46.141037 16.107117
-65.551353 46.198898 15.931546
-65.530968 46.196384 15.717546
-65.510857 46.199848 15.509835
-65.490952 46.200981 15.302897
-65.471222 46.191288 15.091507
-65.451744 46.187756 14.886263
-65.432487 46.216343 14.702271
-65.164413 46.170963 11.879349
-65.147438 46.187325 11.711869
-65.130737 46.192799 11.540864
-65.114174 46.196583 11.370293
-65.097931 46.189362 11.196549
-65.081841 46.180405 11.023436
-65.065323 46.197865 10.861341
-65.049316 46.194969 10.692666
-65.033463 46.190422 10.524506
-65.017517 46.193699 10.360088
-65.001938 46.185909 10.192922
-64.986496 46.176498 10.026316
-64.969688 46.222755 9.8780785
-66.37561 46.180859 23.934664
-66.342163 46.155369 23.570503
-66.31086 46.158516 23.245144
-66.28157 46.191296 22.957769
-66.025993 46.166405 20.27194
-66.000824 46.1912 20.022993
-65.975212 46.190529 19.754869
-65.949905 46.186474 19.487919
-65.925102 46.186646 19.228691
-65.900978 46.198879 18.983469
-65.877861 46.238922 18.764654
-65.631714 46.134487 16.130674
-65.611717 46.192646 15.954834
-65.591484 46.207176 15.751483
-65.571266 46.194202 15.532532
-65.551331 46.187168 15.319969
-65.531654 46.186237 15.113603
-65.512184 46.182999 14.908056
-65.49295 46.194668 14.713564
-65.225273 46.151985 11.888237
-65.208351 46.168507 11.720599
-65.191544 46.183395 11.553218
-65.175003 46.187366 11.382401
-65.158432 46.198975 11.215659
-65.142677 46.171566 11.035045
-65.126022 46.198586 10.876172
-65.110405 46.177078 10.700404
-65.09436 46.182117 10.535373
-65.078438 46.18557 10.370707
-65.062645 46.187447 10.20642
-65.046967 46.187748 10.042528
-65.030945 46.205582 9.8849831
-66.437805 46.175423 23.982079
-66.405388 46.170551 23.639881
-66.373718 46.16774 23.306614
-66.343102 46.174011 22.989483
-66.062706 46.185535 20.05891
-66.036621 46.170376 19.77717
-66.01178 46.181709 19.52318
-65.987404 46.197487 19.276651
-65.96244 46.179703 19.005175
-65.939194 46.212349 18.779793
-65.693405 46.135448 16.161068
-65.673309 46.177322 15.973794
-65.653023 46.18375 15.764753
-65.632797 46.171001 15.545648
-65.613098 46.198032 15.354256
-65.593399 46.197498 15.147444
-65.57386 46.186104 14.936266
-65.554665 46.206711 14.746513
-65.269493 46.195309 11.749932
-65.253059 46.18277 11.570623
-65.236519 46.186974 11.399486
-65.220261 46.180172 11.225165
-65.203835 46.190327 11.058564
-65.187698 46.189487 10.888815
-65.171692 46.186989 10.71956
-65.15564 46.192272 10.554119
-65.1399 46.186501 10.38582
-65.123894 46.198078 10.224341
-65.108635 46.179573 10.053924
-65.092407 46.207127 9.8991098
-64.668999 46.13113 5.4141836
-66.505005 46.168037 24.031071
-66.472511 46.163792 23.688528
-66.440399 46.154869 23.347525
-66.409386 46.154884 23.022778
-66.128494 46.170891 20.089766
-66.103081 46.178555 19.827709
-66.077454 46.1679 19.553518
-66.052826 46.176498 19.300219
-66.028015 46.166706 19.03499
-66.004768 46.199738 18.809361
-65.738327 46.177464 16.005577
-65.717987 46.184277 15.796179
-65.697769 46.180328 15.582112
-65.677834 46.1824 15.374291
-65.65815 46.190651 15.172522
-65.63855 46.179585 14.961042
-65.619202 46.174721 14.755664
-65.333694 46.166023 11.757853
-65.316872 46.181393 11.589842
-65.300415 46.176563 11.414671
-65.284111 46.169979 11.240106
-65.267662 46.18034 11.073268
-65.25164 46.170338 10.899803
-65.235435 46.177422 10.733774
-65.219353 46.182903 10.568092
-65.203575 46.177334 10.399545
-65.187927 46.170124 10.231539
-65.172012 46.180317 10.070212
-65.156204 46.188995 9.9091263
-64.670792 46.203632 4.825429
-64.658554 46.164623 4.6757288
-66.502228 46.152134 23.392836
-66.471077 46.152725 23.067709
-66.444809 46.238056 22.838535
-66.18856 46.16674 20.124023
-66.162506 46.159927 19.848316
-66.138252 46.194725 19.613424
-66.112267 46.166111 19.3269
-66.088013 46.1796 19.080746
-66.064438 46.205475 18.848248
-65.795914 46.163712 16.022461
-65.775673 46.187519 15.823791
-65.755127 46.167122 15.598508
-65.735161 46.177917 15.39578
-65.715294 46.177979 15.188427
-65.695618 46.175724 14.981886
-65.676193 46.17976 14.781298
-65.657227 46.233414 14.611674
-65.388573 46.166847 11.772982
-65.37175 46.17321 11.600831
-65.355171 46.168591 11.42539
-65.338982 46.143581 11.243278
-65.322182 46.172775 11.083449
-65.305458 46.200474 10.923611
-65.289871 46.160843 10.740019
-65.273521 46.175926 10.57746
-65.257271 46.189472 10.415097
-65.241661 46.173019 10.243503
-65.226013 46.164391 10.075693
-65.209511 46.201851 9.9233646
-64.638931 46.11874 3.9287417
-66.433205 46.234676 22.837341
-66.178719 46.187534 20.14151
-66.152206 46.166183 19.852135
-66.127579 46.186199 19.60383
-66.102921 46.19561 19.34981
-66.078278 46.194256 19.090305
-66.054123 46.197369 18.838327
-65.787033 46.165455 16.016706
-65.766708 46.172707 15.806875
-65.746559 46.177601 15.597779
-65.7267 46.188602 15.394782
-65.706841 46.180367 15.181893
-65.687416 46.195358 14.985537
-65.668015 46.191048 14.779484
-65.649147 46.236256 14.604545
-65.381805 46.180889 11.766592
-65.365173 46.178146 11.590346
-65.348579 46.182919 11.418406
-65.332336 46.167366 11.239631
-65.315895 46.178036 11.072309
-65.299561 46.187088 10.9053
-65.28334 46.194527 10.73862
-65.26738 46.190929 10.56897
-65.251389 46.195137 10.403073
-65.23568 46.188267 10.234403
-65.220108 46.179756 10.066286
-65.204117 46.19825 9.9076872
-66.239769 46.168476 20.147806
-66.214584 46.184555 19.891563
-66.188843 46.174911 19.616455
-66.164429 46.192081 19.368759
-66.139488 46.183331 19.102535
-66.115311 46.186623 18.850359
-65.868179 46.138649 16.231377
-65.848045 46.173321 16.037359
-65.827675 46.18082 15.827166
-65.807487 46.185959 15.617705
-65.787689 46.205662 15.419681
-65.767471 46.172203 15.190557
-65.748039 46.18734 14.993978
-65.7286 46.18317 14.787702
-65.709755 46.228523 14.612535
-65.442001 46.156578 11.763343
-65.425186 46.172379 11.594614
-65.408478 46.186535 11.426149
-65.392174 46.171116 11.247053
-65.375595 46.191261 11.082963
-65.359573 46.172344 10.905123
-65.343216 46.189259 10.741673
-65.327217 46.185753 10.571777
-65.311203 46.190052 10.405635
-65.295609 46.173779 10.233571
-65.279671 46.184364 10.071419
-65.264008 46.183884 9.9065237
-66.333061 46.253784 20.527603
-66.302696 46.155746 20.161831
-66.27803 46.186951 19.918703
-66.252441 46.185143 19.649864
-66.227402 46.187527 19.388741
-66.202347 46.179031 19.122257
-66.178589 46.197952 18.882601
-65.930206 46.153706 16.259108
-65.909447 46.155437 16.042437
-65.88942 46.188141 15.848556
-65.868767 46.168312 15.622502
-65.849045 46.196583 15.429675
-65.828819 46.171787 15.2056
-65.80941 46.195675 15.01392
