# .PCD v0.7 - Point Cloud Data file format
VERSION 0.7
FIELDS x y z
SIZE 4 4 4
TYPE F F F
COUNT 1 1 1
WIDTH 1559
HEIGHT 1
VIEWPOINT 0 0 0 1 0 0 0
POINTS 1559
DATA ascii
-68.351067 45.792683 24.291382
-68.318634 45.777355 23.928211
-68.287529 45.770699 23.581411
-68.256104 45.752468 23.228996
-68.227592 45.764206 22.914213
-68.198204 45.757782 22.586454
-68.170593 45.76823 22.281368
-68.142113 45.760441 21.963522
-68.113846 45.748466 21.647182
-68.086784 45.746853 21.346119
-68.060898 45.755981 21.060001
-68.035172 45.761478 20.775023
-68.009132 45.755928 20.484556
-67.984695 45.769157 20.215254
-67.959473 45.763943 19.933874
-67.935799 45.778008 19.673218
-67.911362 45.77356 19.400692
-67.887085 45.76572 19.129412
-67.863419 45.762283 18.865692
-67.841217 45.779102 18.621777
-67.818703 45.785145 18.372538
-67.795906 45.780262 18.118216
-67.77285 45.76432 17.859047
-67.751183 45.769348 17.618996
-67.729645 45.771549 17.379889
-67.707458 45.754654 17.130177
-67.687355 45.775742 16.910343
-67.666222 45.769623 16.674177
-67.645592 45.769043 16.444649
-67.625084 45.76582 16.21607
-67.605072 45.768364 15.993901
-67.584473 45.751526 15.761876
-67.565392 45.765934 15.552168
-67.545403 45.75246 15.327448
-67.525879 45.745003 15.108951
-67.507751 45.769573 14.911664
-67.488762 45.766075 14.699811
-67.470192 45.768951 14.493733
-67.452019 45.778347 14.293228
-67.433075 45.759235 14.079056
-67.4151 45.764248 13.880019
-67.397224 45.767151 13.681636
-67.379707 45.776871 13.488455
-67.361496 45.757729 13.282464
-67.344414 45.77232 13.09499
-67.32692 45.766949 12.899354
-67.30999 45.777657 12.712907
-67.29245 45.759171 12.514514
-67.276352 45.793415 12.341423
-67.258797 45.761795 12.140512
-67.242409 45.774071 11.960247
-67.225876 45.775326 11.776544
-67.209236 45.765465 11.58966
-67.193245 45.781628 11.41448
-67.176949 45.77742 11.232418
-67.160576 45.762039 11.047472
-67.144775 45.772987 10.873554
-67.129028 45.782265 10.699954
-67.113052 45.770966 10.520189
-67.097168 45.757896 10.341104
-67.081757 45.771603 10.171966
-67.066269 45.774185 10.000041
-67.050621 45.756001 9.8226776
-67.035477 45.774445 9.6573992
-67.020271 45.781754 9.4894619
-67.004944 45.768223 9.3164644
-66.989861 45.772362 9.1492596
-66.974823 45.774944 8.9823589
-66.959717 45.756573 8.8109436
-66.944862 45.765747 8.6471949
-66.930046 45.77343 8.4836235
-66.915154 45.750328 8.313756
-66.900536 45.784321 8.1570673
-66.885803 45.767944 7.9901252
-66.871155 45.759834 7.8256626
-66.85659 45.779716 7.6670809
-66.842049 45.758804 7.5014706
-66.82756 45.765957 7.3414259
-68.389122 45.813858 24.384037
-68.35582 45.786049 24.005476
-68.323334 45.759819 23.636229
-68.292709 45.749157 23.290648
-68.262314 45.733829 22.94673
-68.233727 45.73489 22.62587
-68.205849 45.738781 22.313469
-68.178146 45.738583 22.002399
-68.150635 45.734318 21.692705
-68.124313 45.74052 21.39817
-68.098656 45.750259 21.111656
-68.072174 45.741615 20.812796
-68.046364 45.736557 20.522043
-68.021683 45.74276 20.245859
-67.998085 45.760601 19.983894
-67.973236 45.75243 19.703394
-67.94902 45.748386 19.430643
-67.925407 45.748665 19.165483
-67.902832 45.761223 18.91403
-67.879951 45.762932 18.657276
-67.856354 45.74577 18.389318
-67.833778 45.741165 18.134901
-67.81218 45.749454 17.89365
-67.790703 45.754898 17.653305
-67.769356 45.757515 17.413898
-67.747742 45.749184 17.169668
-67.72744 45.762524 16.943754
-67.706474 45.756809 16.707277
-67.686028 45.756626 16.477444
-67.665329 45.745461 16.243046
-67.645493 45.748341 16.020641
-67.626472 45.765572 15.809823
-67.606171 45.746574 15.578431
-67.587692 45.767532 15.374328
-67.567978 45.752014 15.150146
-67.549042 45.751183 14.937209
-67.530533 45.756657 14.730104
-67.511505 45.742485 14.513875
-67.494102 45.769627 14.322893
-67.476181 45.777229 14.122682
-67.457481 45.756222 13.90903
-67.439484 45.750591 13.705712
-67.422394 45.769508 13.516827
-67.404846 45.768597 13.319408
-67.387131 45.756626 13.118325
-67.370033 45.760559 12.926735
-67.352776 45.75346 12.731522
-67.336075 45.762512 12.545372
-67.319229 45.760551 12.355639
-67.302902 45.774986 12.174533
-67.286217 45.769218 11.985973
-67.269623 45.761532 11.79811
-67.253311 45.761204 11.614706
-67.2369 45.749741 11.42821
-67.221115 45.764393 11.253216
-67.204865 45.749264 11.067999
-67.189209 45.760456 10.89383
-67.173599 45.769974 10.719978
-67.157761 45.758919 10.539945
-67.141998 45.74609 10.360586
-67.126724 45.760025 10.191197
-67.111244 45.7533 10.016005
-67.095963 45.754444 9.8442984
-67.080627 45.744373 9.6701584
-67.065773 45.771076 9.5076504
-67.05056 45.757767 9.3343763
-67.03569 45.771778 9.1695023
-67.020622 45.755234 8.9972372
-67.005844 45.766159 8.8328981
-66.991043 45.765858 8.6663809
-66.976242 45.754276 8.4979534
-66.961601 45.760651 8.3343954
-66.94696 45.755753 8.1689548
-66.932411 45.759132 8.0059013
-66.917908 45.761032 7.8430786
-66.903442 45.761459 7.6804991
-66.88903 45.76041 7.5181761
-66.874657 45.7579 7.356123
-68.389557 45.80368 24.088259
-68.356255 45.764748 23.703773
-68.326988 45.768608 23.372162
-68.296852 45.754173 23.027603
-68.266403 45.728092 22.677633
-68.237747 45.718464 22.350725
-68.210327 45.71875 22.039381
-68.184097 45.72934 21.74328
-68.158028 45.736126 21.448347
-68.13311 45.75375 21.168245
-68.106865 45.74575 20.868908
-68.081764 45.748745 20.58436
-68.056351 45.740662 20.294405
-68.032516 45.751507 20.025488
-68.008827 45.759026 19.757599
-67.98391 45.740276 19.471521
-67.961418 45.756454 19.21871
-67.938164 45.754059 18.954203
-67.915497 45.756237 18.69709
-67.892548 45.747425 18.434906
-67.87101 45.759186 18.192215
-67.848351 45.744144 17.93236
-67.82708 45.750031 17.69165
-67.805931 45.75309 17.451876
-67.784515 45.745197 17.207266
-67.764786 45.767147 16.986719
-67.743629 45.753677 16.744131
-67.722618 45.737343 16.502741
-67.703224 45.751499 16.284647
-67.68428 45.771599 16.072678
-67.664711 45.772514 15.850528
-67.644234 45.745499 15.613366
-67.625259 45.749798 15.398445
-67.606056 45.743153 15.179159
-67.587944 45.75988 14.976054
-67.569275 45.757126 14.763486
-67.551033 45.760727 14.5567
-67.53228 45.74461 14.340949
-67.515121 45.770016 14.150117
-67.49688 45.75816 13.940823
-67.479309 45.761753 13.741718
-67.461288 45.745434 13.534201
-67.444443 45.762642 13.345538
-67.427147 45.759956 13.148503
-67.410194 45.764229 12.956509
-67.393082 45.757462 12.760881
-67.376297 45.757744 12.570177
-67.359375 45.746941 12.376038
-67.34343 45.770786 12.19868
-67.326683 45.7561 12.00587
-67.310448 45.757889 11.821577
-67.294289 45.757835 11.637836
-67.278015 45.746643 11.450994
-67.262016 45.742893 11.26849
-67.246445 45.75605 11.093611
-67.230927 45.767529 10.919027
-67.215294 45.767902 10.741413
-67.199287 45.738197 10.554501
-67.18396 45.744518 10.381317
-67.168694 45.749187 10.208495
-67.153618 45.761742 10.039065
-67.138458 45.763145 9.866931
-67.12336 45.76292 9.6952038
-67.108215 45.751457 9.5211334
-67.093536 45.776855 9.3583994
-67.078522 45.762161 9.1852207
-67.063828 45.774853 9.0202227
-67.04895 45.756931 8.8480787
-67.034416 45.77626 8.6859875
-67.019737 45.764908 8.5171146
-67.005165 45.761742 8.3509464
-66.990654 45.757042 8.1851492
-66.976204 45.750824 8.0197372
-66.96183 45.752899 7.8566456
-66.947525 45.763325 7.6956325
-66.933212 45.742775 7.5294509
-66.918983 45.760136 7.370542
-66.9048 45.70697 7.2005143
-68.393143 45.801811 23.795801
-68.361961 45.779118 23.434477
-68.332077 45.765362 23.089405
-68.304504 45.774948 22.774529
-68.275024 45.752174 22.432671
-68.245758 45.724804 22.092621
-68.220276 45.743153 21.803005
-68.194427 45.750572 21.507551
-68.167747 45.739601 21.199678
-68.142235 45.739353 20.906809
-68.118324 45.757629 20.635286
-68.092171 45.735142 20.331612
-68.069031 45.753948 20.068907
-68.044617 45.746758 19.787628
-68.022202 45.766632 19.533369
-67.998093 45.752617 19.254519
-67.974609 45.74287 18.983364
-67.951714 45.737579 18.71974
-67.929832 45.744804 18.469633
-67.908073 45.749031 18.220501
-67.886024 45.74231 17.966356
-67.864532 45.740551 17.719337
-67.843575 45.743938 17.479265
-67.823135 45.752636 17.245962
-67.802422 45.750454 17.007776
-67.7826 45.761951 16.78194
-67.762123 45.754318 16.545687
-67.741791 45.743935 16.310516
-67.723747 45.781094 16.109144
-67.703636 45.765553 15.87579
-67.684013 45.755787 15.648905
-67.663841 45.726398 15.412617
-67.646477 45.762772 15.218927
-67.626564 45.728268 14.984821
-67.609032 45.751621 14.787169
-67.590637 45.746807 14.575139
-67.57235 45.739666 14.363989
-67.555359 45.765335 14.172849
-67.53756 45.762573 13.967926
-67.519859 45.757607 13.763801
-67.502258 45.750454 13.560495
-67.485558 45.767956 13.371437
-67.46814 45.756584 13.169606
-67.451088 45.752087 12.972974
-67.434616 45.763645 12.785559
-67.417732 45.755116 12.590291
-67.401642 45.771938 12.408041
-67.385155 45.768627 12.218135
-67.368759 45.763378 12.0289
-67.352028 45.737732 11.832685
-67.336426 45.756367 11.656279
-67.320862 45.773293 11.48012
-67.304604 45.751198 11.289845
-67.289162 45.764603 11.114551
-67.273605 45.766926 10.93612
-67.257942 45.758091 10.754815
-67.242683 45.766365 10.5807
-67.227173 45.754017 10.400558
-67.211891 45.749405 10.224209
-67.196808 45.752617 10.05142
-67.181908 45.763748 9.8819599
-67.166702 45.744541 9.7041779
-67.15181 45.742821 9.5326929
-67.137276 45.768379 9.3697062
-67.122566 45.773148 9.2014627
-67.107742 45.757004 9.0284786
-67.093147 45.75861 8.8610153
-67.078529 45.748947 8.6915293
-67.06411 45.757179 8.5270863
-67.049614 45.744396 8.3584671
-67.035385 45.769154 8.1987743
-67.020958 45.743515 8.0288982
-67.006714 45.745724 7.8655391
-66.992485 45.736626 7.7005796
-66.978371 45.755554 7.5413117
-66.964233 45.743492 7.3769603
-66.950165 45.720058 7.2114763
-68.404381 45.797096 23.50304
-68.376228 45.804871 23.178967
-68.344566 45.759403 22.806339
-68.317329 45.765266 22.492474
-68.2882 45.738556 22.151901
-68.261322 45.735992 21.840956
-68.234619 45.729378 21.531416
-68.209579 45.740631 21.243782
-68.184196 45.740883 20.950514
-68.159462 45.744804 20.665224
-68.134399 45.737648 20.374514
-68.10997 45.734325 20.091736
-68.087555 45.757805 19.836214
-68.063423 45.747608 19.555779
-68.039909 45.741596 19.28307
-68.016991 45.73996 19.01792
-67.994652 45.742886 18.760166
-67.972878 45.750553 18.509642
-67.949959 45.731461 18.241819
-67.928871 45.740967 17.999493
-67.907074 45.731564 17.746162
-67.886642 45.743347 17.511679
-67.865517 45.736156 17.266396
-67.845703 45.750599 17.039461
-67.825218 45.745998 16.801928
-67.805984 45.763462 16.582232
-67.78537 45.745155 16.341087
-67.766342 45.757523 16.123003
-67.746704 45.75061 15.894862
-67.727531 45.749565 15.673047
-67.708817 45.754539 15.457363
-67.690201 45.757122 15.242457
-67.671349 45.74873 15.023273
-67.652946 45.746536 14.810075
-67.634644 45.741997 14.59773
-67.616753 45.743862 14.391118
-67.599258 45.752277 14.190038
-67.581841 45.75856 13.989577
-67.563942 45.744995 13.780505
-67.546989 45.755863 13.586054
-67.529831 45.755772 13.387662
-67.512772 45.753593 13.189977
-67.495544 45.740326 12.988703
-67.479416 45.761139 12.805285
-67.462372 45.743759 12.605529
-67.446609 45.769905 12.427118
-67.429298 45.730179 12.220882
-67.414101 45.771004 12.051237
-67.397858 45.764084 11.862281
-67.381905 45.764507 11.677792
-67.36602 45.763088 11.493868
-67.35022 45.759838 11.310529
-67.334305 45.745403 11.124273
-67.319359 45.776043 10.955978
-67.303596 45.758022 10.770897
-67.288094 45.747601 10.589905
-67.27282 45.744869 10.412774
-67.257469 45.730919 10.233058
-67.242615 45.743801 10.063121
-67.227669 45.745537 9.8904667
-67.212776 45.745628 9.7182178
-67.198067 45.753696 9.5491638
-67.183182 45.740929 9.3749962
-67.168671 45.755459 9.2092686
-67.154099 45.758793 9.0411482
-67.139404 45.741173 8.8684616
-67.125099 45.760788 8.7058582
-67.110672 45.75946 8.5387173
-67.096291 45.756596 8.3719301
-67.08197 45.75219 8.205513
-67.067749 45.756054 8.0414934
-67.053528 45.748615 7.8757701
-67.03936 45.739662 7.7104573
-67.025246 45.729198 7.5455685
-67.011238 45.746807 7.3861389
-66.997208 45.713638 7.2187061
-68.393799 45.796707 22.883749
-68.36602 45.796288 22.562141
-68.336861 45.770283 22.220945
-68.309967 45.768417 21.909372
-68.281731 45.74078 21.57856
-68.255699 45.737942 21.276846
-68.229836 45.731213 20.976501
-68.205605 45.742867 20.697643
-68.18055 45.73608 20.406603
-68.156136 45.733124 20.123493
-68.13327 45.749374 19.861151
-68.109612 45.747128 19.586874
-68.08564 45.733772 19.307463
-68.063629 45.747948 19.05463
-68.040413 45.735649 18.784016
-68.018219 45.735737 18.527058
-67.996162 45.732719 18.271204
-67.974243 45.726612 18.016487
-67.953293 45.733486 17.774847
-67.933273 45.753677 17.545895
-67.910934 45.722477 17.282751
-67.891144 45.737133 17.055603
-67.871056 45.740978 16.823521
-67.8507 45.733868 16.586746
-67.831596 45.748981 16.367624
-67.811844 45.744904 16.138271
-67.792572 45.74662 15.915287
-67.773407 45.745823 15.693174
-67.7547 45.751041 15.477194
-67.735748 45.745308 15.25683
-67.716911 45.73711 15.037417
-67.698181 45.72646 14.818982
-67.680214 45.730759 14.611416
-67.662651 45.74155 14.409433
-67.644852 45.741413 14.203266
-67.628052 45.765511 14.011986
-67.610428 45.76107 13.807153
-67.592331 45.736633 13.594032
-67.575745 45.754555 13.40443
-67.558685 45.75259 13.20643
-67.54171 45.748543 13.009156
-67.524826 45.742435 12.812629
-67.508278 45.743366 12.62103
-67.492294 45.760582 12.438225
-67.475197 45.730179 12.235742
-67.459351 45.743603 12.054016
-67.443336 45.745998 11.868818
-67.427605 45.755806 11.687927
-67.411736 45.754536 11.503759
-67.396126 45.760761 11.323774
-67.380394 45.755859 11.140708
-67.364731 45.749146 10.958259
-67.349327 45.750042 10.779801
-67.333984 45.749207 10.601832
-67.318542 45.737164 10.421178
-67.30349 45.742355 10.247428
-67.28849 45.745888 10.074051
-67.273407 45.738216 9.898119
-67.258781 45.757599 9.7313385
-67.24382 45.746628 9.5563135
-67.229271 45.762867 9.3899698
-67.214218 45.729317 9.2106934
-67.199669 45.732723 9.0424871
-67.185249 45.744263 8.8770342
-67.170952 45.764008 8.7140951
-67.156296 45.733597 8.5397959
-67.142067 45.750309 8.3772974
-67.127869 45.765564 8.2148275
-67.113579 45.759766 8.0483637
-67.099304 45.742634 7.880363
-67.085205 45.753429 7.7184839
-67.071075 45.743092 7.5531631
-67.056999 45.731247 7.388279
-67.042969 45.708027 7.2222548
-68.389244 45.809193 22.282598
-68.360199 45.779194 21.942636
-68.333412 45.773602 21.632093
-68.306793 45.763973 21.322996
-68.279366 45.735615 21.001886
-68.255089 45.747536 20.722706
-68.229973 45.741013 20.431347
-68.205498 45.738316 20.147913
-68.182594 45.754826 19.885241
-68.159348 45.760479 19.617064
-68.135773 45.755135 19.343616
-68.112343 45.746395 19.071432
-68.089073 45.734291 18.80055
-68.066833 45.73457 18.543322
-68.046028 45.755501 18.305462
-68.023186 45.733795 18.038225
-68.00219 45.740906 17.796236
-67.980888 45.737099 17.549292
-67.960533 45.74662 17.315063
-67.93988 45.745251 17.075941
-67.919746 45.749317 16.843502
-67.899727 45.75071 16.611967
-67.879433 45.741116 16.375841
-67.860756 45.76228 16.162626
-67.840332 45.738991 15.923069
-67.820053 45.712906 15.684822
-67.802032 45.735134 15.479304
-67.784081 45.75515 15.274267
-67.764847 45.738548 15.049401
-67.74707 45.754002 14.845692
-67.729362 45.767277 14.642531
-67.710457 45.743446 14.420516
-67.692619 45.743458 14.214045
-67.675179 45.750069 14.013048
-67.657524 45.745686 13.808064
-67.639961 45.739109 13.603893
-67.623627 45.766109 13.418452
-67.60569 45.737381 13.20688
-67.589218 45.751427 13.018085
-67.572289 45.745449 12.821245
-67.556206 45.76469 12.637651
-67.539185 45.745598 12.438048
-67.523232 45.761051 12.255415
-67.506638 45.747112 12.061368
-67.490807 45.758858 11.87969
-67.475037 45.76881 11.698398
-67.459106 45.767685 11.513828
-67.442848 45.746067 11.322641
-67.427277 45.750568 11.142932
-67.411766 45.753315 10.963676
-67.396141 45.744896 10.781539
-67.38076 45.744129 10.603325
-67.36528 45.732151 10.422426
-67.350189 45.737408 10.248429
-67.335304 45.750538 10.077829
-67.320038 45.733395 9.8986254
-67.304985 45.724091 9.7230167
-67.290504 45.751526 9.5590963
-67.275681 45.748589 9.3870335
-67.260811 45.734371 9.2128115
-67.246216 45.73785 9.0442696
-67.231865 45.759159 8.8809185
-67.217255 45.749836 8.7104893
-67.202881 45.7584 8.5451097
-67.188385 45.745941 8.3755426
-67.174026 45.74168 8.2086134
-67.159775 45.745682 8.0440826
-67.145462 45.728565 7.8759151
-67.13134 45.73938 7.7138648
-67.117317 45.768433 7.5554156
-67.103096 45.727081 7.3849969
-67.089035 45.71376 7.2203088
-68.360695 45.80822 21.378807
-68.334137 45.795082 21.070576
-68.307266 45.770527 20.757193
-68.281563 45.756847 20.458763
-68.257973 45.769485 20.188057
-68.232597 45.748413 19.892401
-68.208344 45.738861 19.611177
-68.184715 45.73349 19.337669
-68.162613 45.748005 19.084297
-68.139709 45.743851 18.819374
-68.117844 45.752193 18.567965
-68.096092 45.757534 18.317516
-68.073166 45.735958 18.050013
-68.052956 45.759262 17.819643
-68.030319 45.731453 17.554649
-68.009499 45.732925 17.314404
-67.990013 45.75613 17.092352
-67.969009 45.743916 16.848228
-67.949318 45.75367 16.622072
-67.928955 45.744198 16.385664
-67.90947 45.748737 16.161257
-67.889725 45.742321 15.932316
-67.870453 45.74176 15.709695
-67.851295 45.738701 15.487969
-67.83329 45.758839 15.282631
-67.81398 45.742348 15.057475
-67.795471 45.740616 14.843453
-67.777725 45.753922 14.640141
-67.759727 45.756321 14.432546
-67.741821 45.756481 14.225697
-67.723694 45.745594 14.014915
-67.706581 45.758999 13.818953
-67.689537 45.770367 13.623496
-67.671989 45.761822 13.419627
-67.654816 45.760086 13.221008
-67.637184 45.738232 13.014487
-67.620735 45.750381 12.825966
-67.603569 45.733345 12.625427
-67.587013 45.732452 12.433988
-67.571259 45.757084 12.255189
-67.55484 45.752388 12.064828
-67.538956 45.764214 11.882829
-67.522247 45.73719 11.686184
-67.5065 45.745304 11.505293
-67.490814 45.751648 11.324822
-67.475182 45.756222 11.144789
-67.459419 45.749649 10.961776
-67.444283 45.769524 10.789452
-67.428474 45.749977 10.60421
-67.413437 45.766491 10.432549
-67.397789 45.743374 10.248661
-67.382698 45.747028 10.074707
-67.367805 45.758583 9.9040785
-67.352531 45.739796 9.7251205
-67.337868 45.757698 9.5580034
-67.32299 45.754803 9.3856087
-67.308167 45.750282 9.2136631
-67.293617 45.763496 9.0472231
-67.278793 45.746094 8.8736153
-67.264328 45.756203 8.7077265
-67.249718 45.745323 8.5374737
-67.235252 45.742611 8.3699255
-67.220917 45.748131 8.2048435
-67.206543 45.742359 8.0379601
-67.192276 45.744873 7.8733997
-67.178001 45.736061 7.7072363
-67.16378 45.725735 7.5414958
-67.14975 45.753334 7.3828764
-67.135506 45.700558 7.211339
-68.355476 45.802391 20.796898
-68.32972 45.789063 20.497957
-68.304626 45.779446 20.207064
-68.278732 45.75095 19.9046
-68.254929 45.749172 19.629538
-68.23127 45.743977 19.355698
-68.208214 45.743149 19.089409
-68.186211 45.754692 18.836723
-68.163872 45.755341 18.578815
-68.14077 45.737026 18.309843
-68.119576 45.747311 18.066334
-68.097633 45.738674 17.811829
-68.076668 45.743141 17.570274
-68.055817 45.744781 17.329676
-68.035904 45.759972 17.101526
-68.014473 45.739632 16.85146
-67.994766 45.749443 16.625086
-67.97438 45.740032 16.388464
-67.954506 45.736252 16.15839
-67.935867 45.755119 15.945423
-67.916199 45.746239 15.717136
-67.897377 45.751797 15.500342
-67.878288 45.746395 15.279171
-67.858955 45.729908 15.053873
-67.841125 45.745487 14.849704
-67.823357 45.758888 14.646084
-67.805008 45.752644 14.433334
-67.787086 45.752853 14.226256
-67.769562 45.759655 14.024645
-67.751511 45.746601 13.81443
-67.733856 45.740166 13.609728
-67.717186 45.758377 13.419259
-67.699135 45.729736 13.207244
-67.683167 45.761921 13.026589
-67.665596 45.737995 12.820666
-67.648941 45.739147 12.628282
-67.632607 45.747452 12.440598
-67.615845 45.735538 12.245419
-67.599663 45.740002 12.058892
-67.583771 45.751827 11.876727
-67.567711 45.752594 11.691194
-67.551498 45.742207 11.50255
-67.536011 45.757908 11.325425
-67.519943 45.743816 11.138043
-67.504562 45.756016 10.961728
-67.488464 45.728836 10.772332
-67.473198 45.737541 10.596976
-67.457985 45.744572 10.421961
-67.442818 45.749928 10.247301
-67.427704 45.753624 10.073013
-67.412483 45.746101 9.8961792
-67.397331 45.736881 9.7199144
-67.382393 45.73558 9.5470028
-67.36763 45.742275 9.3772097
-67.353035 45.757046 9.2102995
-67.338127 45.741257 9.0359678
-67.323502 45.743206 8.8671474
-67.308922 45.743595 8.6986532
-67.294388 45.742432 8.5304985
-67.279907 45.739712 8.3626976
-67.265549 45.745232 8.1973581
-67.251152 45.739449 8.0302219
-67.23687 45.741951 7.8654046
-67.222626 45.742958 7.7008262
-67.208366 45.732632 7.5347481
-67.19429 45.75037 7.3741074
-67.180023 45.707443 7.2039161
-68.296814 45.760078 19.64761
-68.274155 45.77047 19.386133
-68.250221 45.754391 19.106796
-68.227356 45.750465 18.841328
-68.204636 45.743294 18.577061
-68.182495 45.740829 18.320108
-68.161369 45.751228 18.076313
-68.139908 45.750729 17.827467
-68.118149 45.739185 17.573811
-68.097778 45.749016 17.338791
-68.076691 45.739758 17.093157
-68.056541 45.744072 16.859995
-68.036896 45.753986 16.633324
-68.016167 45.73634 16.390896
-67.996727 45.74099 16.16604
-67.977768 45.751534 15.947398
-67.958153 45.742699 15.718888
-67.939018 45.739784 15.496642
-67.919632 45.725815 15.270172
-67.901421 45.735111 15.060017
-67.883636 45.750786 14.855535
-67.865242 45.74688 14.641756
-67.847282 45.749374 14.433698
-67.829086 45.740841 14.221616
-67.811623 45.747643 14.019841
-67.794235 45.752316 13.818707
-67.776627 45.745956 13.613691
-67.759407 45.746357 13.413976
-67.742851 45.762623 13.22373
-67.725494 45.749893 13.02098
-67.708794 45.753136 12.827586
-67.692169 45.754387 12.634801
-67.675354 45.744534 12.438574
-67.659134 45.750977 12.251134
-67.642975 45.755539 12.064201
-67.626648 45.748989 11.873965
-67.610626 45.749779 11.688185
-67.594673 45.748711 11.502967
-67.578796 45.7458 11.318331
-67.563187 45.75042 11.1378
-67.54744 45.743885 10.954298
-67.532158 45.754379 10.778117
-67.51635 45.734829 10.592477
-67.501183 45.741871 10.417206
-67.485886 45.737732 10.239195
-67.471146 45.760475 10.070763
-67.455635 45.733868 9.8877335
-67.440826 45.743797 9.7169952
-67.425911 45.742519 9.543745
-67.411049 45.739609 9.3709297
-67.396118 45.72541 9.1959677
-67.381615 45.738583 9.0291739
-67.366913 45.730831 8.8576679
-67.352486 45.740913 8.6913424
-67.33799 45.739738 8.5229292
-67.323624 45.746773 8.3570442
-67.30938 45.762074 8.1934471
-67.294853 45.736721 8.0218744
-67.28054 45.729389 7.854877
-67.266396 45.740192 7.6919565
-67.252068 45.710152 7.5221252
-67.238037 45.72784 7.3613858
-68.313896 45.788033 19.411816
-68.290993 45.787727 19.144632
-68.268219 45.784149 18.878611
-68.243774 45.745823 18.589205
-68.221748 45.743484 18.331968
-68.199409 45.730068 18.069857
-68.178513 45.737572 17.826868
-68.156868 45.726051 17.573065
-68.137039 45.744038 17.343687
-68.117302 45.759411 17.115011
-68.096016 45.739235 16.864443
-68.076874 45.757511 16.643124
-68.056633 45.74831 16.405914
-68.036514 45.736359 16.169807
-68.017662 45.746971 15.950931
-67.998512 45.746677 15.727484
-67.980209 45.760921 15.515369
-67.96125 45.755714 15.293591
-67.943115 45.765255 15.082901
-67.92366 45.737885 14.852906
-67.906387 45.760094 14.653725
-67.887177 45.72776 14.425905
-67.869728 45.736771 14.223273
-67.852676 45.752457 14.025948
-67.834747 45.739491 13.815267
-67.817535 45.74205 13.614626
-67.800407 45.7425 13.414668
-67.783646 45.749836 13.219793
-67.766953 45.755161 13.025486
-67.750328 45.758488 12.831767
-67.733498 45.750725 12.634512
-67.717293 45.759178 12.446174
-67.70063 45.747402 12.250352
-67.684059 45.733597 12.055356
-67.668297 45.745491 11.872686
-67.652122 45.737049 11.682909
-67.636482 45.745285 11.501186
-67.620453 45.733078 11.312716
-67.605148 45.747063 11.135514
-67.589478 45.740555 10.951762
-67.574265 45.75108 10.775323
-67.558533 45.731556 10.589436
-67.543617 45.748104 10.417082
-67.52803 45.724998 10.23255
-67.513206 45.738205 10.060924
-67.49826 45.740246 9.8865938
-67.483208 45.731045 9.7098236
-67.468376 45.729759 9.5363998
-67.45359 45.726837 9.363409
-67.439247 45.751259 9.1986465
-67.424301 45.725792 9.0213022
-67.409912 45.737427 8.8544703
-67.395325 45.728092 8.683116
-67.380905 45.726902 8.5145264
-67.366714 45.743679 8.3506317
-67.352455 45.749203 8.18468
-67.338066 45.733624 8.0149403
-67.323814 45.726292 7.847681
-67.309677 45.727257 7.6826625
-67.295631 45.736576 7.5196409
-67.281509 45.72472 7.3533969
-68.324944 45.795338 19.166718
-68.300987 45.76852 18.881702
-68.278557 45.761757 18.616724
-68.257156 45.767628 18.365133
-68.234985 45.754532 18.102522
-68.212952 45.738251 17.841217
-68.192345 45.743065 17.59885
-68.171837 45.745041 17.357437
-68.151443 45.744202 17.117008
-68.130341 45.724079 16.866285
-68.110992 45.734127 16.639219
-68.091728 45.741604 16.412941
-68.072166 45.73814 16.182039
-68.053474 45.748901 15.962853
-68.034119 45.740276 15.733807
-68.015236 45.737572 15.511019
-67.99646 45.732372 15.289153
-67.9785 45.74192 15.078369
-67.960258 45.740524 14.863268
-67.942116 45.736771 14.649014
-67.924408 45.739414 14.440475
-67.906448 45.731026 14.227915
-67.889549 45.746799 14.030342
-67.872398 45.751652 13.828642
-67.855019 45.745472 13.623066
-67.838326 45.75499 13.427239
-67.821114 45.744514 13.223202
-67.803993 45.731869 13.020044
-67.787529 45.735199 12.826232
-67.7714 45.745632 12.637172
-67.755333 45.754162 12.44858
-67.738808 45.742455 12.252508
-67.72287 45.747128 12.065072
-67.706993 45.74992 11.878161
-67.691185 45.750843 11.691794
-67.675209 45.740608 11.502328
-67.659973 45.756462 11.324349
-67.643921 45.733143 11.132642
-67.628799 45.745453 10.955553
-67.613518 45.746639 10.775434
-67.598289 45.746078 10.595802
-67.582748 45.724808 10.410329
-67.567833 45.730225 10.234978
-67.552795 45.724438 10.056991
-67.538315 45.745621 9.8883314
-67.523216 45.726902 9.7083759
-67.508804 45.744881 9.540206
-67.493843 45.722778 9.3614368
-67.479637 45.747238 9.1964054
-67.465187 45.750847 9.0263214
-67.450531 45.733475 8.8517027
-67.436401 45.753342 8.6870985
-67.421761 45.723015 8.5112295
-67.4076 45.730061 8.3448973
-67.393379 45.725811 8.1766787
-67.379364 45.739613 8.0128403
-67.365219 45.732319 7.8452301
-67.351196 45.733322 7.6798577
-67.337265 45.742676 7.5164804
-67.323189 45.720985 7.3482285
-67.309143 45.687874 7.1790285
-68.33326 45.78986 18.918905
-68.311111 45.783466 18.653423
-68.288635 45.765907 18.383099
-68.267189 45.761002 18.126192
-68.244568 45.728901 17.85264
-68.223816 45.725773 17.604174
-68.203171 45.719707 17.356798
-68.184311 45.743473 17.133448
-68.164291 45.740021 16.893723
-68.144783 45.742069 16.660622
-68.124977 45.733109 16.422939
-68.105286 45.721397 16.186359
-68.086479 45.723816 15.961639
-68.06739 45.715229 15.732497
-68.049141 45.721085 15.514829
-68.030983 45.724541 15.297935
-68.01326 45.734215 15.086905
-67.994919 45.724289 14.866563
-67.97702 45.720612 14.652138
-67.959892 45.732079 14.448265
-67.942169 45.723808 14.235456
-67.925179 45.730873 14.032945
-67.908585 45.744671 13.83568
-67.891113 45.729694 13.625319
-67.874359 45.730335 13.42486
-67.857674 45.728878 13.225102
-67.841354 45.734352 13.030369
-67.824814 45.728764 12.832001
-67.808632 45.730202 12.63854
-67.793053 45.747929 12.453834
-67.776741 45.73632 12.257504
-67.760765 45.731888 12.065906
-67.744858 45.725506 11.874991
-67.729744 45.744999 11.696012
-67.713974 45.734852 11.506284
-67.698502 45.732128 11.32088
-67.683098 45.727562 11.136074
-67.668175 45.73996 10.958722
-67.652687 45.722378 10.771666
-67.637871 45.731293 10.595188
-67.623093 45.738518 10.419051
-67.608177 45.734558 10.240178
-67.593323 45.72887 10.061843
-67.578697 45.73103 9.8869839
-67.563957 45.721943 9.7096863
-67.549583 45.730377 9.5384893
-67.534958 45.717953 9.3622112
-67.520668 45.72316 9.1917286
-67.506424 45.726784 9.0215425
-67.492218 45.728832 8.8516674
-67.47805 45.729313 8.6821175
-67.463921 45.728226 8.5129061
-67.449837 45.725578 8.3440485
-67.43589 45.731163 8.1776419
-67.421974 45.735233 8.011447
-67.407921 45.718166 7.8416524
-67.394157 45.729031 7.6779194
-67.380409 45.738426 7.5142674
-67.366508 45.716774 7.3457437
-68.321396 45.787445 18.420053
-68.299797 45.774925 18.15663
-68.278755 45.767246 17.900442
-68.257843 45.756496 17.645451
-68.236633 45.734562 17.385895
-68.216797 45.734062 17.144917
-68.197067 45.730759 16.904951
-68.177841 45.732952 16.67161
-68.158714 45.732475 16.439196
-68.139687 45.729336 16.207737
-68.12114 45.731991 15.982627
-68.102676 45.732117 15.758383
-68.083946 45.721203 15.529816
-68.065681 45.716267 15.307458
-68.048576 45.734692 15.101248
-68.03083 45.733597 14.885575
-68.013176 45.730137 14.67075
-67.996284 45.741817 14.466475
-67.97847 45.724972 14.248499
-67.961075 45.714546 14.036283
-67.945045 45.737293 13.843453
-67.927818 45.722435 13.632838
-67.911301 45.723198 13.432125
-67.894852 45.721851 13.232113
-67.879349 45.745487 13.045722
-67.862747 45.731022 12.842719
-67.847069 45.741707 12.653064
-67.831436 45.750481 12.463877
-67.815079 45.729843 12.263226
-67.799576 45.734718 12.07527
-67.783142 45.70076 11.872545
-67.768509 45.729553 11.697207
-67.753197 45.728775 11.510961
-67.738167 45.735481 11.328875
-67.722969 45.731037 11.143724
-67.707832 45.724766 10.959189
-67.69297 45.726093 10.778624
-67.67836 45.735119 10.601798
-67.663406 45.723495 10.418968
-67.648705 45.719589 10.239911
-67.634415 45.733025 10.067405
-67.61982 45.725727 9.8892708
-67.605606 45.735889 9.7173862
-67.59127 45.734837 9.5429955
-67.576683 45.712868 9.3636913
-67.562744 45.727802 9.195528
-67.548416 45.712158 9.0199766
-67.534546 45.723949 8.8523359
-67.520576 45.724491 8.6825132
-67.50676 45.733208 8.5152826
-67.492859 45.730637 8.3460684
-67.479103 45.736294 8.1793032
-67.465187 45.72084 8.0087547
-67.451591 45.733253 7.8445086
-67.437935 45.734367 7.6785035
-67.424301 45.733978 7.5127506
-67.410706 45.73209 7.3472629
-68.333725 45.787815 18.188335
-68.312477 45.77243 17.925772
-68.291779 45.761955 17.67041
-68.272041 45.764709 17.427868
-68.251167 45.740067 17.169128
-68.232048 45.745266 16.934441
-68.212227 45.731197 16.689484
-68.193306 45.730927 16.45676
-68.174484 45.727997 16.224993
-68.156525 45.739288 16.004936
-68.13826 45.739662 15.780307
-68.119354 45.720467 15.546134
-68.101646 45.7243 15.328604
-68.084373 45.734348 15.116936
-68.066124 45.716129 14.89096
-68.048332 45.704071 14.671049
-68.031982 45.724548 14.471523
-68.015022 45.725372 14.262906
-67.998138 45.723957 14.055055
-67.981651 45.729183 13.852602
-67.964607 45.714462 13.641738
-67.948883 45.73325 13.449688
-67.932304 45.723125 13.244891
-67.916107 45.719856 13.045272
-67.900833 45.741684 12.859059
-67.884483 45.725273 12.656567
-67.869308 45.743267 12.471269
-67.852592 45.704411 12.262395
-67.837799 45.727737 12.082152
-67.822273 45.721607 11.890641
-67.807312 45.732071 11.707319
-67.79216 45.731438 11.520735
-67.776604 45.710278 11.327566
-67.762032 45.724609 11.14932
-67.74749 45.737228 10.971361
-67.732567 45.729294 10.787035
-67.717712 45.719543 10.603357
-67.702919 45.707989 10.420347
-67.688568 45.713657 10.244201
-67.674088 45.708115 10.065417
-67.659828 45.710411 9.89011
-67.645782 45.720638 9.7180452
-67.631454 45.710037 9.5407162
-67.617638 45.726643 9.3720083
-67.603554 45.722389 9.1982327
-67.589516 45.716503 9.0249195
-67.575523 45.708988 8.8520851
-67.561966 45.729027 8.6867542
-67.54818 45.728092 8.5169191
-67.534538 45.735355 8.3496037
-67.520721 45.721539 8.1783199
-67.50705 45.715931 8.0095854
-67.493431 45.708775 7.8412457
-67.480011 45.719746 7.6769681
-67.466537 45.719398 7.5110302
-67.453026 45.707695 7.3437028
-68.334343 45.784317 17.705753
-68.313843 45.771156 17.451115
-68.293877 45.763145 17.203461
-68.274025 45.75222 16.956955
-68.253876 45.730114 16.706049
-68.235054 45.730042 16.473028
-68.215538 45.710541 16.230085
-68.197678 45.721928 16.009874
-68.17952 45.722401 15.785089
-68.161072 45.711826 15.555976
-68.143822 45.724365 15.343355
-68.126274 45.725979 15.126312
-68.108459 45.716557 14.905096
-68.090393 45.695972 14.679957
-68.074142 45.716583 14.480196
-68.057266 45.717537 14.271341
-68.041115 45.733902 14.072628
-68.024384 45.730469 13.865171
-68.007729 45.724815 13.658525
-67.991768 45.734856 13.461621
-67.975258 45.724892 13.256505
-67.958832 45.712753 13.052265
-67.943649 45.734695 12.865808
-67.927086 45.709301 12.658929
-67.911736 45.718235 12.469401
-67.896156 45.716091 12.276376
-67.881172 45.730389 12.091821
-67.865463 45.71516 11.896158
-67.850327 45.716457 11.708844
-67.835495 45.725193 11.525753
-67.820465 45.722801 11.339497
-67.805504 45.718559 11.153836
-67.790817 45.721878 10.972207
-67.776184 45.723427 10.791047
-67.761803 45.732674 10.613626
-67.746864 45.711781 10.427025
-67.732582 45.71756 10.250541
-67.718338 45.721664 10.074426
-67.70414 45.724094 9.8986959
-67.690155 45.734447 9.7262077
-67.675697 45.714359 9.5456972
-67.661476 45.70216 9.3686275
-67.647774 45.717247 9.1999397
-67.634087 45.730789 9.0313787
-67.620003 45.713688 8.8556948
-67.606377 45.724091 8.6876822
-67.592781 45.73296 8.5198374
-67.578972 45.720779 8.3478422
-67.565208 45.707001 8.176383
-67.551613 45.701431 8.0074711
-67.538147 45.704128 7.8408661
-67.524803 45.715149 7.6763253
-67.511551 45.734547 7.5136051
-67.497932 45.703194 7.3425331
-68.33873 45.778168 17.231754
-68.318932 45.767544 16.984812
-68.29966 45.76231 16.744631
-68.280083 45.745956 16.500004
-68.26062 45.726742 16.256618
-68.24205 45.721554 16.025232
-68.22319 45.705254 15.789565
-68.205948 45.720345 15.575946
-68.188766 45.733112 15.362946
-68.16983 45.7005 15.125253
-68.154236 45.743065 14.933907
-68.136208 45.722786 14.708233
-68.119316 45.726212 14.498251
-68.102158 45.71859 14.284244
-68.086082 45.735123 14.085216
-68.069084 45.72298 13.872833
-68.05217 45.708546 13.661414
-68.035973 45.709717 13.459892
-68.020149 45.717762 13.263448
-68.004379 45.723785 13.067565
-67.98867 45.727795 12.872266
-67.972733 45.720707 12.673428
-67.957153 45.720688 12.479434
-67.941628 45.718685 12.286083
-67.926437 45.723919 12.097299
-67.911293 45.727264 11.909036
-67.895706 45.71019 11.713828
-67.880684 45.709721 11.526826
-67.866203 45.726059 11.347562
-67.851517 45.731312 11.16507
-67.837105 45.744175 10.986444
-67.822289 45.736481 10.801451
-67.807526 45.726963 10.617104
-67.793243 45.7346 10.439766
-67.778206 45.702511 10.250423
-67.764603 45.735275 10.083156
-67.749886 45.709152 9.8982344
-67.735611 45.700382 9.7198935
-67.721733 45.709129 9.5476475
-67.707718 45.706638 9.3729935
-67.694229 45.731476 9.2065525
-67.679985 45.706409 9.027545
-67.666534 45.728134 8.861454
-67.652679 45.719196 8.6883402
-67.638741 45.698902 8.5134811
-67.625488 45.725769 8.3501472
-67.611763 45.712067 8.1783419
-67.598198 45.706566 8.0090847
-67.584778 45.709335 7.8421321
-67.571388 45.71059 7.6754174
-67.558022 45.710342 7.508954
-67.544685 45.708591 7.3427553
-68.321716 45.785675 16.545559
-68.302353 45.766914 16.301506
-68.284279 45.770607 16.074812
-68.265511 45.754799 15.838395
-68.247612 45.753323 15.613592
-68.22831 45.715065 15.369132
-68.210968 45.717018 15.151546
-68.193344 45.707924 14.929784
-68.176514 45.713768 14.718849
-68.160103 45.726086 14.51347
-68.143066 45.718655 14.299146
-68.126778 45.726543 14.095113
-68.109894 45.71455 13.882487
-68.09375 45.718067 13.679892
-68.077347 45.71051 13.473515
-68.061325 45.709747 13.272368
-68.046288 45.733952 13.084842
-68.03009 45.720043 12.880695
-68.014557 45.722183 12.685751
-67.998802 45.713192 12.487367
-67.983948 45.729652 12.301734
-67.968315 45.716675 12.104732
-67.953293 45.720139 11.916218
-67.938828 45.740261 11.73573
-67.924149 45.74934 11.551815
-67.908287 45.709949 11.350405
-67.893959 45.724644 11.17124
-67.878967 45.709435 10.982105
-67.864944 45.73003 10.807111
-67.850067 45.711166 10.619253
-67.835907 45.718876 10.44174
-67.82177 45.724895 10.26458
-67.807289 45.710159 10.081773
-67.793243 45.712765 9.905529
-67.779243 45.713703 9.7296848
-67.765457 45.722588 9.5570126
-67.751534 45.72023 9.3819304
-67.737488 45.70657 9.2047043
-67.723656 45.700905 9.030612
-67.710167 45.713013 8.8618393
-67.696556 45.713856 8.6908827
-67.682976 45.713123 8.5202637
-67.669174 45.691296 8.3456612
-67.656052 45.716728 8.1821756
-67.642464 45.701523 8.0105705
-67.629135 45.704357 7.8433533
-67.615746 45.69585 7.6745467
-67.602577 45.705494 7.5096436
-67.589508 45.723526 7.346488
-68.289581 45.767685 15.643506
-68.271515 45.755459 15.414011
-68.253922 45.749256 15.190671
-68.236046 45.731911 14.963299
-68.218269 45.712013 14.737067
-68.201645 45.715809 14.526531
-68.185425 45.726124 14.321498
-68.16893 45.725445 14.112382
-68.152176 45.713665 13.899434
-68.135826 45.708485 13.691982
-68.120193 45.718987 13.494275
-68.103981 45.70948 13.288347
-68.088463 45.715839 13.091895
-68.072998 45.720177 12.896025
-68.057289 45.713409 12.696609
-68.041084 45.686314 12.489842
-68.026657 45.712021 12.308108
-68.011971 45.726765 12.122649
-67.997055 45.730446 11.933724
-67.981407 45.704433 11.734101
-67.966873 45.713554 11.550177
-67.951874 45.702213 11.359498
-67.937668 45.717045 11.180081
-67.923256 45.720757 10.997529
-67.90889 45.722698 10.815441
-67.894569 45.72287 10.633836
-67.879868 45.702324 10.44638
-67.866066 45.717949 10.272137
-67.851685 45.703335 10.089067
-67.837761 45.706062 9.9125652
-67.823685 45.697533 9.7336178
-67.81002 45.706509 9.56077
-67.796387 45.713875 9.3881845
-67.782608 45.709984 9.2132854
-67.768875 45.704453 9.038846
-67.755341 45.706982 8.8673048
-67.741837 45.707932 8.6960859
-67.728508 45.717041 8.5274563
-67.715065 45.714855 8.3568382
-67.70166 45.711102 8.1865854
-67.688286 45.705788 8.0167103
-67.675179 45.718548 7.8510566
-67.661758 45.700329 7.6799831
-67.648598 45.70023 7.5129871
-67.63546 45.698627 7.3462548
-68.318436 45.772186 15.44025
-68.300476 45.757656 15.211388
-68.282982 45.749207 14.98863
-68.26593 45.74699 14.771779
-68.248955 45.742401 14.555789
-68.231705 45.726677 14.335917
-68.214546 45.708534 14.117108
-68.198158 45.705719 13.908616
-68.181511 45.691772 13.696391
-68.166237 45.711315 13.502985
-68.150368 45.710926 13.301199
-68.134247 45.699409 13.095826
-68.119423 45.721954 12.908242
-68.103737 45.715355 12.708507
-68.08783 45.697548 12.505484
-68.072853 45.705116 12.315376
-68.058197 45.719978 12.129676
-68.042496 45.696072 11.929029
-68.028206 45.716419 11.748129
-68.013428 45.716419 11.560132
-67.998695 45.71455 11.372709
-67.983765 45.701462 11.182376
-67.969147 45.695862 10.996236
-67.954819 45.697845 10.814063
-67.940758 45.707512 10.635629
-67.926506 45.706001 10.454353
-67.912308 45.702736 10.273593
-67.898361 45.70726 10.096373
-67.884445 45.710106 9.9195337
-67.870186 45.692108 9.7374077
-67.856552 45.701172 9.5643063
-67.842575 45.689358 9.386116
-67.829002 45.695164 9.2137203
-67.815628 45.709045 9.0441246
-67.801949 45.701981 8.8698206
-67.788315 45.693283 8.6960049
-67.775162 45.712189 8.529458
-67.761734 45.710075 8.3585825
-67.748474 45.716175 8.190155
-67.734856 45.691349 8.0159378
-67.721786 45.704159 7.8501105
-67.708603 45.70565 7.6825199
-67.69545 45.705627 7.5151782
-67.682228 45.694237 7.3464422
-68.299553 45.774387 14.575577
-68.282875 45.776443 14.364713
-68.265572 45.758583 14.145229
-68.24836 45.738316 13.926833
-68.231575 45.724567 13.71408
-68.21553 45.726418 13.511218
-68.198586 45.699184 13.295918
-68.182999 45.705711 13.098998
-68.16716 45.701149 12.898436
-68.151688 45.703606 12.702772
-68.136269 45.70406 12.507728
-68.120911 45.702522 12.313323
-68.105888 45.708214 12.12348
-68.090363 45.693531 11.926511
-68.075172 45.6861 11.734142
-68.060585 45.695328 11.549812
-68.046288 45.712086 11.369474
-68.031265 45.699017 11.178909
-68.016548 45.693428 10.992533
-68.002365 45.704857 10.813455
-67.988449 45.724022 10.637946
-67.97364 45.703617 10.449924
-67.959351 45.700363 10.268924
-67.945313 45.704899 10.091458
-67.931107 45.698193 9.9114542
-67.917351 45.708931 9.73769
-67.902657 45.669994 9.5503979
-67.889168 45.687016 9.3802319
-67.875511 45.692822 9.2075882
-67.86171 45.687347 9.032733
-67.84861 45.71904 8.8680296
-67.834557 45.690933 8.6891317
-67.821175 45.700092 8.5200777
-67.807671 45.697952 8.3490391
-67.794052 45.68446 8.1762848
-67.780884 45.698761 8.0100641
-67.767471 45.69194 7.8400755
-67.754333 45.703232 7.6741428
-67.741096 45.70319 7.5065498
-67.727676 45.681915 7.3359146
-68.269005 45.764698 13.518772
-68.251823 45.737545 13.302966
-68.236038 45.74416 13.105503
-68.219986 45.739681 12.904408
-68.20369 45.724014 12.699937
-68.188087 45.724476 12.504509
-68.171043 45.677082 12.289854
-68.157036 45.719429 12.115591
-68.141884 45.723186 11.925955
-68.126228 45.706505 11.72939
-68.110916 45.697121 11.537356
-68.096191 45.704475 11.353201
-68.081772 45.719402 11.172965
-68.06662 45.704403 10.98279
-68.052269 45.715786 10.803386
-68.037476 45.706543 10.617811
-68.023201 45.714451 10.439222
-68.008507 45.701633 10.254827
-67.994522 45.71563 10.080117
-67.979935 45.699299 9.8968849
-67.966225 45.719547 9.7257032
-67.95153 45.690159 9.5408707
-67.937683 45.69751 9.3676195
-67.923683 45.693592 9.1920681
-67.910248 45.717072 9.0244598
-67.896133 45.70023 8.8471813
-67.88224 45.691433 8.6728888
-67.868706 45.7005 8.503583
-67.854889 45.688499 8.3301468
-67.841408 45.694454 8.1613874
-67.828079 45.708679 7.9948244
-67.814369 45.691959 7.8226118
-67.801079 45.703152 7.6564231
-67.787804 45.712856 7.490314
-67.774094 45.681625 7.3177228
-68.27153 45.76067 12.901139
-68.239845 45.763725 12.508577
-68.223778 45.753082 12.309281
-68.206894 45.712749 12.099153
-68.191864 45.725643 11.913168
-68.17601 45.708878 11.716391
-68.160789 45.708717 11.527779
-68.145355 45.697342 11.336181
-68.130508 45.702789 11.1523
-68.1157 45.706448 10.968868
-68.101181 45.717751 10.789219
-68.086449 45.71788 10.606653
-68.071762 45.71624 10.424587
-68.056892 45.703331 10.239968
-68.042747 45.717243 10.065008
-68.027977 45.700821 9.8815546
-68.013687 45.701801 9.7044744
-67.999435 45.701107 9.5278091
-67.985222 45.69875 9.3515739
-67.971237 45.704399 9.1783552
-67.9571 45.698757 9.002944
-67.943352 45.710888 8.8328114
-67.929451 45.711739 8.6605158
-67.915421 45.701252 8.4863272
-67.901588 45.698914 8.314806
-67.887932 45.704784 8.1457129
-67.874161 45.699318 7.9748535
-67.860428 45.692291 7.8043885
-67.846725 45.683704 7.6343331
-67.833176 45.683418 7.4664202
-67.819771 45.691483 7.3004065
-68.239052 45.74514 11.911258
-68.223343 45.737667 11.717815
-68.207703 45.728245 11.525091
-68.192673 45.735569 11.340214
-68.176613 45.70359 11.141876
-68.161949 45.716602 10.961596
-68.146545 45.699585 10.77169
-68.131714 45.6996 10.58905
-68.11692 45.697849 10.406912
-68.102646 45.713375 10.231414
-68.087479 45.689087 10.044203
-68.073265 45.701229 9.8694582
-68.058647 45.692554 9.6893215
-68.044502 45.701393 9.5152264
-68.029968 45.689327 9.3361053
-68.015884 45.694889 9.1627207
-68.001633 45.689156 8.987154
-67.987785 45.701199 8.8168507
-67.973602 45.692226 8.6420851
-67.959801 45.701126 8.4722738
-67.945862 45.698711 8.3005075
-67.931946 45.694721 8.1291084
-67.918213 45.698963 7.9600587
-67.904221 45.682034 7.787468
-67.890549 45.683186 7.6190534
-67.876892 45.682816 7.450891
-67.86338 45.690796 7.2846212
-68.222351 45.74984 11.152271
-68.207085 45.744167 10.964561
-68.191353 45.717781 10.770873
-68.176468 45.717831 10.587825
-68.160881 45.687637 10.395861
-68.146576 45.703114 10.22019
-68.131828 45.697853 10.038775
-68.116898 45.681282 9.8550234
-68.102692 45.691715 9.6804237
-68.088287 45.690903 9.5033512
-68.073715 45.67878 9.3240719
-68.059799 45.693951 9.1530724
-68.045311 45.67849 8.9747877
-68.031441 45.690472 8.8043089
-68.01722 45.681438 8.6293821
-68.003387 45.690277 8.4593973
-67.989571 45.697567 8.2895975
-67.975464 45.683743 8.1159
-67.961693 45.687916 7.9466786
-67.947807 45.68074 7.7758064
-67.93409 45.681839 7.6071358
-67.920525 45.691269 7.4404244
-67.906845 45.689342 7.2721882
-68.220123 45.75322 10.597731
-68.205246 45.751629 10.414604
-68.190659 45.757793 10.235045
-68.175636 45.743164 10.049916
-68.160439 45.717159 9.8626175
-68.144867 45.670124 9.6706123
-68.130913 45.688515 9.4988928
-68.116966 45.70533 9.3272705
-68.102623 45.701241 9.1506577
-68.088127 45.685806 8.9720392
-68.074059 45.688103 8.7988348
-68.060204 45.698528 8.628252
-68.046181 45.697651 8.4556255
-68.032196 45.69519 8.2833519
-68.018234 45.691143 8.1114464
-68.004311 45.685524 7.9399223
-67.990562 45.68816 7.770668
-67.976845 45.689262 7.6016536
-67.963005 45.678989 7.43119
-67.949203 45.667164 7.2611651
-68.215752 45.747402 10.056947
-68.186615 45.74176 9.6965847
-68.172005 45.731564 9.5157824
-68.157013 45.700352 9.330307
-68.142715 45.696339 9.1534367
-68.128654 45.700356 8.979496
-68.114243 45.683346 8.8010979
-68.100609 45.703575 8.632555
-68.086273 45.683285 8.4551563
-68.07251 45.690636 8.2848368
-68.058594 45.686653 8.1126709
-68.044708 45.681095 7.9408865
-68.030861 45.673965 7.7694979
-68.017036 45.665272 7.5985193
-68.003662 45.684578 7.4330716
-67.990028 45.682686 7.2643147
-68.212502 45.753307 9.5337906
-68.198219 45.75124 9.35571
-68.183556 45.728168 9.1729631
-68.169556 45.732407 8.9984255
-68.155197 45.715614 8.8194218
-68.140709 45.687401 8.6387749
-68.12664 45.676968 8.4634085
-68.112793 45.674675 8.2906961
-68.099136 45.680584 8.1203966
-68.085495 45.684948 7.9503083
-68.071571 45.668129 7.77669
-68.057838 45.65955 7.605443
-68.044411 45.669113 7.4380312
-68.030869 45.667316 7.269093
-68.20974 45.755238 9.0130091
-68.195679 45.748329 8.8358717
-68.181664 45.739769 8.6592226
-68.167496 45.719818 8.4808588
-68.153557 45.707958 8.3053198
-68.139839 45.704254 8.1323652
-68.125816 45.679363 7.9558601
-68.112167 45.672466 7.7838492
-68.098839 45.68367 7.6158338
-68.085098 45.663818 7.4427738
-68.071671 45.662113 7.2735667
-68.19297 45.742092 8.3161821
-68.179169 45.728748 8.1405697
-68.165741 45.733387 7.9694366
-68.152168 45.726658 7.7966452
-68.138786 45.728188 7.6260552
-68.124832 45.68877 7.4488797
-68.111511 45.687168 7.2791467
-68.193298 45.741348 7.8024497
-68.179947 45.742981 7.6314268
-68.166321 45.723366 7.457233
-68.15274 45.702156 7.2836452
-68.557365 45.682079 7.3210859
-68.416534 45.63092 5.6172843
-68.403099 45.67239 5.4519987
-68.389328 45.682476 5.2844424
-68.375191 45.651138 5.1149435
-68.361099 45.618301 4.9460711
-68.59861 45.669483 7.3109131
-68.458809 45.71759 5.6126184
-68.403137 45.714931 4.9376159
-68.389069 45.690575 4.7685552
-68.374962 45.654732 4.5997734
-68.361092 45.647404 4.4319978
-68.347115 45.61861 4.264327
-70.582237 45.712891 30.943218
-68.640961 45.634949 7.3085728
-68.502182 45.703266 5.61167
-68.391571 45.71455 4.2622323
-68.377434 45.654312 4.0941176
-68.363609 45.642605 3.9263232
-68.349747 45.619434 3.7589576
-70.611015 45.705807 31.0061
-70.572403 45.714874 30.53112
-68.684486 45.677971 7.3260999
-68.545746 45.688141 5.6178517
-68.367424 45.674648 3.4242797
-70.630226 45.697983 31.070526
-70.590729 45.695976 30.579082
-70.552711 45.698826 30.105713
-68.7248 45.6618 7.3350754
-68.588028 45.693039 5.6264253
-68.398018 45.633408 3.2613118
-70.643311 45.673904 31.097948
-70.603714 45.666336 30.598267
-70.567627 45.681419 30.140718
-68.766335 45.705719 7.3487139
-68.63047 45.688393 5.6293216
-68.443024 45.629467 3.2603137
-70.660538 45.677818 31.154413
-70.622826 45.682617 30.670403
-70.587234 45.698383 30.212349
-68.672356 45.694126 5.6298122
-68.487251 45.655502 3.2547548
-70.680244 45.667099 31.196217
-70.642303 45.666443 30.703876
-70.606461 45.676613 30.237598
-70.573349 45.704311 29.804934
-68.712578 45.679588 5.6308112
-68.52948 45.641499 3.2531419
-70.705864 45.662998 31.257431
-70.67028 45.680752 30.788832
-70.628822 45.638023 30.250095
-70.599358 45.69619 29.857052
-70.565338 45.706173 29.409805
-70.531403 45.709835 28.964365
-68.754356 45.684586 5.6367793
-68.572601 45.617538 3.2555087
-70.73262 45.636589 31.285109
-70.697334 45.65472 30.816338
-70.659485 45.642258 30.317371
-70.627647 45.676952 29.892149
-70.59259 45.675148 29.428896
-68.795685 45.679695 5.6411715
