# .PCD v0.7 - Point Cloud Data file format
VERSION 0.7
FIELDS x y z
SIZE 4 4 4
TYPE F F F
COUNT 1 1 1
WIDTH 1561
HEIGHT 1
VIEWPOINT 0 0 0 1 0 0 0
POINTS 1561
DATA ascii
-69.231308 46.519535 27.364372
-69.197845 46.53175 26.960041
-68.585243 46.567474 19.546
-68.562767 46.574505 19.274174
-68.539909 46.570465 18.997124
-68.517647 46.570812 18.727579
-68.495979 46.575722 18.465372
-68.477715 46.632805 18.246981
-68.370827 46.588566 16.950195
-68.252289 46.554813 15.512679
-68.234024 46.563667 15.291776
-68.215828 46.570084 15.071618
-68.19809 46.582672 14.857334
-68.180412 46.592937 14.643697
-68.161682 46.57486 14.415874
-68.144531 46.589119 14.208706
-68.026428 46.637085 12.779984
-68.008186 46.588924 12.556601
-69.304527 46.493492 27.773666
-69.274643 46.548504 27.41466
-69.239891 46.548588 26.994343
-68.625275 46.574425 19.559435
-68.603264 46.58926 19.293716
-68.58036 46.585392 19.016335
-68.55806 46.585907 18.746452
-68.535866 46.583134 18.477732
-68.517593 46.64035 18.259043
-68.41185 46.621143 16.978148
-68.291344 46.555046 15.516332
-68.273857 46.580959 15.305698
-68.255219 46.578972 15.079996
-68.236282 46.565872 14.850114
-68.218979 46.58474 14.641421
-68.2006 46.57534 14.418405
-68.183418 46.589649 14.211004
-68.015869 46.641109 12.184111
-67.998184 46.595387 11.967845
-69.335732 46.508114 27.823511
-69.301628 46.520245 27.409311
-69.270149 46.551598 27.027851
-68.655724 46.545624 19.553795
-68.634331 46.56813 19.294439
-68.612038 46.572044 19.023289
-68.591301 46.596046 18.771982
-68.568718 46.585674 18.49674
-68.549583 46.627274 18.265556
-68.442993 46.584 16.966654
-68.425621 46.633446 16.757212
-68.324783 46.551338 15.526505
-68.306564 46.560368 15.305147
-68.288818 46.575508 15.089707
-68.269958 46.562531 14.859593
-68.25235 46.572876 14.645644
-68.235176 46.589596 14.437313
-68.216576 46.569202 14.210036
-68.01915 46.664978 11.810081
-68.001976 46.62434 11.599296
-69.352547 46.485817 27.85203
-69.32254 46.535458 27.484632
-69.289558 46.54882 27.079336
-69.255501 46.543884 26.660189
-68.681519 46.554279 19.59671
-68.660355 46.577232 19.336945
-68.637794 46.573853 19.059061
-68.615829 46.574848 18.788675
-68.593964 46.572552 18.519447
-68.57505 46.614414 18.288055
-68.472252 46.621456 17.022535
-68.452415 46.622158 16.778337
-68.433105 46.628292 16.54076
-68.353432 46.558205 15.557064
-68.334999 46.559063 15.330074
-68.317039 46.565929 15.109151
-68.299545 46.57896 14.894096
-68.281342 46.572392 14.669632
-68.263969 46.580692 14.456038
-68.2463 46.577972 14.23826
-68.232346 46.66053 14.069348
-69.337059 46.517929 27.522562
-69.303314 46.519264 27.101456
-69.270935 46.527313 26.697611
-68.92646 46.598663 22.400036
-68.704597 46.546452 19.628376
-68.682732 46.554394 19.355566
-68.6595 46.535786 19.06489
-68.63929 46.560295 18.813223
-68.618195 46.566143 18.549944
-68.599068 46.600433 18.312166
-68.49852 46.62521 17.057007
-68.478935 46.626282 16.812431
-68.458145 46.599739 16.552
-68.438339 46.586708 16.304127
-68.420723 46.612572 16.084837
-68.362556 46.556847 15.35657
-68.344833 46.564007 15.135333
-68.326012 46.542969 14.899542
-68.309586 46.571045 14.695178
-68.292068 46.57095 14.476312
-68.274628 46.568466 14.258286
-68.261246 46.66 14.093972
-68.16124 46.665512 12.844517
-68.0476 46.56908 11.421284
-68.032104 46.561501 11.22743
-69.351479 46.500149 27.547865
-69.318779 46.508049 27.134344
-69.286232 46.510151 26.722517
-68.706177 46.550865 19.382191
-68.684685 46.555767 19.110168
-68.663284 46.55735 18.839264
-68.642921 46.571331 18.581873
-68.623116 46.590149 18.331511
-68.523849 46.616024 17.075201
-68.504082 46.6091 16.824696
-68.483551 46.582722 16.564093
-68.465683 46.603085 16.338249
-68.446198 46.587513 16.091125
-68.40715 46.539303 15.595293
-68.389183 46.540607 15.367821
-68.371689 46.547916 15.146417
-68.354645 46.561378 14.930885
-68.33728 46.563877 14.71096
-68.319977 46.563972 14.491849
-68.303123 46.570393 14.278459
-68.289574 46.653378 14.109039
-68.189842 46.632919 12.845057
-68.063782 46.575737 11.246337
-68.048256 46.557098 11.049154
-68.033592 46.564491 10.863504
-68.018715 46.560699 10.674822
-68.004379 46.57386 10.493513
-69.377403 46.515244 27.597239
-69.343735 46.511086 27.167753
-69.312012 46.519814 26.763361
-68.734909 46.552765 19.40184
-68.713081 46.550129 19.12322
-68.69326 46.575233 18.870848
-68.671623 46.565979 18.59449
-68.651489 46.577042 18.337795
-68.5355 46.637547 16.858526
-68.515091 46.611496 16.597412
-68.496056 46.607254 16.354404
-68.4767 46.591854 16.106981
-68.420448 46.553959 15.388021
-68.401894 46.535847 15.150689
-68.385361 46.557972 14.940104
-68.368874 46.57785 14.730008
-68.350937 46.560791 14.500595
-68.33419 46.567326 14.286967
-68.32077 46.650421 14.117302
-68.22171 46.630589 12.851869
-68.051956 46.568703 10.682357
-68.022774 46.565189 10.30947
-69.417557 46.521355 27.627197
-69.386276 46.542454 27.228565
-69.351524 46.520107 26.785048
-68.773987 46.556931 19.41814
-68.752136 46.554459 19.139252
-68.731346 46.56414 18.874107
-68.71064 46.570633 18.609976
-68.690964 46.589752 18.359116
-68.534889 46.613274 16.367346
-68.495804 46.571465 15.867761
-68.459167 46.560524 15.399806
-68.441765 46.56818 15.177722
-68.424034 46.564804 14.951293
-68.406761 46.567551 14.730831
-68.389931 46.576561 14.516137
-68.372055 46.557102 14.28749
-68.358276 46.631485 14.112849
-68.260811 46.656631 12.868655
-68.134148 46.564381 11.249333
-68.11924 46.564476 11.058987
-68.104126 46.553337 10.865674
-68.089844 46.568401 10.683496
-68.031815 46.563797 9.9421291
-68.017471 46.560543 9.7588997
-67.98999 46.596622 9.4084654
-67.977615 46.674618 9.2516575
-67.96257 46.626221 9.0586243
-67.947632 46.575905 8.8668575
-69.463661 46.52721 27.656677
-69.429832 46.523552 27.22666
-69.397362 46.52647 26.814001
-68.816383 46.553204 19.42775
-68.79493 46.558578 19.15498
-68.774055 46.568424 18.889566
-68.752777 46.56723 18.618988
-68.732079 46.570656 18.355705
-68.538284 46.594387 15.890691
-68.516953 46.5313 15.618496
-68.499825 46.549908 15.400857
-68.481956 46.549061 15.173449
-68.464554 46.554276 14.952054
-68.447594 46.565697 14.736475
-68.430321 46.566116 14.516603
-68.413483 46.572861 14.302446
-68.398911 46.62989 14.117809
-68.300682 46.646496 12.867904
-68.143845 46.562172 10.870466
-68.128967 46.558559 10.681047
-68.099617 46.555183 10.307352
-68.028908 46.596478 9.4077616
-67.960251 46.663403 8.5345049
-67.945404 46.607876 8.3447218
-69.504601 46.527046 27.678228
-69.470688 46.523567 27.248001
-69.438141 46.526665 26.835127
-68.855637 46.55722 19.443583
-68.833145 46.547276 19.157923
-68.811241 46.541584 18.879889
-68.790894 46.55603 18.621666
-68.770615 46.567406 18.364355
-68.575882 46.583702 15.891839
-68.537727 46.547802 15.406978
-68.519806 46.547043 15.17935
-68.50235 46.552341 14.957733
-68.484962 46.555214 14.736903
-68.468018 46.564354 14.521834
-68.451134 46.571178 14.307452
-68.436165 46.61953 14.117775
-68.337685 46.636341 12.866954
-68.211243 46.581669 11.259976
-68.195374 46.553982 11.058135
-68.180412 46.552269 10.867965
-68.150887 46.552628 10.49279
-68.136566 46.564217 10.31095
-68.122025 46.564602 10.126219
-68.107773 46.572704 9.9451113
-68.078888 46.564648 9.5780401
-68.065392 46.596279 9.4068298
-67.969055 46.677017 8.1833735
-67.955109 46.666821 8.0059652
-67.94088 46.635437 7.8248367
-67.926575 46.592548 7.6425481
-69.543312 46.516342 27.683031
-69.509407 46.512878 27.252695
-69.478081 46.528645 26.855152
-68.895416 46.562511 19.4582
-68.872902 46.552704 19.172276
-68.851967 46.562744 18.906454
-68.831604 46.577442 18.64782
-68.809395 46.557446 18.365673
-68.615898 46.599262 15.90791
-68.577278 46.555183 15.417076
-68.559341 46.554543 15.189152
-68.54187 46.559959 14.967235
-68.523682 46.54567 14.736055
-68.507126 46.563515 14.525782
-68.488716 46.535511 14.291678
-68.474899 46.610062 14.116452
-68.249306 46.553837 11.249066
-68.23484 46.572693 11.065309
-68.219849 46.571083 10.874732
-68.204369 46.548824 10.677842
-68.189743 46.552811 10.492
-68.175674 46.573875 10.313198
-68.160866 46.564854 10.12493
-68.146111 46.553989 9.9373255
-68.104187 46.596638 9.4045362
-67.952911 46.675922 7.4815626
-67.939369 46.678921 7.3093677
-67.924896 46.611481 7.124979
-69.579903 46.518398 27.703468
-69.546646 46.521332 27.280687
-69.514137 46.524658 26.867422
-68.933182 46.575695 19.47909
-68.910187 46.558334 19.186523
-68.88829 46.552914 18.907949
-68.867462 46.559784 18.642998
-68.846718 46.563477 18.379095
-68.613083 46.528667 15.406059
-68.59639 46.553604 15.193644
-68.578133 46.541897 14.961307
-68.560753 46.544857 14.740097
-68.544601 46.571453 14.534534
-68.527718 46.578449 14.319615
-68.512398 46.618214 14.124578
-68.286522 46.553894 11.249084
-68.27179 46.563469 11.061464
-68.256531 46.552505 10.867193
-68.241875 46.558369 10.680574
-68.22699 46.553001 10.491035
-68.212669 46.564655 10.308694
-68.141251 46.58741 9.3991871
-68.044937 46.668205 8.1727228
-68.031319 46.677505 7.9992933
-67.949554 46.670822 6.9579306
-69.611526 46.515949 27.727716
-69.577164 46.50658 27.289164
-69.546593 46.528973 26.898933
-68.967293 46.585819 19.5037
-68.942856 46.54546 19.191879
-68.921524 46.547913 18.919401
-68.899788 46.5392 18.641901
-68.880562 46.566639 18.396225
-68.647934 46.54232 15.424942
-68.630066 46.541801 15.196639
-68.612671 46.547344 14.974339
-68.595726 46.559093 14.757844
-68.578445 46.559826 14.537064
-68.561234 46.558155 14.317118
-68.54673 46.615471 14.131578
-68.417114 46.646294 12.475157
-68.401154 46.640491 12.271261
-68.321434 46.552322 11.252729
-68.307022 46.571289 11.068471
-68.292076 46.569778 10.877401
-68.276901 46.556999 10.683475
-68.262314 46.561111 10.497052
-68.233002 46.554451 10.122413
-68.1763 46.576874 9.3974524
-68.080109 46.648083 8.16749
-68.066895 46.676888 7.9983644
-69.641106 46.502705 27.760691
-69.60936 46.518776 27.353003
-69.577133 46.522846 26.939165
-68.998337 46.550251 19.505074
-68.976524 46.548702 19.224768
-68.954796 46.543713 18.945702
-68.934631 46.558857 18.686432
-68.914055 46.563023 18.421965
-68.682144 46.53347 15.44189
-68.664772 46.541706 15.218528
-68.647461 46.547493 14.995923
-68.6306 46.559483 14.779123
-68.613014 46.551773 14.553086
-68.596268 46.559021 14.337776
-68.581474 46.607796 14.147146
-68.357262 46.547062 11.264872
-68.342354 46.547535 11.073142
-68.327492 46.546116 10.881984
-68.312943 46.552189 10.694866
-68.298164 46.547031 10.504824
-68.269257 46.550068 10.133044
-68.21283 46.573021 9.4070692
-68.117661 46.674271 8.1821699
-68.103966 46.673985 8.0059376
-69.666763 46.460506 27.77844
-69.638939 46.514454 27.417364
-69.606941 46.519295 27.003128
-69.030624 46.53849 19.54014
-69.008957 46.537365 19.25955
-68.988861 46.556175 18.998934
-68.967369 46.548344 18.720654
-68.945976 46.537106 18.443684
-68.929916 46.610001 18.234505
-68.716629 46.52787 15.472235
-68.699379 46.536449 15.24857
-68.682587 46.551167 15.030764
-68.665047 46.546265 14.80353
-68.647575 46.538849 14.577251
-68.631729 46.56382 14.371463
-68.615906 46.586651 14.166073
-68.458031 46.65353 12.118682
-68.427345 46.650997 11.720912
-68.364594 46.556519 10.9088
-68.335167 46.548595 10.527432
-68.250145 46.566452 9.4247799
-69.694 46.450012 27.834854
-69.665192 46.492123 27.457903
-69.634056 46.503834 27.051161
-69.603027 46.509895 26.646044
-69.274948 46.589737 22.360548
-69.06105 46.519573 19.568336
-69.040543 46.534275 19.300169
-69.019127 46.530167 19.020462
-68.999748 46.554012 18.766758
-68.978493 46.543285 18.489357
-68.962097 46.608692 18.273754
-68.86438 46.613873 16.996851
-68.749847 46.522675 15.502104
-68.733131 46.540131 15.283322
-68.715248 46.529457 15.049815
-68.698242 46.533428 14.827452
-68.681686 46.543648 14.610849
-68.664406 46.534107 14.385156
-68.649101 46.56588 14.184502
-68.477539 46.644062 11.940066
-68.414658 46.549389 11.119903
-68.399696 46.539139 10.924531
-68.385635 46.555065 10.740296
-68.286125 46.550537 9.4391289
-69.910225 46.521568 30.285509
-69.698868 46.499817 27.512724
-69.666664 46.499462 27.090128
-69.308105 46.576275 22.381639
-69.09568 46.515984 19.593975
-69.074768 46.523232 19.319214
-69.054436 46.534927 19.0518
-69.033188 46.527725 18.773014
-69.013969 46.548706 18.519999
-68.996231 46.590572 18.285917
-68.785355 46.514748 15.517851
-68.768311 46.523849 15.293658
-68.75132 46.530491 15.070215
-68.734375 46.534691 14.847546
-68.717499 46.536457 14.625677
-68.701454 46.553242 14.414403
-68.685829 46.576557 14.208484
-68.481224 46.549942 11.52025
-68.422386 46.541454 10.747059
-68.408134 46.546314 10.559551
-68.230621 46.671139 8.2225819
-68.217155 46.671333 8.0454798
-69.945145 46.470184 30.246904
-69.738205 46.490238 27.529871
-69.70842 46.515308 27.138027
-69.347427 46.568939 22.396313
-69.253212 46.599625 21.157969
-69.135422 46.517647 19.613293
-69.115005 46.532825 19.344582
-69.094154 46.536983 19.070576
-69.074364 46.553505 18.81007
-69.053185 46.543247 18.53211
-69.035454 46.585255 18.297817
-68.82486 46.519302 15.532649
-68.8078 46.528564 15.308158
-68.790794 46.535366 15.084415
-68.774246 46.548351 14.86648
-68.756943 46.541645 14.639275
-68.740494 46.549866 14.422812
-68.724091 46.555767 14.207046
-68.614922 46.641724 12.769369
-68.538307 46.644176 11.761958
-68.520081 46.547894 11.525367
-68.461189 46.539719 10.751202
-68.418213 46.539597 10.186109
-68.362495 46.555473 9.4528799
-68.255585 46.660717 8.0436382
-68.019897 46.662159 4.9436264
-68.006859 46.632767 4.7730026
-67.993988 46.621838 4.6039724
-69.782829 46.474125 27.53894
-69.751099 46.48035 27.123808
-69.392128 46.575676 22.424755
-69.178589 46.519108 19.632513
-69.156563 46.511284 19.344584
-69.137131 46.538845 19.089268
-69.115768 46.532028 18.809946
-69.09597 46.545498 18.550268
-69.077675 46.579746 18.309654
-68.848549 46.516041 15.312301
-68.832703 46.548676 15.103739
-68.81485 46.535973 14.870332
-68.79747 46.529335 14.642982
-68.781342 46.546341 14.431253
-68.764473 46.543594 14.210458
-68.559555 46.53648 11.5268
-68.530037 46.540997 11.140006
-68.471756 46.536621 10.376636
-68.389778 46.642555 9.2988501
-68.362457 46.661316 8.9402256
-68.057243 46.671616 4.9402828
-68.044334 46.67218 4.7710519
-68.031425 46.671261 4.6019087
-68.018402 46.648869 4.4320598
-68.005516 46.644978 4.2633061
-67.992592 46.629604 4.09445
-67.979729 46.622753 3.9260511
-69.831459 46.467682 27.565817
-69.770866 46.506832 26.775232
-69.43663 46.544418 22.42063
-69.223167 46.503307 19.641228
-69.203072 46.526543 19.378443
-69.183533 46.55444 19.12273
-69.161552 46.540119 18.836823
-69.140656 46.538071 18.564583
-69.121788 46.564537 18.317722
-68.892784 46.52774 15.33427
-68.875183 46.52626 15.104907
-68.858475 46.539501 14.886532
-68.8414 46.541721 14.663845
-68.823586 46.524078 14.432214
-68.807816 46.547661 14.225767
-68.572006 46.547386 11.150668
-68.556915 46.53756 10.954244
-68.484688 46.544647 10.011884
-68.430908 46.650139 9.3062668
-68.416924 46.650833 9.1237803
-68.096199 46.670895 4.9385977
-68.070229 46.670582 4.5997109
-68.057304 46.678185 4.4308171
-68.044319 46.674313 4.2615461
-68.031342 46.668961 4.0924025
-68.018288 46.642128 3.9231124
-67.966606 46.650002 3.2484257
-69.8769 46.470383 27.611248
-69.846756 46.496315 27.218777
-69.289558 46.534908 19.981089
-69.265678 46.508259 19.672024
-69.244995 46.524082 19.402592
-69.222847 46.513306 19.115358
-69.203308 46.538189 18.860441
-69.182327 46.5364 18.587931
-69.162903 46.555172 18.334757
-68.915337 46.519348 15.119184
-68.898979 46.541389 14.905624
-68.881416 46.535149 14.67768
-68.86393 46.526394 14.450707
-68.848099 46.550179 14.243964
-68.737022 46.630054 12.796699
-68.610909 46.543331 11.160567
-68.58094 46.531342 10.771443
-68.552017 46.539963 10.394944
-68.537598 46.541542 10.207393
-68.468971 46.637642 9.3109407
-68.413628 46.659534 8.5903206
-68.399895 46.663261 8.4115725
-68.372292 46.656033 8.0528145
-68.080879 46.673462 4.2616601
-68.067886 46.678143 4.0924888
-68.05468 46.631348 3.9225609
-68.041885 46.68306 3.7540569
-69.91169 46.445621 27.628
-69.880951 46.465485 27.227694
-69.85154 46.49258 26.844238
-69.326286 46.537796 20.014521
-69.300842 46.48848 19.685949
-69.281708 46.527683 19.43535
-69.260063 46.525043 19.15403
-69.238007 46.51112 18.867781
-69.218536 46.533142 18.613552
-69.198128 46.536297 18.348009
-69.102379 46.595226 17.100052
-68.95192 46.528355 15.145873
-68.934715 46.533417 14.92187
-68.91716 46.527367 14.693698
-68.900482 46.536232 14.476267
-68.883842 46.54277 14.259527
-68.870018 46.608593 14.076639
-68.773132 46.6329 12.814916
-68.646614 46.53841 11.17257
-68.616936 46.536087 10.78642
-68.587708 46.53561 10.405964
-68.558891 46.537231 10.030853
-68.50441 46.624466 9.3176823
-68.477058 46.653416 8.9603786
-68.435349 46.650551 8.4174757
-68.421638 46.652721 8.2388706
-68.40815 46.662998 8.062809
-68.394073 46.642368 7.8805246
-68.36718 46.654839 7.52983
-68.168625 46.678585 4.9435315
-68.090309 46.660408 3.9245439
-69.879356 46.460758 26.854717
-69.333359 46.48325 19.714064
-69.31382 46.515026 19.456875
-69.294319 46.543781 19.200365
-69.271339 46.514648 18.901251
-69.250473 46.51334 18.628319
-69.231659 46.540527 18.380781
-69.003296 46.520428 15.393812
-68.985275 46.511032 15.158508
-68.96817 46.516258 14.934349
-68.951523 46.52771 14.715945
-68.934517 46.528103 14.493319
-68.917564 46.526081 14.271532
-68.904617 46.609642 14.097978
-68.807816 46.626263 12.830084
-68.681862 46.533123 11.185737
-68.566261 46.537075 9.6718769
-68.54084 46.639801 9.3339577
-68.444321 46.650257 8.0694475
-68.430908 46.659031 7.8933849
-68.417114 46.646633 7.7134089
-68.403923 46.661987 7.5398664
-68.390366 46.656143 7.3626099
-68.205971 46.667297 4.9469709
-68.128075 46.659489 3.9270499
-68.115013 46.63131 3.7572806
-68.102226 46.671642 3.5878553
-68.037399 46.611099 2.7416191
-69.876015 46.4706 26.506138
-69.344353 46.525639 19.497629
-69.323463 46.531456 19.221935
-69.302643 46.533932 18.947357
-69.281395 46.5252 18.66781
-69.261223 46.52895 18.401697
-69.034393 46.51157 15.412005
-69.017342 46.519547 15.186701
-68.999916 46.516441 14.957116
-68.982971 46.519466 14.733438
-68.966476 46.528774 14.515465
-68.950027 46.535748 14.298181
-68.936394 46.601978 14.114782
-68.840225 46.619709 12.845441
-68.715042 46.527924 11.199077
-68.574936 46.63604 9.344779
-68.479012 46.647358 8.0784483
-68.438683 46.649616 7.546114
-68.425575 46.663506 7.3724408
-68.411942 46.646332 7.1934361
-68.398682 46.647221 7.0184369
-68.384628 46.597202 6.8355699
-68.242027 46.656097 4.9505205
-68.164635 46.648655 3.9295089
-68.151688 46.630531 3.7596157
-68.13903 46.680923 3.5899127
-68.113251 46.677242 3.2498705
-68.100357 46.673168 3.0798864
-68.074516 46.580647 2.7437057
-69.374771 46.498211 19.505852
-69.354973 46.519722 19.242607
-69.333717 46.514603 18.961628
-69.313538 46.521835 18.694183
-69.292938 46.517929 18.421736
-69.049377 46.502773 15.198738
-68.999504 46.529873 14.536827
-68.981895 46.510818 14.304782
-68.968719 46.585938 14.126062
-68.873589 46.62257 12.864319
-68.704826 46.527481 10.634496
-68.60817 46.613358 9.3492937
-68.513008 46.644688 8.0867996
-68.432884 46.645161 7.0252299
-68.418526 46.575508 6.8388333
-68.276627 46.655003 4.9541621
-68.199371 46.63792 3.9314058
-68.186455 46.619846 3.7613299
-69.412407 46.496532 19.529858
-69.391563 46.502739 19.253824
-69.372292 46.52911 18.997484
-69.350578 46.513035 18.711256
-69.330437 46.517269 18.444656
-69.086433 46.505108 15.217926
-69.069458 46.510986 14.992933
-69.052109 46.505745 14.763755
-69.036461 46.532825 14.555119
-69.019218 46.522724 14.327586
-69.005219 46.58049 14.139009
-68.90847 46.581882 12.858769
-68.644241 46.620556 9.3592939
-68.548203 46.623436 8.0877724
-68.468506 46.653713 7.030838
-68.311729 46.654369 4.9549551
-68.234291 46.637497 3.930635
-68.221207 46.589451 3.760087
-69.661919 46.576405 22.355474
-69.449646 46.507122 19.554796
-69.429779 46.529133 19.290947
-69.408455 46.524509 19.009357
-69.387207 46.516449 18.729052
-69.367531 46.528805 18.468233
-69.351334 46.594055 18.250259
-69.140099 46.510857 15.462958
-69.122177 46.502239 15.226593
-69.105171 46.508221 15.001375
-69.088211 46.511749 14.776941
-69.071716 46.521553 14.558211
-69.05526 46.529015 14.340165
-69.040443 46.569332 14.141792
-68.945023 46.607159 12.877728
-68.77597 46.523335 10.646895
-68.679459 46.629543 9.3638544
-68.583183 46.632877 8.0899782
-68.489166 46.613625 6.8471684
-68.345993 46.654343 4.9502945
-68.268326 46.627399 3.9242587
-68.255165 46.569332 3.7534757
-69.691071 46.573002 22.367239
-69.59626 46.584724 21.109444
-69.479401 46.504543 19.564768
-69.459084 46.518864 19.294445
-69.437317 46.506435 19.006525
-69.418129 46.529919 18.750635
-69.397514 46.526585 18.477358
-69.380882 46.583939 18.25317
-69.170258 46.50108 15.464252
-69.153244 46.509651 15.23797
-69.136276 46.515751 15.012446
-69.118523 46.50206 14.777771
-69.085663 46.519379 14.340678
-69.070496 46.55093 14.137398
-68.837029 46.537476 11.039549
-68.822067 46.52673 10.84164
-68.710403 46.601078 9.3546085
-68.614899 46.623569 8.0851498
-68.521957 46.653553 6.8492484
-68.378319 46.644661 4.9422998
-68.300903 46.627487 3.9153605
-69.718628 46.572758 22.390278
-69.509056 46.52169 19.598026
-69.487312 46.512978 19.308514
-69.46566 46.500698 19.02038
-69.446083 46.516438 18.758154
-69.426064 46.521141 18.490782
-69.410019 46.586636 18.272358
-69.165733 46.503536 15.017676
-69.149315 46.515926 14.797745
-69.132118 46.508533 14.568688
-69.116196 46.524895 14.355062
-69.101501 46.565399 14.156206
-69.007156 46.613274 12.893538
-68.868042 46.526478 11.041664
-68.854073 46.5439 10.854
-68.742065 46.590488 9.3551769
-68.647255 46.622967 8.0867167
-68.554573 46.643372 6.8473535
-68.411537 46.624619 4.9377656
-68.398796 46.63549 4.7668447
-68.386124 46.654854 4.5963359
-68.373352 46.662739 4.4251652
-68.334602 46.617409 3.9104218
-69.744995 46.54789 22.395481
-69.651718 46.568302 21.142986
-69.536018 46.489899 19.596226
-69.515404 46.49678 19.319221
-69.494354 46.492474 19.037134
-69.474876 46.508404 18.774694
-69.454468 46.505348 18.501053
-69.438507 46.570972 18.28249
-69.213058 46.500324 15.261891
-69.195831 46.498077 15.030861
-69.179077 46.501953 14.805729
-69.162376 46.503384 14.581406
-69.146126 46.511139 14.36273
-69.131897 46.560543 14.168459
-69.037247 46.59119 12.895811
-68.899765 46.532913 11.053812
-68.774017 46.588509 9.3614988
-68.679604 46.621578 8.0912323
-68.444923 46.634212 4.9382138
-68.432137 46.635139 4.7663536
-68.419342 46.634563 4.5945787
-68.406631 46.642467 4.4233165
-68.393761 46.628887 4.2513385
-68.381172 46.653782 4.0806189
-68.368126 46.607197 3.9084449
-68.355247 46.579102 3.7372501
-68.342537 46.579506 3.566504
-68.329735 46.558418 3.3959777
-69.774651 46.533649 22.403927
-69.56768 46.499691 19.622446
-69.547104 46.506832 19.3451
-69.526085 46.502777 19.062668
-69.504654 46.487392 18.775393
-69.485764 46.508205 18.519838
-69.468384 46.550034 18.283037
-69.374847 46.595924 17.021339
-69.262009 46.505028 15.509124
-69.244751 46.505508 15.276887
-69.227974 46.512051 15.050595
-69.210411 46.498791 14.81515
-69.193733 46.500336 14.590596
-69.177513 46.508202 14.371689
-69.162918 46.548923 14.172443
-69.069199 46.598026 12.90739
-68.806015 46.587749 9.3643684
-68.711739 46.621197 8.0923147
-68.477371 46.634304 4.9346056
-68.464508 46.625259 4.7618957
-68.451828 46.634666 4.5904446
-68.438972 46.622589 4.4180923
-68.426277 46.628986 4.2466784
-68.413506 46.62389 4.074976
-68.400795 46.627285 3.903564
-68.388077 46.629181 3.7321293
-68.375305 46.619579 3.5607066
-68.362366 46.568478 3.3898971
-68.349815 46.605873 3.2182102
-68.33699 46.571785 3.0478377
-68.324272 46.566196 2.8769195
-69.601036 46.49852 19.630772
-69.579971 46.497948 19.346962
-69.559982 46.50959 19.076769
-69.539551 46.510113 18.801462
-69.520172 46.523212 18.539434
-69.501343 46.541229 18.284327
-69.277924 46.496876 15.276433
-69.261162 46.503433 15.049988
-69.244446 46.507523 14.824324
-69.227768 46.509167 14.599464
-69.21196 46.525887 14.385061
-69.196571 46.549152 14.175945
-68.950813 46.531281 10.86343
-68.839279 46.569592 9.3564196
-68.745323 46.612522 8.0859728
-68.511192 46.635021 4.9258089
-68.498322 46.625931 4.75284
-68.48555 46.625309 4.5806274
-68.472786 46.623177 4.4085135
-68.459938 46.609539 4.2361898
-68.447182 46.604385 4.0644007
-68.434547 46.617725 3.893048
-68.370956 46.62191 3.0347455
-68.358231 46.626236 2.8627586
-69.632751 46.500195 19.636915
-69.611221 46.491966 19.346592
-69.592278 46.519375 19.088572
-69.571877 46.520081 18.812933
-69.551056 46.509525 18.532425
-69.533241 46.543575 18.289141
-69.439514 46.581955 17.019722
-69.3274 46.500107 15.51065
-69.293449 46.507401 15.051252
-69.277176 46.520287 14.830265
-69.259293 46.495941 14.59039
-69.243111 46.503941 14.371039
-69.228165 46.535999 14.166591
-69.135788 46.612705 12.912093
-68.872894 46.605152 9.3578053
-68.778252 46.619793 8.0767708
-68.544434 46.65308 4.9116178
-68.53167 46.654007 4.7388291
-68.51899 46.663403 4.5666194
-68.506042 46.641319 4.3931174
-68.493279 46.637695 4.2207141
-68.480446 46.622566 4.0482044
-68.467758 46.625923 3.8762982
-68.455292 46.667774 3.7046015
-69.837578 46.546696 22.041138
-69.657799 46.531574 19.598442
-69.637909 46.546631 19.326853
-69.617073 46.542755 19.043863
-69.596809 46.543327 18.768269
-69.577103 46.548534 18.499899
-69.369736 46.493107 15.684294
-69.354324 46.530209 15.471751
-69.337646 46.53933 15.244163
-69.321007 46.545975 15.017327
-69.304413 46.550152 14.791272
-69.288277 46.560593 14.570907
-69.271767 46.559921 14.346412
-69.256905 46.59203 14.141696
-69.040741 46.547253 11.20408
-69.026642 46.557404 11.011449
-69.011948 46.546932 10.812301
-68.997604 46.543884 10.617288
-68.983589 46.548359 10.426182
-68.969597 46.550991 10.235538
-68.955338 46.542297 10.042239
-68.941406 46.541241 9.8526545
-68.926949 46.519279 9.6576471
-68.91362 46.533688 9.4750471
-69.686623 46.519558 19.604921
-69.667885 46.55027 19.345684
-69.647682 46.554417 19.068596
-69.628036 46.563122 18.798759
-69.607475 46.552715 18.517874
-69.400986 46.49062 15.693753
-69.385254 46.519291 15.475791
-69.369118 46.53706 15.253151
-69.352592 46.543808 15.026081
-69.336105 46.548088 14.799789
-69.319664 46.549915 14.574304
-69.302872 46.540539 14.344841
-69.288918 46.590267 14.149496
-69.073799 46.53735 11.204824
-69.060112 46.556885 11.015566
-69.045509 46.546482 10.816167
-69.031555 46.552906 10.624281
-69.017326 46.548038 10.42954
-69.003128 46.541267 10.235425
-68.988968 46.532608 10.041955
-68.975677 46.550621 9.8582983
-68.961029 46.519192 9.6599865
-68.947517 46.524082 9.4742432
-68.936905 46.632782 9.3196917
-68.536751 46.661015 3.8289104
-69.825607 46.501961 21.089539
-69.720215 46.539036 19.635778
-69.699532 46.538876 19.351126
-69.679413 46.543091 19.073893
-69.659859 46.551865 18.803911
-69.639862 46.549469 18.528925
-69.62188 46.575794 18.279051
-69.41893 46.525894 15.489364
-69.402428 46.535225 15.26131
-69.386383 46.550701 15.03904
-69.369125 46.537773 14.802527
-69.351517 46.513496 14.562241
-69.337227 46.556606 14.36168
-69.321739 46.571304 14.147025
-69.109131 46.565025 11.219296
-69.094536 46.556683 11.018916
-69.080292 46.555714 10.82273
-69.066376 46.562229 10.63051
-69.051888 46.548016 10.43214
-69.038033 46.550766 10.24099
-69.023911 46.542183 10.047186
-69.009827 46.531719 9.854044
-68.996056 46.528923 9.664547
-68.982574 46.53389 9.4784641
-68.971497 46.623474 9.3179579
-69.836983 46.48843 20.781645
-69.753181 46.515018 19.624838
-69.734032 46.538143 19.358925
-69.713921 46.542431 19.081484
-69.695366 46.567078 18.823515
-69.674377 46.548954 18.5361
-69.656403 46.575352 18.286009
-69.453033 46.517612 15.488768
-69.437386 46.544136 15.270768
-69.420921 46.551083 15.043163
-69.403664 46.538208 14.806428
-69.386467 46.522701 14.5708
-69.371361 46.548393 14.360314
-69.356277 46.571907 14.150227
-69.14267 46.538261 11.20831
-69.128723 46.548546 11.01501
-69.114159 46.5382 10.815203
-69.099648 46.525864 10.616147
-69.086075 46.539867 10.427744
-69.07193 46.53315 10.233215
-69.058098 46.534027 10.042459
-69.044296 46.53307 9.8522005
-69.029968 46.5112 9.6565294
-69.016769 46.525703 9.4732409
-69.829887 46.463623 20.161259
-69.790375 46.50388 19.614027
-69.771698 46.534691 19.354275
-69.751549 46.538914 19.076698
-69.730957 46.531887 18.794157
-69.712914 46.561222 18.543114
-69.69342 46.563648 18.274828
-69.490532 46.52179 15.4872
-69.474419 46.539722 15.263863
-69.45665 46.52071 15.021034
-69.44104 46.542358 14.804178
-69.423798 46.526836 14.568334
-69.408653 46.552521 14.357606
-69.393532 46.576031 14.147274
-69.192688 46.511368 11.388635
-69.179344 46.542084 11.202085
-69.165359 46.552345 11.008536
-69.151382 46.560722 10.815395
-69.1362 46.529594 10.609202
-69.122589 46.543568 10.420545
-69.107803 46.517876 10.219365
-69.094826 46.54715 10.037895
-69.080688 46.536663 9.8442678
-69.066315 46.514748 9.6483631
-69.052811 46.519638 9.4619436
-69.828255 46.481712 19.585049
-69.80851 46.496632 19.312872
-69.789825 46.524014 19.054001
-69.771675 46.556286 18.80196
-69.751572 46.55381 18.526432
-69.73349 46.580093 18.275957
-69.528877 46.52079 15.474904
-69.512711 46.538612 15.251405
-69.496147 46.545395 15.023495
-69.479202 46.541016 14.791424
-69.463142 46.551548 14.57004
-69.446701 46.550953 14.344545
-69.431931 46.583168 14.138755
-69.230904 46.536057 11.384514
-69.217499 46.566769 11.197536
-69.203117 46.567654 11.000049
-69.188133 46.547836 10.796249
-69.17382 46.544792 10.600088
-69.159538 46.539829 10.404535
-69.145592 46.542427 10.212807
-69.13166 46.543179 10.021559
-69.117188 46.523048 9.8247471
-69.103317 46.520088 9.6346779
-69.089752 46.524891 9.4480076
-69.84671 46.465286 19.278418
-69.827934 46.49234 19.019667
-69.809692 46.524292 18.767742
-69.788979 46.513512 18.486341
-69.773285 46.579525 18.265821
-69.568283 46.536037 15.473634
-69.55114 46.536648 15.239661
-69.534897 46.551968 15.016611
-69.517845 46.547527 14.784325
-69.501259 46.549267 14.557854
-69.484299 46.539791 14.327435
-69.469849 46.580688 14.12625
-69.267883 46.5415 11.373761
-69.253723 46.553493 11.179324
-69.239258 46.554249 10.981762
-69.224815 46.553059 10.784773
-69.210403 46.549938 10.588374
-69.195412 46.526005 10.386045
-69.181679 46.537941 10.197426
-69.167076 46.519588 9.9998074
-69.153961 46.546928 9.8181324
-69.13942 46.52483 9.6217775
-69.125481 46.51997 9.4320021
-68.798531 46.575191 4.9622784
-69.849564 46.470402 18.728743
-69.831749 46.507099 18.48374
-69.812454 46.516953 18.22142
-69.609451 46.529373 15.469401
-69.592621 46.538563 15.240367
-69.575394 46.536617 15.007084
-69.55822 46.532108 14.774733
-69.541519 46.533783 14.548193
-69.526527 46.568119 14.341592
-69.511543 46.600353 14.135236
-69.307518 46.552944 11.374062
-69.292572 46.546326 11.172116
-69.277992 46.547047 10.974399
-69.263771 46.55521 10.780684
-69.248299 46.523834 10.574004
-69.234444 46.53759 10.384757
-69.220596 46.549553 10.195809
-69.205566 46.521709 9.9947748
-69.191765 46.529987 9.8068094
-69.177689 46.526932 9.6162586
-69.163925 46.531639 9.4290943
-68.834785 46.636169 4.9545403
-69.868454 46.478233 18.477489
-69.848129 46.472019 18.203278
-69.827866 46.462524 17.930321
-69.794357 46.548267 17.468624
-69.647018 46.525948 15.478642
-69.629692 46.526653 15.244308
-69.613289 46.542072 15.020883
-69.595627 46.529026 14.783305
-69.579292 46.539551 14.561393
-69.562996 46.547707 14.340159
-69.547974 46.579967 14.133726
-69.452278 46.594044 12.837961
-69.343079 46.523529 11.367889
-69.329781 46.563526 11.183907
-69.314484 46.545673 10.978763
-69.299881 46.544525 10.781376
-69.284676 46.52261 10.577885
-69.270462 46.526993 10.385127
-69.255653 46.510567 10.186469
-69.242699 46.549202 10.007222
-69.227654 46.519508 9.8066912
-69.213539 46.516491 9.6159773
-69.19973 46.521236 9.428648
-68.869812 46.646149 4.9512949
-69.801376 46.470798 17.183229
-69.785774 46.523495 16.965208
-69.677361 46.509251 15.490464
-69.660591 46.518715 15.261052
-69.644287 46.534328 15.037397
-69.627586 46.53886 14.809442
-69.610924 46.540924 14.58229
-69.594719 46.549313 14.360745
-69.579376 46.572983 14.149306
-69.375336 46.509453 11.376599
-69.362473 46.558891 11.196052
-69.347916 46.559902 10.997679
-69.332413 46.5308 10.789581
-69.318573 46.546669 10.599313
-69.303802 46.532387 10.399521
-69.28907 46.516132 10.200521
-69.275589 46.535923 10.014742
-69.261223 46.525394 9.8200703
-69.247467 46.532093 9.6319532
-69.233444 46.527435 9.441349
-68.904747 46.61528 4.9524493
-68.738632 46.620758 2.6877627
-69.812523 46.469002 16.960974
-69.796173 46.502781 16.732183
-69.779839 46.534073 16.503834
-69.708 46.506306 15.517976
-69.691833 46.52467 15.293342
-69.67482 46.523335 15.059287
-69.659142 46.545494 14.840963
-69.641365 46.521706 14.598844
-69.625748 46.53907 14.381921
-69.611397 46.580601 14.179665
-69.395439 46.542664 11.2099
-69.381035 46.543842 11.011353
-69.365997 46.524296 10.806502
-69.351662 46.521526 10.609276
-69.3386 46.5546 10.425747
-69.32399 46.53862 10.226233
-69.309723 46.530178 10.030635
-69.295784 46.529362 9.8387232
-69.281578 46.517155 9.6443825
-69.267693 46.51265 9.453598
-69.255501 46.563946 9.2800112
-69.242729 46.594467 9.1006031
-68.942024 46.583725 4.9587679
-69.790268 46.464298 16.248188
-69.778244 46.566616 16.069147
-69.739311 46.484219 15.538181
-69.724159 46.520016 15.323582
-69.70771 46.52766 15.094231
-69.690865 46.524136 14.860713
-69.675339 46.544231 14.642739
-69.658157 46.526966 14.40613
-69.643524 46.559952 14.19895
-69.429276 46.525074 11.226811
-69.415314 46.535801 11.031618
-69.401047 46.535255 10.833386
-69.386795 46.532768 10.63574
-69.371948 46.509464 10.432139
-69.358391 46.522003 10.242279
-69.344536 46.523247 10.049615
-69.330406 46.513119 9.854414
-69.316597 46.510651 9.6628389
-69.303101 46.51593 9.474658
-69.290733 46.557842 9.2979822
-69.277245 46.559685 9.1102409
-69.263763 46.559765 8.9229107
-69.250824 46.577438 8.7410688
-69.237366 46.57407 8.5544415
-69.225189 46.617531 8.3800793
-68.979012 46.541813 4.9674797
-69.774063 46.488991 15.571772
-69.758102 46.507957 15.346622
-69.741287 46.507233 15.112023
-69.72538 46.521294 14.888238
-69.709923 46.541695 14.669968
-69.693222 46.533501 14.437832
-69.677399 46.540394 14.21613
-69.585876 46.596184 12.931587
-69.463745 46.498985 11.238074
-69.450523 46.528564 11.04986
-69.435974 46.518845 10.84793
-69.421791 46.516537 10.650113
-69.407951 46.521729 10.456184
-69.393814 46.515591 10.259509
-69.379707 46.507534 10.063475
-69.365936 46.507095 9.8711338
-69.338737 46.510288 9.4908705
-69.313828 46.583275 9.134078
-69.300377 46.583611 8.9462404
-69.286156 46.553181 8.7512217
-69.272758 46.549942 8.5645037
-69.259888 46.564392 8.3829775
-69.246765 46.567455 8.1993046
-69.015877 46.540043 4.9771867
-69.793198 46.474522 15.347335
-69.776855 46.482494 15.117758
-69.761414 46.505333 14.898845
-69.74514 46.508427 14.670681
-69.72847 46.500294 14.43854
-69.714355 46.542469 14.235716
-69.501572 46.522491 11.260416
-69.48735 46.524254 11.061123
-69.47348 46.53344 10.865845
-69.458969 46.521919 10.664248
-69.444824 46.517838 10.466702
-69.430702 46.511833 10.269777
-69.416916 46.513405 10.076612
-69.402542 46.49408 9.8778601
-69.375679 46.507046 9.5001326
-69.361977 46.501263 9.3090363
-69.310043 46.556973 8.5749588
-69.29641 46.542416 8.3859892
-69.283318 46.545547 8.2022305
-69.052986 46.529152 4.9792581
-69.041725 46.621235 4.8100972
-69.02906 46.612045 4.633811
-69.765907 46.490276 14.438823
-69.751373 46.523678 14.231116
-69.538864 46.512833 11.258323
-69.524971 46.52396 11.062397
-69.510757 46.523811 10.863422
-69.496559 46.521713 10.665031
-69.482071 46.508236 10.463956
-69.468575 46.521175 10.273272
-69.454453 46.513317 10.076655
-69.440369 46.503551 9.8806963
-69.400024 46.520504 9.3136587
-69.078522 46.601402 4.8013964
-69.065842 46.592178 4.6250253
-69.053291 46.591389 4.4493899
-69.040977 46.609043 4.2746301
-69.028511 46.615173 4.0993366
-69.016144 46.629768 3.9242101
-68.928406 46.62899 2.6956606
-69.786781 46.473034 14.201408
-69.77179 46.495247 13.989541
-69.756813 46.515285 13.778107
-69.575409 46.505672 11.250031
-69.562134 46.535465 11.060988
-69.547165 46.516567 10.854807
-69.533569 46.533249 10.662978
-69.518677 46.510338 10.458308
-69.50415 46.49485 10.257783
-69.490295 46.496387 10.06429
-69.477371 46.524639 9.8803825
-69.462929 46.503452 9.6817446
-69.449417 46.509052 9.4925604
-69.435921 46.512871 9.3037529
-69.124619 46.530067 4.95894
-69.113037 46.602097 4.7879028
-69.100418 46.602779 4.6118355
-69.087669 46.591927 4.4353876
-69.074928 46.579521 4.2592158
-69.062416 46.58556 4.0839224
-69.050003 46.600063 3.9087918
-69.037354 46.593037 3.7332139
-69.024796 46.594475 3.5578251
-69.012398 46.614376 3.3823242
-68.999969 46.63274 3.2064834
-68.961731 46.568653 2.6814723
-69.751068 46.546024 13.136559
-69.614174 46.507332 11.246549
-69.600098 46.518421 11.050216
-69.586372 46.536991 10.857722
-69.571983 46.534904 10.658771
-69.557297 46.521427 10.457147
-69.542641 46.505959 10.256308
-69.528976 46.517014 10.0656
-69.514694 46.50721 9.8691654
-69.500443 46.495506 9.6734056
-69.486824 46.501068 9.4840593
-69.474091 46.533657 9.303421
-69.159821 46.550655 4.9485002
-69.14756 46.582726 4.7744503
-69.13485 46.583324 4.5983019
-69.122261 46.592373 4.4227071
-69.10965 46.59988 4.2470403
-69.096901 46.595856 4.0710258
-69.084259 46.600288 3.895344
-69.071396 46.583183 3.719399
-69.05864 46.574543 3.5438132
-69.04615 46.59436 3.3682222
-69.033455 46.592644 3.1925828
-69.020821 46.599388 3.0167334
-69.00824 46.614582 2.8404264
-68.994957 46.528316 2.6678829
-69.756416 46.511841 12.694765
-69.742889 46.555279 12.502872
-69.666046 46.512882 11.450987
-69.650795 46.498009 11.243073
-69.637314 46.527813 11.053615
-69.623146 46.537064 10.85736
-69.607986 46.516174 10.651464
-69.594185 46.530998 10.459582
-69.579422 46.515583 10.258424
-69.565018 46.50769 10.061176
-69.550949 46.507408 9.867609
-69.510345 46.543518 9.3038988
-69.193748 46.570663 4.9416227
-69.181244 46.592728 4.766499
-69.168571 46.603283 4.5905566
-69.155479 46.582333 4.4131474
-69.142532 46.569809 4.2365627
-69.129829 46.575729 4.060842
-69.10437 46.582954 3.7092817
-69.743835 46.534706 12.078546
-69.731064 46.590816 11.894855
-69.69751 46.493576 11.445638
-69.684029 46.525307 11.255626
-69.669159 46.517826 11.051612
-69.654655 46.517704 10.851758
-69.639503 46.496796 10.645784
-69.625717 46.5116 10.453815
-69.611938 46.524586 10.262138
-69.597214 46.507256 10.061458
-69.583145 46.507008 9.8676405
-69.568489 46.485802 9.6684561
-69.554771 46.491386 9.4786959
-69.543137 46.562416 9.308712
-69.460182 46.519886 8.1709127
-69.226234 46.590347 4.9361467
-69.13633 46.562473 3.7003131
-69.74276 46.486755 11.650099
-69.72831 46.49255 11.448521
-69.713531 46.487034 11.243875
-69.700165 46.516903 11.053986
-69.685081 46.498055 10.847016
-69.671387 46.514793 10.654353
-69.6567 46.501362 10.452162
-69.6427 46.504887 10.257124
-69.628723 46.506542 10.06256
-69.614128 46.487274 9.8624477
-69.600494 46.494709 9.6719856
-69.586876 46.500355 9.4818821
-69.574738 46.552235 9.3060026
-69.492638 46.519447 8.1694183
-69.260292 46.589882 4.9298592
-69.728882 46.493862 11.057278
-69.714973 46.503231 10.86051
-69.700409 46.491871 10.657459
-69.686203 46.487946 10.458441
-69.672997 46.510502 10.2696
-69.659142 46.512291 10.074695
-69.644997 46.502689 9.8772583
-69.63118 46.500732 9.6834326
-69.605675 46.558506 9.3167706
-69.525368 46.565365 8.1871586
-69.293961 46.588295 4.9314542
-69.717247 46.506416 10.493052
-69.703506 46.510372 10.297338
-69.690094 46.521942 10.105206
-69.676064 46.51265 9.9073362
-69.661758 46.491894 9.7071905
-69.648087 46.488335 9.5136271
-69.636505 46.550144 9.3400602
-69.544647 46.589443 8.029789
-69.327339 46.564991 4.9469314
-69.721924 46.48085 10.127887
-69.708672 46.490852 9.9360771
-69.669563 46.529221 9.3683167
-69.645103 46.600655 9.0060263
-69.578972 46.580242 8.0590429
-69.363724 46.5504 4.9708509
-69.701698 46.509148 9.3938847
-69.665077 46.600136 8.8459377
-69.709518 46.535942 9.0376272
-69.698296 46.593731 8.8625631
-69.706528 46.506577 8.4709864
-69.696053 46.588688 8.3025894
-69.683655 46.601173 8.1175966
-69.705856 46.490948 7.9144173
-69.694901 46.55867 7.7428446
-69.670593 46.601398 7.3802519
-69.496574 46.600899 4.8355532
-69.484497 46.612339 4.6569943
-69.681458 46.554588 7.013875
-69.669029 46.565395 6.8320937
-69.532043 46.598003 4.8426414
-69.519676 46.599567 4.6632428
-72.171669 46.388988 31.433987
-72.232445 46.372364 31.478319
-72.291046 46.379749 31.529978
-72.258865 46.389248 31.035021
-72.129578 46.351025 29.068476
-72.090172 46.345146 27.750086
-72.123718 46.448723 26.33746
-72.508942 46.417282 31.831223
-72.523712 46.390038 31.849802
-72.458603 46.396408 30.841887
-72.546402 46.369499 31.887964
-72.097145 46.398621 24.859476
-72.5476 46.390568 31.469629
-72.234505 46.441849 26.523371
-72.10643 46.386902 24.524721
-72.584358 46.386215 31.532164
-72.271072 46.43148 26.566891
-72.073303 46.362614 23.464392
-72.157944 46.365063 23.529497
-72.134636 46.350731 23.164877
-72.113686 46.36124 22.828913
-72.091568 46.352627 22.481007
-72.077583 46.444683 22.226887
-72.051384 46.375088 21.835819
-72.206795 46.386021 23.554907
-72.183968 46.379211 23.19669
-72.16291 46.389973 22.860275
-72.139503 46.366703 22.498642
-72.061043 46.426968 21.23764
-72.037109 46.374397 20.878063
-72.269539 46.386406 23.557194
-72.246353 46.379585 23.198812
-72.224365 46.38295 22.855518
-72.201187 46.367062 22.500427
-72.061348 46.428398 20.30221
-72.343002 46.392365 23.566885
-72.318649 46.378281 23.201523
-72.295525 46.374271 22.85137
-72.273621 46.380714 22.516092
-72.086021 46.37999 19.663544
-72.067062 46.386475 19.373014
-72.046967 46.373413 19.071859
-72.026878 46.356743 18.772171
-71.992378 46.394829 18.234114
-72.406548 46.372452 23.546331
-72.384857 46.394878 23.214794
-72.361282 46.390953 22.864351
-72.338951 46.397488 22.528772
-72.126579 46.380081 19.364717
-72.107841 46.39114 19.081102
-72.087936 46.382668 18.786909
-72.068626 46.378876 18.499825
-72.018623 46.463852 17.72364
-71.976654 46.377254 17.127089
-72.667191 46.404324 26.624962
-72.45961 46.382107 23.554064
-72.43589 46.382515 23.202011
-72.411537 46.371025 22.844828
-72.39032 46.392288 22.522501
-72.177734 46.390083 19.369091
-72.157104 46.376965 19.067564
-72.137657 46.376484 18.779119
-72.120537 46.405304 18.514845
-72.013489 46.457321 16.907703
-71.991852 46.397343 16.607626
-71.972473 46.367996 16.330256
-72.703522 46.396652 26.624659
-72.496948 46.373993 23.552717
-72.473976 46.38171 23.207275
-72.451614 46.392467 22.869949
-72.427368 46.376579 22.514118
-72.235786 46.375057 19.656975
-72.216431 46.381477 19.365902
-72.197067 46.384468 19.075981
-72.177124 46.375931 18.781446
-72.158928 46.388432 18.505476
-72.144196 46.447113 18.264442
-71.999962 46.438278 16.1154
-71.978477 46.368542 15.820037
-72.549248 46.334148 23.890526
-72.527809 46.360775 23.557304
-72.504456 46.361183 23.204971
-72.482346 46.371918 22.867561
-72.458351 46.356014 22.511652
-72.270607 46.378262 19.671799
-72.25264 46.400867 19.392317
-72.23111 46.371811 19.078472
-72.211365 46.363312 18.783785
-72.193375 46.375851 18.507654
-72.17942 46.442802 18.272112
-71.982048 46.363594 15.32347
-71.965652 46.36322 15.076242
-72.56926 46.364285 23.587116
-72.547264 46.379704 23.24795
-72.522728 46.361214 22.88335
-72.500076 46.360432 22.540474
-72.310699 46.353374 19.673485
-72.273155 46.371262 19.097622
-72.252892 46.354851 18.796843
-72.234985 46.36755 18.520494
-72.221123 46.434654 18.284733
-72.02504 46.365784 15.338433
-72.009781 46.383129 15.100432
-71.992378 46.36272 14.844292
-72.616287 46.341194 23.588007
-72.593231 46.349293 23.242136
-72.568886 46.338188 22.884331
-72.547707 46.359856 22.561346
-72.335617 46.369411 19.407223
-72.314339 46.348625 19.099073
-72.294853 46.348492 18.809933
-72.27713 46.369499 18.539204
-72.261154 46.412109 18.28628
-72.061821 46.361004 15.350024
-72.045639 46.369686 15.107129
-72.029984 46.384605 14.869705
-71.998085 46.398102 14.392304
-71.983955 46.432369 14.170366
-71.952995 46.449211 13.705781
-71.934158 46.395222 13.44707
-72.499451 46.349487 23.651962
-72.475655 46.35014 23.29908
-72.452492 46.353714 22.954433
-72.429314 46.352936 22.611267
-72.23613 46.35392 19.747543
-72.216003 46.352585 19.44977
-72.177559 46.36372 18.875517
-72.159821 46.38472 18.604408
-72.143845 46.427338 18.351084
-71.927498 46.375874 15.1627
-71.878365 46.377403 14.433331
-71.865875 46.438316 14.224636
-71.790237 46.494171 13.081051
-71.773438 46.469082 12.841483
-71.757652 46.459877 12.610901
-71.740379 46.420628 12.369762
-72.569351 46.369019 23.633381
-72.543732 46.354614 23.266882
-72.521385 46.372616 22.935526
-72.497719 46.371529 22.592199
-72.3004 46.369976 19.726931
-72.279228 46.36034 19.423058
-72.239342 46.362736 18.842781
-72.220612 46.375217 18.565887
-72.206093 46.442188 18.329439
-72.00106 46.370731 15.377371
-71.984535 46.379093 15.134018
-71.934883 46.388744 14.40877
-71.921021 46.431591 14.190898
-71.84375 46.486023 13.046949
-71.781258 46.480705 12.140536
-71.765617 46.473686 11.915831
-71.748505 46.43642 11.681246
-72.850533 46.398891 26.668102
-72.634087 46.378002 23.596848
-72.607933 46.363068 23.230347
-72.584435 46.373161 22.892279
-72.560928 46.379017 22.555574
-72.359413 46.373356 19.689991
-72.338417 46.37133 19.392002
-72.298302 46.381142 18.817265
-72.278534 46.385132 18.53447
-72.263664 46.45182 18.297792
-72.05368 46.367874 15.339704
-72.036797 46.375889 15.096285
-72.002434 46.375313 14.607261
-71.986076 46.384495 14.370863
-71.973526 46.453888 14.166133
-71.889786 46.42498 12.98438
-71.79567 46.428207 11.642583
-71.762779 46.383343 11.190927
-71.748276 46.395214 10.979842
-71.733269 46.395615 10.765942
-72.7146 46.328976 23.884645
-72.691444 46.354603 23.550709
-72.667587 46.368683 23.21121
-72.643707 46.378502 22.873028
-72.619148 46.376591 22.529638
-72.415665 46.384155 19.675619
-72.394325 46.381947 19.377447
-72.331581 46.370621 18.502274
-72.121445 46.356815 15.561705
-72.053894 46.400715 14.598228
-72.035576 46.383076 14.347981
-72.02446 46.479183 14.156265
-71.938217 46.431572 12.964636
-71.808594 46.379265 11.166065
-71.793358 46.381523 10.951531
-71.778107 46.38171 10.737565
-71.762848 46.379826 10.524186
-71.748039 46.385406 10.314456
-72.765182 46.328011 23.888634
-72.742546 46.360989 23.561272
-72.7192 46.38253 23.228222
-72.692444 46.362694 22.863173
-72.66906 46.375687 22.532875
-72.462868 46.367386 19.665197
-72.442032 46.373142 19.37286
-72.378845 46.361706 18.497297
-72.365486 46.452881 18.27722
-72.097511 46.36467 14.577447
-72.081879 46.391472 14.34972
-72.067886 46.442848 14.135617
-71.983231 46.431065 12.960496
-71.852631 46.378685 11.160074
-71.821915 46.3811 10.731095
-71.732666 46.406372 9.4778042
-71.721672 46.488861 9.2937193
-71.706154 46.473167 9.0833292
-71.691948 46.484539 8.8810263
-71.67556 46.445522 8.6671448
-71.658768 46.394726 8.452095
-72.778801 46.362648 23.578279
-72.752159 46.347382 23.211456
-72.728897 46.364639 22.879648
-72.706299 46.385288 22.555649
-72.500893 46.378716 19.684862
-72.4795 46.376602 19.386276
-72.457458 46.362846 19.083172
-72.206314 46.361362 15.569319
-72.136261 46.370186 14.585431
-72.119011 46.370323 14.343935
-72.10733 46.457527 14.147353
-72.021339 46.418926 12.958207
-71.891724 46.375999 11.159829
-71.846275 46.386097 10.519593
-71.772194 46.403889 9.4755249
-71.746681 46.490047 9.0855827
-71.732513 46.501476 8.8828506
-71.716591 46.472218 8.6709166
-71.701958 46.470123 8.4667597
-71.687302 46.466148 8.2630568
-71.673462 46.479828 8.0640421
-71.656715 46.423218 7.8510089
-72.80864 46.372692 23.61611
-72.782272 46.357788 23.24888
-72.757927 46.360504 22.903393
-72.734238 46.366371 22.565971
-72.530449 46.35284 19.687843
-72.510567 46.36689 19.400955
-72.488121 46.345188 19.091799
-72.469482 46.368706 18.818773
-72.435242 46.447773 18.303215
-72.240311 46.353703 15.580709
-72.17157 46.371922 14.600406
-72.155067 46.381145 14.363069
-72.142448 46.450623 14.157277
-72.11039 46.475395 13.693657
-72.061081 46.476612 12.994952
-71.91391 46.372849 10.951178
-71.810776 46.399036 9.480073
-71.741737 46.475346 8.4722672
-71.726799 46.461704 8.2660198
-71.712692 46.465675 8.0646296
