# .PCD v0.7 - Point Cloud Data file format
VERSION 0.7
FIELDS x y z
SIZE 4 4 4
TYPE F F F
COUNT 1 1 1
WIDTH 1559
HEIGHT 1
VIEWPOINT 0 0 0 1 0 0 0
POINTS 1559
DATA ascii
-64.17318 46.349655 13.774593
-64.156929 46.325203 13.573028
-64.140671 46.307259 13.377389
-64.124382 46.295956 13.187472
-64.108658 46.27375 12.99376
-63.899002 46.121025 10.542286
-63.884674 46.116817 10.380433
-63.870049 46.120419 10.222486
-63.855099 46.131927 10.068216
-63.826637 46.131603 9.7540827
-63.813164 46.119675 9.5945768
-63.798828 46.125271 9.4416142
-63.786236 46.100754 9.2802591
-63.771675 46.112991 9.1309242
-64.116753 46.282211 12.474613
-64.100853 46.279137 12.297201
-64.070045 46.258389 11.940153
-63.882607 46.122559 9.7586021
-63.868042 46.129742 9.6050491
-63.855156 46.10688 9.4428358
-63.840904 46.111107 9.2900743
-63.827332 46.104321 9.1347961
-63.813381 46.105663 8.9827156
-63.626038 45.899761 6.7382698
-64.681709 46.537079 18.202848
-63.883877 46.106827 9.1362858
-63.869259 46.11784 8.9866877
-63.680744 45.893074 6.734427
-64.748756 46.552135 18.224445
-64.726227 46.555061 17.984453
-64.704056 46.547272 17.739191
-64.682281 46.528614 17.488897
-63.733551 45.896519 6.7296863
-64.72332 46.521332 17.262074
-64.620567 46.360004 16.030792
-63.785934 45.889858 6.7250714
-64.78138 46.517509 17.274858
-64.657555 46.375088 15.841591
-64.833946 46.519558 17.296282
-64.75827 46.372196 15.877711
-64.807274 46.348099 15.884411
-64.979797 46.510998 17.362848
-64.941452 46.350498 15.708184
-65.287048 46.555405 18.394196
-65.592163 46.594074 21.141426
-65.337746 46.547607 18.410439
-65.22435 46.496449 17.171289
-65.386719 46.51199 18.412724
-65.467186 46.508438 18.225067
-65.250679 46.343113 15.806828
-65.303658 46.330833 15.829535
-65.353767 46.323284 15.862881
-65.622566 46.51017 18.351028
-65.385696 46.33485 15.689686
-65.346458 46.336594 15.268597
-64.593376 45.974861 6.9275279
-65.67746 46.530876 18.394894
-65.400299 46.329411 15.284335
-65.7332 46.508846 18.39632
-65.454697 46.325108 15.295804
-65.550797 46.334873 15.740327
-65.530769 46.325047 15.520345
-65.511017 46.321075 15.306817
-65.846558 46.482376 18.409395
-65.605415 46.315105 15.739062
-65.565643 46.326591 15.321693
-65.657066 46.320728 15.753924
-65.637047 46.327824 15.544582
-65.597511 46.318073 15.11743
-65.578102 46.318054 14.910517
-65.928009 46.491169 18.205536
-65.708969 46.322994 15.773664
-65.688858 46.321972 15.558535
-65.649338 46.321033 15.136292
-65.759003 46.295048 15.78424
-65.739098 46.310909 15.580035
-65.719231 46.307713 15.365561
-65.69957 46.302078 15.151989
-65.680183 46.302509 14.944629
-65.787041 46.306255 15.610237
-65.767303 46.311821 15.400896
-65.728279 46.298939 14.973924
-65.690186 46.293564 14.561037
-65.838684 46.307053 15.632577
-65.818863 46.304489 15.417507
-65.799332 46.307915 15.208697
-65.892807 46.297314 15.63478
-65.872978 46.303204 15.425007
-65.853333 46.306736 15.215985
-65.833801 46.299446 15.002452
-65.814613 46.306805 14.800295
-65.79554 46.303364 14.593677
-64.660843 45.709774 2.0925002
-65.948181 46.292389 15.629638
-65.928055 46.289852 15.414304
-65.908424 46.3102 15.215936
-65.888672 46.302921 15.002203
-65.869209 46.301765 14.794628
-64.688896 45.699394 1.9273775
-65.963509 46.270912 15.189556
-65.943787 46.280411 14.986547
-64.757835 45.709332 2.203743
-64.744362 45.700005 2.0570495
-65.95459 46.256943 14.568201
-64.802086 45.699844 2.1926057
-64.787956 45.700371 2.0444462
-65.940437 46.262394 13.984328
-64.845993 45.690716 2.1868875
-64.831314 45.701141 2.0372539
-64.817818 45.690449 1.8900409
-64.891167 45.701538 2.1808369
-64.877647 45.692169 2.0334492
-64.863617 45.691387 1.8846737
-65.935463 46.256481 13.046353
-64.938538 45.68261 2.1786008
-64.923965 45.693077 2.0285287
-64.910553 45.682419 1.8808683
-64.983826 45.703491 2.172127
-64.970963 45.684254 2.0254943
-65.034286 45.685013 2.1731858
-65.020432 45.685646 2.0238729
-65.007156 45.675056 1.8757567
-65.083839 45.676533 2.172817
-65.069542 45.687122 2.0220373
-65.055809 45.686466 1.8722783
-66.054726 46.106205 12.477841
-66.021309 46.110638 12.113131
-66.004791 46.105484 11.929608
-65.131203 45.697411 2.1625631
-65.118034 45.688164 2.0139105
-65.104912 45.677601 1.8652526
-66.080956 46.095005 12.293301
-66.064491 46.109974 12.117308
-66.048096 46.104912 11.933535
-66.015709 46.098339 11.571956
-65.999687 46.106159 11.397849
-65.181969 45.678307 2.1524203
-65.168907 45.669029 2.0036716
-66.105843 46.091766 12.071208
-65.647713 45.919762 6.8918672
-68.244667 46.717548 25.190535
-68.294632 46.735626 25.2225
-68.035545 46.486153 20.995039
-68.053955 46.488537 20.722662
-68.027855 46.466202 20.40893
-68.003784 46.469501 20.123575
-67.977608 46.431747 19.806385
-67.95343 46.420029 19.517275
-67.929871 46.412243 19.236069
-67.906464 46.400928 18.9562
-67.883659 46.393822 18.684048
-67.980186 46.447472 19.277475
-67.956696 46.436539 18.99708
-67.933807 46.42981 18.724398
-67.910645 46.41193 18.44672
-67.88765 46.390579 18.170492
-67.86689 46.405201 17.926451
-67.934486 46.420692 18.202179
-67.912445 46.411957 17.939243
-67.891373 46.41589 17.689695
-67.868805 46.38488 17.417166
-67.806419 46.361309 16.672997
-67.930733 46.420349 17.705584
-67.909462 46.413483 17.450764
-67.888321 46.403553 17.197126
-67.867317 46.390579 16.944704
-68.776535 46.861515 26.467451
-68.816719 46.810257 26.415663
-68.860916 46.811665 26.423826
-68.906448 46.782852 26.404957
-68.958061 46.796856 26.440941
-68.624702 46.652157 22.314308
-69.004959 46.770809 26.419029
-69.054771 46.75449 26.401934
-69.105263 46.75029 26.400755
-69.151459 46.750175 26.409271
-68.814301 46.642616 22.323051
-69.190437 46.735645 26.404505
-68.906876 46.617092 22.372805
-69.537575 46.778591 26.428782
-69.565384 46.750523 26.461658
-69.247246 46.62645 22.344349
-69.589142 46.608223 22.335848
-69.62545 46.582458 22.341455
-69.808044 46.454651 19.861689
-69.866035 46.442955 19.544167
-69.887817 46.427692 19.251328
-72.396454 46.637726 26.461073
-72.128975 46.503986 22.283615
-72.084442 46.467247 21.593021
-72.014351 46.332787 20.533278
-71.993896 46.318184 20.215275
-71.972893 46.291771 19.892752
-71.95472 46.301132 19.60218
-71.935425 46.29105 19.300791
-71.915031 46.26123 18.989038
-71.896309 46.251934 18.696522
-72.033676 46.315807 19.911436
-72.016907 46.349197 19.638561
-71.997292 46.339432 19.336567
-71.978241 46.334095 19.041899
-71.958076 46.309036 18.736916
-71.937943 46.2803 18.433584
-71.921143 46.297184 18.166025
-71.901039 46.261467 17.86569
-71.882599 46.247078 17.583735
-71.846848 46.225285 17.03476
-71.830055 46.226566 16.772837
-72.099716 46.29892 19.900312
-72.142952 46.333858 19.625256
-72.658539 46.601112 26.427359
-72.193619 46.335842 19.623911
-72.251534 46.317707 19.912666
-72.448021 46.501183 22.301687
-72.487381 46.47578 22.303968
-72.323738 46.264145 19.905231
-72.535294 46.482944 22.331221
-72.370308 46.296822 19.949146
-72.352684 46.330673 19.674866
-72.417603 46.483437 22.38744
-72.250084 46.272491 19.985838
-72.485703 46.501888 22.368008
-72.315315 46.296654 19.971588
-72.37532 46.308311 19.940861
-72.475296 46.254848 19.880226
-72.51194 46.250072 19.888212
-72.757011 46.481411 22.376339
-72.792801 46.450329 22.414541
-72.603111 46.297791 19.745623
-72.636116 46.280655 19.785734
-72.666183 46.25378 19.805731
-72.697456 46.251289 19.826794
-72.662651 46.311668 19.275225
-72.735458 46.251423 19.827211
-72.787109 46.264446 19.826321
-72.844452 46.252804 19.807472
-72.904564 46.275631 19.809032
-73.140762 46.419426 22.465736
-72.952454 46.269505 19.784081
-73.179138 46.416576 22.456184
-72.99337 46.289425 19.791348
-73.214035 46.413315 22.477451
-73.028168 46.271793 19.798464
-73.063553 46.268936 19.819139
-73.096405 46.263443 19.826992
-73.130165 46.261314 19.830143
-73.165146 46.246967 19.832663
-73.195984 46.234856 19.848783
-73.222076 46.221569 19.883139
-73.411194 46.455769 22.380575
-73.43174 46.404648 22.396391
-73.263489 46.29081 19.737669
-73.29023 46.254757 19.752045
-73.325905 46.249069 19.791821
-73.365341 46.233063 19.828207
-73.333664 46.284679 19.262518
-73.405502 46.214832 19.850853
-73.538506 46.263111 20.547213
-73.498909 46.225887 19.898067
-73.467743 46.27895 19.330519
-73.527 46.252762 19.638165
-73.549255 46.234261 19.352619
-73.532196 46.235775 19.055552
-73.569656 46.197178 19.055326
-73.552055 46.187057 18.753853
-73.536392 46.198299 18.470428
-75.886665 46.295921 22.445854
-75.762863 46.170666 19.41132
-75.742691 46.156193 19.094328
-75.824059 46.158085 19.421431
-75.804939 46.152012 19.109737
-75.787567 46.159012 18.810324
-75.769028 46.15427 18.506672
-75.903221 46.154129 19.739784
-75.885147 46.160172 19.432013
-75.865891 46.154423 19.119925
-75.828743 46.148949 18.510691
-76.064781 46.278809 22.68944
-76.053757 46.357819 22.401476
-76.123238 46.326324 22.401814
-76.182556 46.308132 22.418966
-76.232834 46.312946 22.45652
-76.281898 46.294376 22.47509
-76.340248 46.282719 22.499561
-76.545013 46.276844 22.438963
-76.602989 46.284935 22.408342
-76.668762 46.29245 22.393467
-76.81015 46.31316 22.33857
-77.04631 46.272423 22.441252
-77.117767 46.272854 22.386126
-77.203178 46.318504 22.352127
-63.166409 47.30407 31.05982
-63.144661 47.288788 30.496643
-63.464428 47.275436 31.027882
-63.445045 47.243183 30.4545
-63.762104 47.245701 30.994749
-63.7369 47.25531 30.448172
-63.712757 47.258961 29.903574
-64.057777 47.229141 30.975355
-64.032738 47.238735 30.428995
-64.350082 47.21891 30.961876
-64.324165 47.236969 30.420942
-64.301353 47.232204 29.871422
-64.646103 47.202061 30.938332
-64.623444 47.194771 30.38176
-64.598747 47.206745 29.8431
-64.940376 47.245308 30.948303
-64.920547 47.212891 30.375589
-67.098434 47.041912 30.041475
-67.051666 47.021038 28.949842
-67.027451 47.027447 28.42252
-67.399506 47.014137 30.01166
-67.353775 46.975784 28.910284
-67.327347 47.016472 28.403431
-67.64959 46.998486 28.928947
-67.629135 46.944553 28.366529
-67.604599 46.962376 27.851614
-68.017311 47.01413 30.575098
-67.948166 46.949741 28.908873
-67.924141 46.9562 28.381922
-67.902092 46.93092 27.842037
-67.856316 46.923931 26.803181
-68.247879 46.914391 28.883072
-68.224297 46.912102 28.351324
-68.200386 46.921379 27.831533
-68.178276 46.898895 27.298954
-68.61422 46.996273 30.549335
-68.590408 46.978168 29.989752
-68.543343 46.948967 28.893345
-68.518555 46.972786 28.376282
-68.496857 46.930267 27.826225
-68.932281 47.063206 31.142643
-69.228851 47.036446 31.132351
-69.522377 47.04126 31.144289
-69.81282 47.062523 31.16506
-70.106216 47.014568 31.143257
-70.398453 46.970329 31.131592
-70.637115 46.96217 30.043066
-70.612701 46.921993 29.474455
-70.853134 46.787262 28.353567
-70.829407 46.754227 27.808475
-70.806084 46.785053 27.304874
-70.782867 46.766655 26.778763
-71.118118 46.751606 27.837551
-71.09462 46.739159 27.309324
-71.071442 46.738518 26.792862
-71.048447 46.732327 26.278339
-71.025688 46.729488 25.770447
-71.377457 46.6991 27.320869
-71.354347 46.698723 26.804405
-71.331383 46.692795 26.289877
-71.309212 46.734509 25.80517
-71.635757 46.690266 26.839207
-71.590042 46.673836 25.811516
-71.918976 46.679367 26.875597
-71.89566 46.656776 26.351002
-71.873276 46.663914 25.847281
-71.850761 46.65683 25.340727
-71.828537 46.653309 24.840609
-71.806198 46.635551 24.337923
-72.225548 46.701508 27.447819
-72.202591 46.702751 26.930124
-72.17762 46.627949 26.376562
-72.155571 46.644321 25.877335
-72.13356 46.655449 25.379684
-72.659798 46.917122 30.847597
-72.635368 46.920795 30.295164
-72.558098 46.782806 28.585613
-72.937691 46.858639 30.855736
-72.915634 46.913548 30.334919
-73.209541 46.851974 30.911037
-73.187569 46.899044 30.384533
-73.451645 46.869297 30.438147
-73.567383 46.703224 27.192963
-73.974472 46.85981 30.573202
-73.951393 46.86076 30.020775
-73.827354 46.669411 27.234758
-74.234116 46.793434 30.585621
-74.213684 46.828724 30.054089
-74.091133 46.657154 27.276476
-74.332321 46.585102 26.760796
-74.313339 46.614845 26.262781
-74.550659 46.492481 25.739048
-74.528831 46.476189 25.226526
-74.507469 46.463375 24.720573
-74.485214 46.436253 24.212267
-74.46814 46.475796 23.740545
-74.447479 46.465374 23.248768
-74.42662 46.449863 22.758852
-74.772995 46.464111 24.776575
-74.750778 46.437641 24.267698
-74.731209 46.441784 23.778244
-74.711403 46.440876 23.290438
-74.689201 46.407726 22.791908
-74.669647 46.405807 22.311852
-74.990868 46.435799 23.825052
-74.967484 46.390266 23.315641
-74.949203 46.402817 22.837732
-74.92836 46.383209 22.349056
-75.284714 46.426105 24.851603
-75.266037 46.436363 24.359518
-75.244637 46.414566 23.856104
-75.222939 46.387489 23.354805
-75.204193 46.391418 22.872267
-75.182732 46.363121 22.379107
-75.499794 46.375355 23.875614
-75.481613 46.384651 23.39106
-75.457977 46.334644 22.883137
-75.440025 46.342937 22.406244
-75.780251 46.366592 24.399893
-75.759933 46.354362 23.900372
-75.73745 46.31889 23.394342
-75.719139 46.32336 22.911394
-75.703194 46.35017 22.442244
-75.683296 46.3358 21.958275
-75.663071 46.31649 21.476147
-76.136368 46.526981 26.534676
-76.091103 46.470844 25.48259
-76.073555 46.48769 24.986929
-76.048981 46.436859 24.462074
-76.027809 46.41629 23.957138
-76.006264 46.390434 23.454308
-76.412956 46.485588 27.05237
-76.6819 46.539852 27.097103
-77.079628 46.652714 30.411871
-77.205223 46.500549 27.096889
-77.469986 46.455173 27.087259
-77.995262 46.456562 26.572905
-78.108093 46.239712 22.949533
-78.091911 46.249165 22.468752
-78.076477 46.262871 21.993406
-78.660553 46.2085 22.955894
-78.600861 46.159153 21.488438
-78.939064 46.183586 22.949684
-78.882294 46.152447 21.489033
-62.38398 46.119213 9.7701778
-62.254585 45.954517 6.758626
-62.239689 45.979454 6.6236978
-62.215683 45.976364 6.3479724
-62.11787 45.985336 5.2536221
-62.305931 45.950611 6.6160879
-62.293365 45.954628 6.4786925
-62.190327 45.906967 5.2444949
-62.178127 45.908939 5.1084809
-62.162598 45.939526 4.9728017
-62.149487 45.949059 4.8365211
-62.138836 45.937546 4.7001705
-62.107815 45.895912 4.2922425
-62.096588 45.889603 4.1562734
-62.369217 45.942345 6.6054044
-62.356647 45.946339 6.467834
-62.346336 45.929337 6.328341
-62.124294 45.87434 3.7330613
-62.434345 45.934875 6.588902
-62.422684 45.928898 6.4501033
-62.511364 45.941517 6.715775
-62.499287 45.936707 6.5765338
-62.48737 45.930664 6.4374995
-62.565784 45.92807 6.5645251
-62.552601 45.931866 6.426394
-62.255749 45.861134 3.1286781
-62.61747 45.921883 6.4197836
-62.707104 45.930851 6.7045212
-62.694576 45.926113 6.5646234
-62.763111 45.913071 6.5758972
-62.748875 45.927067 6.4381499
-62.816303 45.913494 6.453618
-62.804066 45.906677 6.3136067
-62.882618 45.909946 6.469099
-65.089424 46.527252 18.659491
-64.77623 46.334435 14.586883
-64.73877 46.34737 14.204081
-64.721016 46.3158 13.994171
-64.703911 46.264297 13.775951
-64.843903 46.302982 14.596766
-64.699341 46.298412 13.076219
-64.683044 46.253975 12.872339
-64.910728 46.303253 14.631282
-64.681358 46.259789 12.190482
-64.652054 46.121204 11.782483
-64.63562 46.126896 11.613923
-64.619896 46.112411 11.438234
-64.54261 46.060379 10.588511
-64.511917 46.056171 10.26296
-64.497337 46.037468 10.096199
-64.482208 46.03616 9.936264
-64.467224 46.033325 9.7767506
-64.452774 46.019402 9.6147957
-64.976738 46.272236 14.640385
-64.848541 46.313885 13.321953
-64.637123 46.105434 10.951567
-64.621475 46.103001 10.785227
-64.606598 46.080128 10.612638
-64.591606 46.064949 10.444195
-64.561813 46.039093 10.112569
-64.546997 46.028488 9.9492531
-64.532349 46.016304 9.7865219
-64.516388 46.040821 9.6359282
-64.501648 46.035191 9.4768829
-64.485886 46.0569 9.3264513
-64.472603 46.019413 9.1601954
-64.457893 46.018944 9.0051308
-64.444145 45.997665 8.8454733
-64.625053 46.111576 10.138865
-64.6101 46.101265 9.9746437
-64.59565 46.079823 9.8080397
-64.581383 46.056747 9.6422005
-64.567299 46.032055 9.4771414
-64.552277 46.034607 9.3210268
-64.537384 46.035698 9.1652212
-64.523003 46.025677 9.0071907
-64.507576 46.043221 8.8570566
-64.49305 46.039997 8.7021761
-64.478653 46.035339 8.5476589
-64.464386 46.029255 8.3935175
-64.449379 46.041275 8.2440176
-64.437141 45.993271 8.0823336
-65.11084 46.274235 14.650179
-64.981865 46.308334 13.323477
-64.584404 46.083275 9.0127077
-64.570015 46.071873 8.8544378
-64.556557 46.03957 8.6919384
-64.542076 46.034885 8.5371752
-64.528137 46.019028 8.3805847
-64.513496 46.021236 8.2287922
-64.49897 46.022064 8.0772324
-64.484558 46.021519 7.9259181
-64.470253 46.019596 7.7748618
-64.456062 46.016308 7.6240754
-64.0159 45.722435 2.8176579
-65.17881 46.263119 14.645666
-65.159332 46.332184 14.487903
-65.048874 46.306206 13.322516
-65.228477 46.332146 14.502675
-65.190598 46.326496 14.107361
-64.147835 45.722584 2.9372013
-64.134232 45.716534 2.7926226
-65.741013 46.528065 18.683762
-65.624123 46.498264 17.453615
-65.353699 46.324314 14.543885
-64.256126 45.721405 2.7854013
-64.242561 45.714161 2.6401734
-65.683319 46.498932 17.483429
-65.41333 46.320812 14.563793
-64.318863 45.70871 2.7823741
-64.304665 45.711422 2.6358092
-65.473961 46.290665 14.569942
-64.407005 45.716442 3.0710039
-64.393349 45.711861 2.9254148
-64.379768 45.705997 2.7797775
-64.365593 45.708763 2.6329513
-65.53569 46.259865 14.577313
-65.287216 46.114143 11.890474
-64.467934 45.71368 3.0702574
-64.426521 45.706177 2.6314175
-65.600388 46.253956 14.601536
-64.570091 45.726574 3.5087388
-64.488319 45.693798 2.6329494
-65.527061 46.276878 13.276236
-64.576324 45.720322 3.0658433
-64.56369 45.696068 2.9212866
-64.549339 45.70034 2.7738698
-64.535645 45.693382 2.6273806
-65.519737 46.280708 13.267673
-64.561844 45.703587 2.8978331
-64.54818 45.69791 2.7512331
-64.533981 45.700859 2.603457
-65.892639 46.331913 16.585243
-65.58017 46.273903 13.274061
-64.61956 45.700195 2.8878546
-64.604706 45.714355 2.7388904
-64.591644 45.697426 2.5929606
-65.640839 46.275394 13.286119
-65.519096 46.095863 11.922416
-64.675415 45.696842 2.8792064
-64.661659 45.691132 2.7320914
-64.647957 45.684124 2.5849395
-65.703377 46.275204 13.301064
-64.743134 45.697861 3.0210688
-64.7015 45.680759 2.5789819
-65.88015 46.279957 14.486917
-65.860901 46.287563 14.291211
-65.766876 46.267647 13.308816
-64.797699 45.704346 3.0123551
-64.770187 45.684273 2.7180471
-64.756241 45.677261 2.5703931
-65.938789 46.272701 14.494171
-65.919586 46.289158 14.303131
-65.900078 46.259781 14.088478
-64.851875 45.70071 3.0023284
-64.8097 45.683453 2.5584612
-65.994133 46.260963 14.508856
-65.975067 46.286343 14.322485
-65.880661 46.268436 13.337024
-65.755547 46.10294 11.969122
-64.907028 45.697338 2.9991062
-64.893433 45.682983 2.8518937
-64.879379 45.677273 2.703757
-64.865379 45.670254 2.5555835
-66.052353 46.271141 14.54516
-65.938683 46.26318 13.361524
-65.796257 46.108936 11.81694
-64.96537 45.684349 3.0031886
-64.951271 45.680035 2.8548343
-64.937218 45.674412 2.7064312
-64.923218 45.66748 2.5579908
-65.853973 46.105263 11.840234
-65.021324 45.68129 3.0079818
-64.993118 45.671558 2.7106974
-64.979095 45.664722 2.5619924
-66.055893 46.244709 13.403445
-65.912262 46.113117 11.862105
-65.074776 45.687813 3.0069754
-65.06105 45.67371 2.8589582
-66.116501 46.245152 13.416725
-66.098 46.250629 13.227931
-65.971794 46.105759 11.869017
-65.528061 45.915749 7.2135797
-66.174004 46.255272 13.432862
-65.581284 45.940907 7.2166905
-66.30674 46.246101 14.230456
-65.219009 45.662075 2.8367472
-66.343071 46.24823 14.052866
-66.304802 46.252937 13.660931
-66.286003 46.261086 13.47051
-65.287231 45.672493 2.982672
-65.258858 45.652985 2.683665
-66.33683 46.258045 13.490272
-66.317818 46.237617 13.286713
-66.299347 46.241951 13.097329
-65.311768 45.649574 2.6815553
-66.239494 46.088943 11.930895
-66.22229 46.097954 11.754566
-65.366539 45.646183 2.6774478
-66.288841 46.09816 11.95027
-66.271698 46.098171 11.769694
-66.204353 46.108288 11.063738
-66.354057 46.096077 12.147786
-66.319748 46.079884 11.77775
-65.476913 45.639912 2.6696656
-66.351852 46.052258 11.598388
-66.318871 46.090351 11.257566
-65.557091 45.645939 2.9657481
-65.543076 45.642002 2.8144879
-66.35244 46.042656 11.063831
-66.336281 46.071575 10.899371
-66.304024 46.105915 10.563919
-65.579659 45.633221 2.6487322
-66.367096 46.005062 10.690509
-66.35099 46.002232 10.51683
-66.33519 46.054607 10.362727
-66.319305 46.077103 10.198891
-66.365501 45.99382 10.153454
-66.349731 46.014462 9.9901438
-66.334015 46.033592 9.8269053
-65.712517 45.677235 3.0483832
-66.381897 45.997314 9.7973347
-66.366226 46.01474 9.6342478
-66.350586 46.011429 9.4657831
-66.33503 46.016163 9.3004236
-65.759087 45.6432 3.0222197
-66.412819 45.94714 9.6021528
-66.397163 45.943604 9.4340305
-66.381592 45.977051 9.2769508
-66.366051 45.999428 9.1171026
-66.350555 46.010674 8.9547501
-65.802467 45.638821 2.9995086
-66.460762 45.942787 9.6015511
-66.445053 45.929684 9.4304495
-66.429443 45.914944 9.2599659
-66.413933 45.92757 9.0978041
-66.398499 45.919334 8.93083
-66.383034 45.967785 8.778717
-66.367691 45.966274 8.6145515
-66.477417 45.926632 9.2745609
-66.461937 45.929783 9.1094122
-66.446518 45.9314 8.9445744
-66.43119 45.912071 8.7752666
-66.415909 45.920322 8.6135769
-66.400711 45.917351 8.4498425
-66.385437 45.951935 8.2950525
-66.478294 45.922592 8.7947826
-66.463135 45.911621 8.6280241
-66.447998 45.928333 8.4684935
-66.432983 45.91431 8.302537
-66.418022 45.908527 8.1391954
-66.403038 45.920845 7.9802103
-66.388039 45.941555 7.8231869
-66.466698 45.901085 8.1500387
-66.451859 45.903755 7.9888072
-66.437126 45.895145 7.8259096
-66.422188 45.934216 7.6725111
-66.407623 45.912861 7.508307
-66.392998 45.909721 7.3480096
-66.209251 45.709278 5.2933631
-66.194832 45.726322 5.140244
-66.181206 45.702065 4.985497
-65.986404 45.620842 2.8394611
-66.471336 45.888565 7.6715961
-66.456535 45.916504 7.5161338
-66.441879 45.923351 7.3571353
-66.21682 45.681763 4.833004
-66.202332 45.704838 4.6797476
-66.188049 45.716572 4.5260277
-66.223343 45.662518 4.372231
-66.209137 45.671616 4.2184124
-66.194946 45.679363 4.0644302
-66.180534 45.695755 3.9100442
-66.166367 45.700794 3.7556846
-66.151962 45.714466 3.6007705
-66.216858 45.646606 3.7573516
-66.202744 45.650364 3.6030376
-66.188652 45.652763 3.448607
-66.174057 45.673763 3.2928779
-66.159981 45.673435 3.1380765
-66.751991 45.575031 2.7609677
-66.79567 45.580597 2.7438853
-68.529259 46.089924 13.481313
-68.511314 46.053139 13.257871
-68.499718 46.047386 12.664369
-68.488731 46.044193 12.0792
-68.62397 46.073322 13.310669
-68.495941 45.97723 11.673525
-68.666626 46.074135 13.324277
-68.522812 45.960461 11.484426
-68.508087 45.967632 11.295615
-68.493393 45.972973 11.107239
-68.477905 45.948189 10.909389
-68.462761 45.930878 10.71573
-68.447937 45.921139 10.526031
-68.707138 46.057808 13.327315
-68.579102 45.972988 11.689956
-68.563713 45.963516 11.493134
-68.548668 45.961445 11.300527
-68.533951 45.966885 11.111906
-68.518715 45.95163 10.91712
-68.504349 45.962826 10.732811
-68.489471 45.953289 10.542536
-68.474899 45.951416 10.355989
-68.460373 45.94775 10.169965
-68.445633 45.932732 9.9815826
-68.431427 45.935078 9.7995453
-68.417252 45.935711 9.6179123
-68.402878 45.924995 9.4340553
-68.388763 45.922195 9.2533617
-68.37426 45.898335 9.0681677
-68.750671 46.059784 13.338338
-68.622108 45.966797 11.694789
-68.591934 45.964821 11.308344
-68.576912 45.960983 11.116007
-68.561646 45.94582 10.920975
-68.547546 45.966568 10.739645
-68.532906 45.966637 10.552184
-68.517525 45.936352 10.356041
-68.503494 45.951828 10.175807
-68.48922 45.956055 9.9928827
-68.403992 45.935715 8.9016294
-68.361946 45.907536 8.3637447
-68.347816 45.885033 8.1834335
-68.666985 45.970505 11.702202
-68.65123 45.951904 11.501261
-68.636726 45.968765 11.315109
-68.620789 45.936829 11.112275
-68.606071 45.940556 10.923779
-68.591385 45.942463 10.735752
-68.577271 45.961533 10.554496
-68.562111 45.940842 10.361169
-68.547264 45.927792 10.17167
-68.533234 45.941605 9.9915581
-68.711456 45.95752 11.697861
-68.696541 45.966965 11.50742
-68.681053 45.955807 11.310453
-68.665611 45.942688 11.114246
-68.6511 45.955917 10.928732
-68.635757 45.938995 10.733851
-68.621574 45.958103 10.552348
-68.606323 45.937443 10.358784
-68.591919 45.943512 10.174994
-68.577545 45.947842 9.9915762
-68.892326 46.065559 13.350362
-68.760643 45.955757 11.69276
-68.745575 45.965206 11.502081
-68.729607 45.944675 11.301424
-68.714317 45.940929 11.108453
-68.698769 45.925854 10.912796
-68.684143 45.937229 10.72759
-68.669533 45.946846 10.542704
-68.654671 45.945187 10.355102
-68.63958 45.932182 10.165049
-68.624535 45.917339 9.9756985
-68.945946 46.073315 13.350842
-68.929222 46.07172 13.142445
-68.91291 46.077087 12.938885
-68.89592 46.062092 12.727876
-68.812347 45.963799 11.690928
-68.796745 45.963932 11.496402
-68.780869 45.95277 11.298993
-68.764732 45.930237 11.098966
-68.750175 45.952869 10.916356
-68.735031 45.954861 10.727459
-68.719917 45.955029 10.539047
-68.704834 45.953388 10.351137
-68.68924 45.930847 10.157816
-68.674248 45.92556 9.9711275
-68.943779 46.074104 12.739411
-68.926918 46.066147 12.533135
-68.842537 45.966877 11.503546
-68.826385 45.955727 11.306067
-68.810287 45.942608 11.109348
-68.794853 45.946407 10.919985
-68.778854 45.929443 10.724676
-68.764389 45.958023 10.545804
-68.748184 45.927822 10.348689
-68.733459 45.943398 10.167385
-68.718201 45.938133 9.9805346
-68.880882 45.983051 11.786123
-68.86454 45.973717 11.587688
-68.8489 45.981171 11.396884
-68.832649 45.967945 11.199787
-68.81739 45.981087 11.013312
-68.801239 45.964046 10.817545
-68.786034 45.97356 10.631942
-68.770271 45.962265 10.440611
-68.755127 45.968216 10.255867
-68.739723 45.962841 10.068626
-68.941902 45.963402 11.963852
-68.926796 45.993202 11.779109
-68.910011 45.974487 11.576844
-68.894279 45.98188 11.385797
-68.877922 45.96859 11.188471
-68.861946 45.962788 10.995199
-68.846931 45.983509 10.812134
-68.830719 45.96452 10.616792
-68.815453 45.972183 10.431361
-68.799919 45.96854 10.243344
-68.784134 45.953522 10.053005
-69.105591 46.073929 13.430753
-68.9683 45.981274 11.772834
-68.951843 45.971897 11.573929
-68.936432 45.988693 11.386066
-68.919731 45.96603 11.185067
-68.903732 45.960236 10.991551
-68.888092 45.962025 10.801856
-68.87249 45.961987 10.612648
-68.857513 45.979187 10.429989
-68.84137 45.956463 10.235763
-68.826431 45.970158 10.05383
-68.333076 45.568348 4.0972953
-69.009521 45.96468 11.777883
-68.99382 45.974106 11.585839
-68.977806 45.972282 11.390777
-68.961494 45.959126 11.192958
-68.945885 45.962894 11.002459
-68.929672 45.945881 10.806051
-68.914757 45.964928 10.622883
-68.899239 45.963211 10.433842
-68.884041 45.969231 10.24826
-68.868294 45.954346 10.057337
-68.335915 45.594803 3.591974
-68.322105 45.568718 3.4253852
-69.186188 46.071732 13.467974
-69.0504 45.982384 11.804723
-69.033775 45.964035 11.601624
-69.017891 45.962402 11.406303
-69.002037 45.958851 11.211577
-68.986549 45.962833 11.020741
-68.970772 45.955505 10.827177
-68.955345 45.955788 10.637373
-68.939949 45.954247 10.448071
-68.924583 45.95089 10.259288
-68.908958 45.93615 10.068178
-68.353516 45.587215 3.259795
-69.086357 45.962688 11.818254
-69.070625 45.963215 11.622017
-69.054916 45.961807 11.426353
-69.039589 45.967896 11.234645
-69.023949 45.962685 11.040103
-69.008347 45.955574 10.84619
-68.99247 45.937077 10.649809
-68.977577 45.945213 10.463357
-68.96209 45.932487 10.271358
-68.947533 45.946632 10.088658
-68.357262 45.492558 2.7647314
-69.122421 45.963688 11.834047
-69.106201 45.94569 11.63041
-69.091064 45.953781 11.438011
-69.075951 45.960011 11.24604
-69.060852 45.964382 11.054515
-69.045143 45.947971 10.857052
-69.029472 45.929611 10.660399
-69.014168 45.918835 10.467613
-69.000122 45.944386 10.287318
-68.984573 45.920406 10.092712
-68.402733 45.488708 2.7628701
-69.157959 45.956802 11.843008
-69.142639 45.957623 11.646165
-69.127357 45.956509 11.449894
-69.112099 45.953468 11.254213
-69.096542 45.939068 11.055858
-69.081688 45.941643 10.864697
-69.066849 45.942379 10.674016
-69.052032 45.94128 10.483833
-69.037247 45.938362 10.294167
-69.022491 45.933632 10.105032
-69.17923 45.977959 11.667357
-69.162369 45.930168 11.453335
-69.148636 45.964836 11.271029
-69.132904 45.941189 11.06896
-69.118195 45.943916 10.877457
-69.103195 45.93531 10.683311
-69.088226 45.924812 10.489829
-69.073906 45.931534 10.302937
-69.059601 45.936497 10.11641
-69.216133 45.950043 11.674375
-69.201828 45.968018 11.484413
-69.185837 45.937141 11.277854
-69.171242 45.941914 11.08555
-69.156334 45.935364 10.8905
-69.142105 45.945904 10.702342
-69.127258 45.935619 10.50843
-69.112442 45.92345 10.315195
-69.098572 45.938133 10.131286
-69.382668 46.065868 13.371099
-69.25441 45.941132 11.687525
-69.239174 45.931133 11.486946
-69.224319 45.928551 11.290491
-69.209831 45.933479 11.097935
-69.194702 45.917622 10.899415
-69.180901 45.937775 10.714214
-69.16584 45.918118 10.516995
-69.151749 45.925167 10.329507
-69.137367 45.920872 10.139502
-69.421364 46.067139 13.385375
-69.292992 45.93433 11.695651
-69.278496 45.943203 11.501739
-69.263664 45.940788 11.304871
-69.248863 45.936451 11.108606
-69.235085 45.958588 10.922599
-69.219994 45.941017 10.72422
-69.204956 45.921494 10.526665
-69.190582 45.919121 10.335878
-69.175926 45.905354 10.142739
-69.463615 46.062531 13.389061
-69.335274 45.939552 11.700991
-69.320732 45.948509 11.506751
-69.305168 45.927364 11.302811
-69.290337 45.923046 11.106385
-69.276199 45.935738 10.917001
-69.261086 45.918156 10.718545
-69.246658 45.91766 10.527
-69.232887 45.934425 10.341889
-69.218491 45.930321 10.151217
-69.507729 46.059303 13.390103
-69.378464 45.936596 11.700207
-69.363464 45.936207 11.502275
-69.348839 45.943279 11.308296
-69.333542 45.929607 11.10818
-69.318283 45.913956 10.90885
-69.304398 45.934311 10.722818
-69.289528 45.92437 10.527827
-69.274689 45.912537 10.33351
-69.260513 45.917973 10.145638
-68.694176 45.471291 2.7256584
-69.55162 46.074242 13.399519
-69.421211 45.952347 11.706524
-69.406082 45.952045 11.508191
-69.390266 45.930977 11.303709
-69.375893 45.945614 11.113297
-69.360504 45.930038 10.913568
-69.345146 45.912498 10.714643
-69.330498 45.912041 10.522618
-69.315544 45.9002 10.328148
-69.301895 45.92477 10.145857
-69.593758 46.077805 13.409715
-69.477287 45.936443 11.906185
-69.46209 45.938141 11.707129
-69.446907 45.937881 11.508636
-69.431396 45.926266 11.307361
-69.41732 45.950413 11.119987
-69.401863 45.934933 10.919934
-69.38678 45.926979 10.723804
-69.372063 45.92664 10.531367
-69.357368 45.924461 10.339439
-69.342697 45.920448 10.148038
-68.993942 45.702343 5.6154528
-69.631729 46.070061 13.420605
-69.485161 45.931301 11.517299
-69.470398 45.938622 11.322508
-69.454941 45.925186 11.121582
-69.439865 45.919231 10.924644
-69.425163 45.920853 10.731463
-69.410477 45.92062 10.538774
-69.395805 45.918549 10.346593
-69.380836 45.905064 10.152065
-69.033012 45.698345 5.6158252
-69.730309 46.062641 14.30201
-69.665077 46.070194 13.438416
-69.534462 45.933098 11.731173
-69.519043 45.923756 11.528645
-69.504021 45.921806 11.330231
-69.489372 45.927357 11.135704
-69.474739 45.931034 10.941631
-69.459778 45.923351 10.744907
-69.444511 45.904236 10.545797
-69.429947 45.902264 10.353441
-69.415726 45.908028 10.164483
-69.069763 45.694115 5.6187038
-69.782219 46.077827 14.552647
-69.76516 46.070072 14.326642
-69.748566 46.068867 14.105984
-69.732445 46.074352 13.890463
-69.715919 46.068573 13.671354
-69.699028 46.05143 13.448915
-69.569565 45.924774 11.743812
-69.554962 45.934341 11.547937
-69.539658 45.923203 11.345733
-69.524033 45.90062 11.141
-69.510536 45.932781 10.956463
-69.495316 45.915783 10.756272
-69.480469 45.906334 10.559944
-69.451843 45.910458 10.17795
-69.107788 45.709572 5.6241212
-69.801704 46.069447 14.344872
-69.785568 46.077419 14.128314
-69.769035 46.074146 13.908063
-69.751686 46.050499 13.680118
-69.736069 46.060707 13.470054
-69.673386 46.071156 12.631682
-69.657883 46.070797 12.424676
-69.639725 46.003387 12.192423
-69.606697 45.935825 11.761683
-69.591377 45.926842 11.558487
-69.576805 45.934654 11.362782
-69.561546 45.921707 11.160922
-69.546318 45.906765 10.959843
-69.53215 45.918316 10.768948
-69.517319 45.909023 10.572282
-69.502846 45.907372 10.37925
-69.488388 45.903877 10.186739
-69.144882 45.715286 5.6271296
-69.838341 46.071072 14.358521
-69.805626 46.076096 13.921087
-69.772614 46.062973 13.482449
-69.756165 46.052986 13.264421
-69.739754 46.040733 13.047283
-69.724594 46.05378 12.842885
-69.693527 46.055298 12.427914
-69.677261 46.034374 12.214002
-69.627312 45.921005 11.56453
-69.612007 45.910103 11.361829
-69.597443 45.916061 11.166474
-69.582542 45.910675 10.968359
-69.568016 45.912853 10.774006
-69.552826 45.894131 10.574046
-69.538666 45.902084 10.383811
-69.524193 45.898674 10.191051
-69.511009 45.931812 10.010015
-69.180168 45.711452 5.6250353
-68.996788 45.556526 3.1990657
-69.827568 46.073872 13.711565
-69.810204 46.048141 13.483996
-69.794548 46.056435 13.274013
-69.778915 46.062603 13.064601
-69.762894 46.05748 12.851843
-69.747307 46.059402 12.64372
-69.731354 46.049984 12.432451
-69.716209 46.056988 12.229401
-69.680733 45.934162 11.775332
-69.665718 45.934761 11.575024
-69.650726 45.933395 11.375291
-69.63504 45.911209 11.169568
-69.62011 45.905895 10.971208
-69.605545 45.908142 10.776608
-69.590988 45.908524 10.582493
-69.576454 45.907047 10.388881
-69.562263 45.913296 10.198668
-69.548721 45.936947 10.014418
-69.216347 45.687828 5.6190481
-69.032799 45.552708 3.1909428
-69.847878 46.040668 13.493154
-69.753677 46.050251 12.237125
-69.703438 45.937737 11.585468
-69.688042 45.927105 11.382034
-69.672676 45.914459 11.179358
-69.657349 45.899815 10.977458
-69.642403 45.89267 10.779483
-69.628502 45.912159 10.591295
-69.61393 45.910809 10.397352
-69.599045 45.898033 10.201049
-69.585793 45.931347 10.01943
-69.068428 45.538906 3.1866243
-69.967461 46.07724 14.636354
-69.882301 46.019341 13.50802
-69.805046 46.059731 12.469617
-69.738564 45.92746 11.602263
-69.723564 45.926437 11.401955
-69.707863 45.904591 11.195641
-69.693619 45.91853 11.003132
-69.677994 45.892681 10.798387
-69.663773 45.90287 10.606825
-69.649231 45.901707 10.412628
-69.634697 45.898689 10.21895
-69.620834 45.913013 10.03141
-69.915756 46.022339 13.541642
-69.901474 46.058624 13.343207
-69.772346 45.914837 11.625154
-69.757828 45.923477 11.427979
-69.742966 45.92078 11.227921
-69.727417 45.897217 11.022023
-69.712959 45.900063 10.826507
-69.698166 45.891518 10.628411
-69.683739 45.890598 10.433956
-69.669327 45.887821 10.240016
-69.655579 45.902382 10.052228
-69.946434 46.017708 13.568715
-69.931923 46.045177 13.365855
-69.804665 45.912785 11.649126
-69.789597 45.902885 11.444824
-69.775269 45.909821 11.2479
-69.760956 45.91486 11.051417
-69.745956 45.89904 10.849096
-69.731674 45.900261 10.653716
-69.702827 45.887539 10.26156
-69.688591 45.883152 10.067802
-69.962288 46.025948 13.377878
-69.837029 45.913513 11.666674
-69.822098 45.903816 11.462029
-69.807556 45.90152 11.261452
-69.79303 45.89727 11.061478
-69.778877 45.900555 10.86528
-69.764389 45.892452 10.666489
-69.750259 45.89196 10.471343
-69.722054 45.885399 10.082606
-69.709244 45.917797 9.8999958
-69.999168 46.018631 13.387867
-69.859291 45.897621 11.469793
-69.845139 45.904865 11.272285
-69.830994 45.910206 11.075213
-69.802055 45.896202 10.676319
-69.787613 45.886303 10.477851
-69.759796 45.88953 10.091428
-69.747017 45.92205 9.9084835
-69.733269 45.924011 9.7174692
-69.259041 45.541145 3.2062359
-70.038063 46.002529 13.392956
-69.883926 45.899052 11.279092
-69.869736 45.904503 11.081777
-69.855202 45.898571 10.881763
-69.841377 45.909725 10.688534
-69.771667 45.918983 9.7223024
-70.144745 46.068466 14.315657
-69.952705 45.913925 11.696208
-69.922676 45.893295 11.285868
-69.908783 45.908306 11.091548
-69.893822 45.893028 10.888053
-69.879593 45.894772 10.691507
-69.865036 45.885098 10.492462
-69.82312 45.892654 9.9131479
-70.167603 46.042934 14.091721
-70.152687 46.066628 13.881879
-70.136909 46.070103 13.66398
-70.118629 46.016743 13.42201
-69.977997 45.918228 11.502809
-69.933662 45.897591 10.895812
-69.919044 45.889938 10.695864
-69.890556 45.887962 10.303765
-69.863106 45.907368 9.9219885
-69.779312 45.874451 8.7734194
-69.369736 45.531372 3.191241
-70.155617 46.002838 13.422996
-70.142021 46.047363 13.227049
-70.125511 46.025837 13.003275
-70.014755 45.895313 11.498936
-70.000465 45.902992 11.300284
-69.942352 45.886078 10.501245
-69.928123 45.884209 10.3052
-69.90168 45.932556 9.9311304
-69.816948 45.871075 8.7728224
-69.407486 45.528137 3.1825955
-70.176796 46.025009 13.222839
-70.162415 46.049339 13.018811
-70.145569 46.016441 12.79175
-70.131203 46.036591 12.588778
-70.115639 46.026947 12.374949
-69.93763 45.919746 9.9283075
-69.444847 45.514957 3.1733477
-70.182884 46.000969 12.796622
-70.168571 46.021202 12.593487
-70.153862 46.030186 12.386942
-70.134834 45.934795 12.140811
-70.059937 45.890453 11.107031
-70.017075 45.887199 10.510921
-70.002922 45.885494 10.314285
-69.484436 45.501839 3.1693132
-70.19062 45.947517 12.37098
-70.029297 45.884747 10.132069
-70.016525 45.917919 9.9471216
-69.525101 45.498714 3.1703622
-69.564125 45.5056 3.1725776
-70.096977 45.923054 9.9769707
-69.603859 45.492481 3.175245
-70.13652 45.906368 9.9864664
-69.643311 45.489372 3.1777372
-69.718994 45.48307 3.1807935
-69.75515 45.500034 3.1791947
-69.789352 45.497051 3.1772308
-70.229385 45.736824 8.6478167
-69.826683 45.493988 3.1756775
-69.865868 45.480965 3.178926
-69.906403 45.488239 3.1916444
-69.948547 45.475445 3.2065239
-71.423042 45.695972 8.8353968
-71.384232 45.672493 8.2410746
-71.371628 45.670841 8.0458889
-71.359703 45.687073 7.8547044
-71.346367 45.662228 7.6566334
-71.335068 45.69471 7.4691777
-71.269608 45.574539 6.4964948
-71.013313 45.410233 2.5749114
-71.000931 45.388325 2.3905988
-70.989082 45.394714 2.2042198
-70.977364 45.409416 2.0167496
-71.421753 45.677494 8.2527132
-71.409561 45.685791 8.0590868
-71.397339 45.692345 7.8656549
-71.384048 45.667633 7.6672273
-71.371445 45.660812 7.4728379
-71.052277 45.417999 2.5759153
-71.039742 45.386158 2.3919365
-71.027954 45.392593 2.2052944
-71.01593 45.387424 2.0192995
-71.471039 45.683681 8.4549646
-71.458176 45.674248 8.2567453
-71.445663 45.672806 8.0609531
-71.433487 45.679417 7.8673468
-71.420929 45.674442 7.6722136
-71.408356 45.667702 7.4774771
-71.089668 45.415939 2.5720236
-71.077156 45.384102 2.3877778
-71.065208 45.380573 2.2016523
-71.521164 45.689632 8.6517506
-71.507935 45.672272 8.4506979
-71.495079 45.662842 8.2523098
-71.482933 45.671211 8.0582504
-71.470398 45.668011 7.862565
-71.458199 45.672878 7.6689944
-71.445274 45.656292 7.4723516
-71.126625 45.403934 2.5623996
-71.114105 45.372055 2.3779848
-71.102356 45.378448 2.1909029
-71.556465 45.680893 8.6376305
-71.531113 45.673519 8.2418327
-71.518227 45.662212 8.0436277
-71.50605 45.668751 7.8495865
-71.494194 45.683388 7.6574821
-71.481262 45.66674 7.460506
-71.162231 45.411816 2.5416644
-71.149902 45.389771 2.35622
-71.13813 45.396015 2.168699
-71.577942 45.675304 8.4216185
-71.565086 45.665695 8.2227287
-71.553314 45.683697 8.0300331
-71.54007 45.660667 7.8301396
-71.528587 45.68502 7.6395698
-71.516357 45.687973 7.4456153
-71.451286 45.567623 6.4665484
-71.196297 45.379677 2.5187654
-71.184196 45.367455 2.3326278
-71.172646 45.383503 2.1442165
-71.627022 45.683456 8.6120739
-71.614197 45.67564 8.412426
-71.602104 45.685585 8.217227
-71.589241 45.674141 8.0184336
-71.577095 45.680538 7.8237801
-71.56385 45.655655 7.6241922
-71.5513 45.648655 7.4286051
-71.233185 45.387829 2.5009599
-71.221085 45.375496 2.3144782
-71.65107 45.674187 8.4105015
-71.637878 45.654766 8.2091303
-71.626144 45.672741 8.0159922
-71.614372 45.688995 7.8228788
-71.601135 45.664146 7.6229491
-71.588951 45.667046 7.4286451
-71.27021 45.376278 2.4915853
-71.258125 45.363911 2.3049295
-72.625458 46.445724 22.984241
-71.699371 45.672092 8.6020937
-71.686577 45.66428 8.4020205
-71.674133 45.664429 8.2044191
-71.661674 45.662781 8.0071688
-71.649185 45.659344 7.8102846
-71.637039 45.663967 7.6154938
-71.625214 45.676708 7.422555
-71.30619 45.374851 2.4771705
-71.294312 45.372379 2.2895379
-71.737831 45.684948 8.5862513
-71.724602 45.667255 8.3838034
-71.712105 45.667286 8.1859484
-71.699219 45.655708 7.9865718
-71.687416 45.671799 7.793097
-71.6745 45.656628 7.5945578
-71.661919 45.649509 7.3982062
-71.342567 45.373379 2.4512227
-71.330643 45.370731 2.263334
-72.719093 46.494946 22.981171
-71.775864 45.670902 8.5541449
-71.749825 45.652767 8.1537132
-71.73716 45.650764 7.9561367
-71.724831 45.656807 7.7607045
-71.712112 45.651245 7.563798
-71.698669 45.624176 7.3640871
-71.647255 45.567139 6.5818372
-71.388718 45.392857 2.6026776
-71.376236 45.371635 2.4157407
-71.363945 45.358757 2.2283447
-71.827309 45.673622 8.7229166
-71.814438 45.676853 8.5239143
-71.800774 45.658695 8.3211994
-71.787857 45.658272 8.1230297
-71.775299 45.665871 7.927062
-71.761971 45.652035 7.7277732
-71.749718 45.665939 7.5340695
-71.734924 45.609051 7.3293018
-71.68351 45.580738 6.5505862
-71.419243 45.391277 2.5652838
-71.406509 45.369785 2.3781314
-72.52597 46.241543 18.432037
-71.866264 45.669231 8.6943111
-71.852768 45.662487 8.4930582
-71.839645 45.663681 8.2943068
-71.826111 45.653259 8.093976
-71.813316 45.660652 7.8978424
-71.800125 45.656445 7.7001634
-71.787277 45.660305 7.5045366
-71.732857 45.578991 6.7139797
-71.450943 45.379841 2.5319479
-71.438202 45.368084 2.3439825
-71.90316 45.67231 8.6759062
-71.889534 45.665447 8.474412
-71.8759 45.656731 8.2734146
-71.862251 45.646172 8.0729294
-71.849716 45.66325 7.8784509
-71.836769 45.668755 7.6822653
-71.822701 45.642937 7.4813371
-71.755119 45.565792 6.498075
-71.483749 45.368233 2.506319
-71.471107 45.366276 2.3175085
-71.937935 45.672329 8.6696892
-71.910713 45.656715 8.2666874
-71.897469 45.655949 8.0678558
-71.88382 45.643551 7.8675613
-71.871269 45.658844 7.6730227
-71.857948 45.652695 7.4752312
-71.803123 45.570679 6.683074
-71.519012 45.366776 2.4918451
-71.506165 45.354763 2.3034649
-72.044189 45.725937 9.6967678
-72.029884 45.709232 9.487114
-71.988152 45.676468 8.8694496
-71.961067 45.664604 8.4649553
-71.947891 45.665676 8.2654352
-71.934311 45.655125 8.064353
-71.921471 45.662388 7.8674397
-71.9086 45.667881 7.6707311
-71.894958 45.651894 7.4709444
-71.557091 45.355354 2.4813468
-71.544518 45.353264 2.2920971
-72.383568 45.96106 14.174199
-72.094933 45.740303 9.9037676
-72.080605 45.725597 9.69314
-72.066689 45.718571 9.4857368
-72.052757 45.709602 9.2789125
-72.039223 45.708416 9.0750122
-72.025269 45.69561 8.8693132
-72.0121 45.700401 8.6685629
-71.997726 45.674038 8.4619007
-71.98452 45.675121 8.2620411
-71.970909 45.664577 8.0606203
-71.956909 45.642368 7.8579125
-71.944763 45.6675 7.6645799
-71.930367 45.631786 7.4612503
-71.876022 45.559486 6.6690445
-71.59256 45.353825 2.4682894
-71.58017 45.361633 2.2780831
-72.740143 46.280437 18.747065
-72.36245 45.94371 13.233089
-72.345108 45.905716 12.988748
-72.299553 45.897682 12.310593
-72.06456 45.715065 8.8673134
-72.050842 45.710121 8.66399
-72.037895 45.722858 8.4652853
-72.023743 45.704426 8.2607832
-72.010353 45.70372 8.0607624
-71.996941 45.701206 7.8610992
-71.982018 45.657509 7.6549015
-71.969315 45.671036 7.4596319
-71.626198 45.342182 2.4542789
-71.613678 45.349911 2.2639043
-72.789322 46.288139 18.755356
-72.344406 45.925709 12.31876
-72.064171 45.714184 8.2557468
-72.023041 45.696774 7.6540585
-72.009789 45.700474 7.4565544
-71.937965 45.543728 6.454782
-71.661743 45.36055 2.4386616
-71.649048 45.368179 2.2478592
-72.336441 45.888069 11.640295
-72.321259 45.880634 11.419671
-72.047203 45.709877 7.4508839
-71.974586 45.543118 6.4462609
-71.696243 45.338783 2.4260566
-71.683479 45.346344 2.2351685
-72.435074 45.911961 12.093365
-71.784805 45.375736 2.5922709
-71.856506 45.361874 2.5738668
-72.980698 46.203541 18.459812
-72.963181 46.221855 18.191177
-72.544571 45.890026 12.083961
-71.891296 45.349808 2.5553136
-71.878197 45.338749 2.3643522
-73.038116 46.180485 18.715544
-72.582176 45.884594 12.066636
-71.925835 45.357372 2.5295103
-71.912422 45.336151 2.3388586
-73.081161 46.28413 18.777828
-72.61779 45.886669 12.057395
-71.960541 45.344902 2.5091214
-71.947121 45.323544 2.31831
-71.998161 45.33263 2.5010235
-71.985497 45.341167 2.3080807
-73.062317 46.209938 17.64892
-72.246307 45.533165 5.5948706
-72.233604 45.538864 5.4002881
-72.219894 45.512932 5.2037845
-72.036385 45.340473 2.5000498
-72.023376 45.329082 2.3080499
-72.404541 45.688736 7.3916674
-72.219498 45.542568 4.6180754
-72.075119 45.338303 2.4925668
-72.062729 45.34684 2.2989964
-72.438362 45.630604 7.3650408
-72.191978 45.489975 3.6252608
-72.099892 45.324341 2.2766404
-72.471283 45.623779 7.3353391
-72.144241 45.323219 2.4355643
-72.131859 45.331337 2.24154
-72.395172 45.486187 5.7059779
-72.430122 45.565742 5.692349
-73.246338 46.188103 17.576605
-72.462425 45.584564 5.6784558
-72.253914 45.335205 2.5513659
-72.493729 45.582321 5.6711478
-72.289749 45.332165 2.5396411
-72.525764 45.589458 5.6683593
-72.325386 45.329025 2.5315721
-72.558006 45.596001 5.6680903
-72.359688 45.31567 2.5266056
-73.3993 46.253536 18.809206
-72.636314 45.517609 6.4604783
-72.590454 45.571766 5.6702304
-72.625793 45.566494 5.679379
-72.431496 45.32827 2.5298588
-72.754265 45.560749 7.2970629
-72.660271 45.570721 5.6926136
-72.46769 45.324444 2.5377569
-72.694069 45.554977 5.7024736
-72.504021 45.310341 2.5445466
-72.728264 45.528969 5.7123351
-72.541176 45.316032 2.5512397
-72.76265 45.492592 5.7235951
-72.577629 45.321674 2.5603201
-72.6008 45.297031 2.3732553
-72.649834 45.322781 2.57528
-72.688187 45.318306 2.5800214
-72.665604 45.29644 2.1857743
-72.729439 45.313934 2.5862398
-72.718391 45.303947 2.3887882
-72.707832 45.312183 2.1901369
-72.769989 45.319656 2.5915132
-72.807304 45.31538 2.5896683
-72.844131 45.311081 2.5775285
-72.822052 45.279457 2.1815946
-72.925583 45.302376 2.551069
-72.977875 45.288197 1.9405375
-73.025787 45.267391 2.1265509
-73.016167 45.283577 1.9248751
-73.12101 45.425587 3.1072404
-73.05584 45.268837 1.9087813
-73.129707 45.290649 2.5007331
-73.109177 45.268135 2.1002834
-73.098839 45.254257 1.9002247
-73.152351 45.263855 2.1031883
-73.205063 45.27179 2.3144624
-73.195168 45.259842 2.1137319
-73.247375 45.277702 2.3177991
-73.492653 45.445297 5.7262697
-73.324532 45.268948 2.2745049
-73.305328 45.262753 1.8699439
-73.534767 45.484138 5.7060122
-73.352959 45.252472 2.044631
-73.657707 45.552784 7.3603024
-73.57621 45.512127 5.6921678
-73.3909 45.248451 2.023653
-73.617599 45.5205 5.6762171
-73.461372 45.277351 2.6096241
-73.44117 45.25732 2.2046528
-73.470795 45.250637 1.9699254
-73.460541 45.235962 1.7673783
-73.573517 45.40884 3.1458299
-73.519127 45.249462 2.1325831
-73.509224 45.24622 1.9290515
-73.568558 45.257217 2.2950122
-73.537964 45.226616 1.6850314
-73.609306 45.253498 2.2596755
-73.598946 45.241489 2.0562582
-73.5895 45.257607 1.8507535
-73.57901 45.242027 1.6473215
-74.12043 45.741505 11.418723
-73.640579 45.237396 2.0260589
-73.630402 45.23336 1.8217694
-74.153076 45.727081 11.164225
-74.14225 45.735645 10.937957
-74.130882 45.73251 10.709261
-73.875031 45.482903 5.6973333
-73.684113 45.243305 1.996119
-73.673553 45.229088 1.7922406
-74.174683 45.688358 10.673038
-74.164772 45.711552 10.453452
-74.154305 45.723106 10.231324
-74.143288 45.722969 10.006923
-74.006447 45.540897 7.3568463
-73.920662 45.462532 5.6679492
-73.797012 45.408123 3.1889365
-73.740761 45.241665 2.168885
-73.730614 45.238972 1.9640479
-74.204124 45.673489 10.407362
-74.192635 45.6656 10.179914
-74.182083 45.67485 9.9583216
-74.172447 45.701393 9.7420988
-74.161766 45.706608 9.5210619
-74.046562 45.52972 7.3163457
-73.960358 45.450283 5.6258774
-73.951698 45.487949 5.4209647
-73.941299 45.483974 5.2127423
-73.930847 45.478172 5.0047402
-73.836105 45.394238 3.1444309
-73.78022 45.247028 2.1223221
-73.769669 45.234211 1.9177953
-73.759392 45.229572 1.7126158
-74.208549 45.692722 10.502501
-74.196487 45.677155 10.271806
-74.186394 45.697887 10.052597
-74.176224 45.716618 9.8335571
-74.036919 45.52037 7.1826868
-74.014244 45.484222 6.75456
-74.004623 45.502876 6.5466084
-73.993607 45.48996 6.334949
-73.960251 45.439911 5.7028661
