# .PCD v0.7 - Point Cloud Data file format
VERSION 0.7
FIELDS x y z
SIZE 4 4 4
TYPE F F F
COUNT 1 1 1
WIDTH 1558
HEIGHT 1
VIEWPOINT 0 0 0 1 0 0 0
POINTS 1558
DATA ascii
-76.375725 45.610058 27.052263
-76.641884 45.598736 27.096989
-77.034088 45.581654 30.411741
-77.165932 45.57645 27.096777
-77.432144 45.565132 27.087151
-77.956413 45.542904 26.572794
-78.078262 45.538162 22.949448
-78.061714 45.538925 22.468666
-78.045723 45.539661 21.993319
-78.63105 45.514656 22.955811
-78.57357 45.517281 21.488359
-78.910118 45.502792 22.949602
-78.854774 45.505322 21.488955
-62.387711 46.20694 9.7701883
-62.265556 46.212502 6.7586575
-62.249626 46.213196 6.6237264
-62.2258 46.214241 6.3480015
-62.127785 46.218544 5.2536507
-62.316975 46.210331 6.6161194
-62.30426 46.210888 6.4787235
-62.203438 46.215328 5.2445326
-62.191177 46.215866 5.1085181
-62.174377 46.216595 4.9728355
-62.160889 46.217186 4.8365536
-62.150745 46.217632 4.7002048
-62.121548 46.218925 4.2922816
-62.110611 46.219406 4.1563134
-62.380497 46.207634 6.6054368
-62.367783 46.208191 6.4678659
-62.358212 46.208614 6.3283749
-62.138916 46.218254 3.7331033
-62.445824 46.204857 6.5889349
-62.434441 46.205357 6.4501371
-62.522423 46.201584 6.7158065
-62.510571 46.202106 6.5765662
-62.498932 46.202618 6.4375324
-62.577316 46.199268 6.564558
-62.563995 46.199852 6.4264264
-62.270699 46.212723 3.128721
-62.629173 46.197083 6.419817
-62.718262 46.19326 6.7045531
-62.705959 46.193798 6.5646558
-62.774921 46.190865 6.5759311
-62.76012 46.191509 6.4381824
-62.828003 46.188622 6.4536514
-62.816078 46.189148 6.3136411
-62.894348 46.185799 6.4691324
-65.070908 46.091766 18.659437
-64.766479 46.105206 14.586855
-64.728546 46.106865 14.204051
-64.712166 46.10759 13.994145
-64.697273 46.10825 13.775932
-64.835365 46.102276 14.596742
-64.691269 46.108589 13.076196
-64.676888 46.109226 12.872322
-64.902061 46.099438 14.631257
-64.674965 46.10939 12.190464
-64.651596 46.110432 11.782482
-64.634949 46.11116 11.613921
-64.619873 46.111824 11.438234
-64.544937 46.115112 10.588518
-64.514481 46.116447 10.262968
-64.500725 46.117054 10.096209
-64.48568 46.117714 9.9362736
-64.47084 46.118362 9.7767611
-64.457008 46.118973 9.6148081
-64.969269 46.096577 14.640364
-64.839546 46.102253 13.321927
-64.637367 46.111141 10.951568
-64.621849 46.11182 10.785228
-64.607971 46.112431 10.612642
-64.593651 46.11306 10.444201
-64.56501 46.114319 10.112578
-64.550674 46.114948 9.9492636
-64.536568 46.115566 9.7865343
-64.5196 46.116306 9.6359377
-64.505127 46.116943 9.4768925
-64.488472 46.117668 9.3264589
-64.476799 46.118187 9.1602077
-64.462143 46.118828 9.0051432
-64.449318 46.119392 8.8454885
-64.625061 46.111763 10.138865
-64.610573 46.112396 9.9746447
-64.597061 46.112991 9.8080435
-64.583801 46.113579 9.6422071
-64.570793 46.114151 9.4771509
-64.555687 46.114811 9.3210363
-64.540779 46.115463 9.1652308
-64.526848 46.116077 9.0072021
-64.510704 46.116779 8.8570652
-64.496338 46.117409 8.7021856
-64.48217 46.118031 8.5476694
-64.468185 46.118645 8.393528
-64.452698 46.11932 8.2440271
-64.44252 46.119774 8.0823488
-65.103043 46.090889 14.650157
-64.972862 46.096584 13.323451
-64.585693 46.113571 9.0127115
-64.571815 46.114182 8.8544426
-64.559753 46.114716 8.6919479
-64.545494 46.115341 8.5371847
-64.532257 46.115921 8.3805962
-64.517548 46.116566 8.2288036
-64.503014 46.117203 8.0772438
-64.488655 46.117832 7.92593
-64.474457 46.118454 7.7748737
-64.460434 46.119068 7.6240878
-64.033562 46.137806 2.8177085
-65.171364 46.087982 14.645645
-65.148987 46.088955 14.487873
-65.039841 46.093739 13.322491
-65.21801 46.086018 14.502645
-65.180443 46.087662 14.107332
-64.165253 46.132191 2.9372511
-64.151932 46.132774 2.7926733
-65.721283 46.06411 18.683704
-65.605881 46.069168 17.453564
-65.343338 46.080685 14.543856
-64.273399 46.127609 2.7854507
-64.260162 46.128189 2.6402237
-65.66494 46.06665 17.483376
-65.403015 46.078144 14.563764
-64.336563 46.124924 2.7824249
-64.322273 46.125549 2.6358597
-65.464813 46.075516 14.569917
-64.424217 46.121162 3.0710533
-64.410774 46.121754 2.9254646
-64.397469 46.122334 2.7798283
-64.383202 46.122959 2.6330018
-65.52774 46.072838 14.577291
-65.285912 46.08345 11.890471
-64.485153 46.118572 3.0703068
-64.44413 46.120369 2.6314681
-65.592567 46.07008 14.601514
-64.586571 46.114204 3.508786
-64.506348 46.117725 2.6330011
-65.51841 46.073395 13.276211
-64.593063 46.113983 3.0658913
-64.581482 46.114494 2.9213376
-64.566978 46.115128 2.7739203
-64.553604 46.115715 2.6274321
-65.510933 46.073711 13.267648
-64.579323 46.11459 2.8978832
-64.565926 46.115177 2.7512839
-64.551628 46.115803 2.6035075
-65.880974 46.057575 16.585209
-65.571548 46.071136 13.274036
-64.637077 46.112133 2.8879046
-64.621651 46.112808 2.738939
-64.609329 46.11335 2.5930111
-65.632042 46.068562 13.286095
-65.51815 46.07357 11.922413
-64.69297 46.109756 2.8792567
-64.679482 46.110352 2.7321424
-64.666107 46.110935 2.5849915
-65.694481 46.065903 13.301038
-64.760529 46.106869 3.0211186
-64.719696 46.108658 2.5790341
-65.87072 46.058266 14.48689
-65.851189 46.05912 14.291183
-65.758186 46.063194 13.308791
-64.81472 46.104565 3.0124037
-64.788109 46.105732 2.7180984
-64.774483 46.106331 2.5704453
-65.929565 46.055763 14.494144
-65.909698 46.056633 14.303102
-65.891472 46.057434 14.088453
-64.86895 46.102261 3.0023773
-64.827583 46.104073 2.5585124
-65.985306 46.053391 14.50883
-65.965202 46.054268 14.322456
-65.871727 46.058365 13.336998
-65.753868 46.063541 11.969117
-64.924149 46.099915 2.9991553
-64.911186 46.100483 2.8519444
-64.8974 46.101086 2.7038085
-64.88372 46.101688 2.5556359
-66.042992 46.050934 14.545134
-65.929871 46.055889 13.361499
-65.794258 46.061844 11.816935
-64.982933 46.097412 3.0032389
-64.969048 46.098022 2.8548851
-64.955254 46.098625 2.7064829
-64.941574 46.099228 2.5580435
-65.85202 46.059383 11.840228
-65.038918 46.095032 3.0080321
-65.011177 46.096249 2.7107491
-64.997467 46.096851 2.5620451
-66.047653 46.050877 13.403421
-65.909874 46.056923 11.862099
-65.091995 46.092777 3.0070248
-65.078896 46.093349 2.8590093
-66.108131 46.048302 13.416701
-66.089432 46.049118 13.227906
-65.969612 46.054379 11.86901
-65.534767 46.073437 7.2135987
-66.1651 46.045876 13.432837
-65.586823 46.071224 7.2167063
-66.297981 46.040131 14.230432
-65.237061 46.086628 2.8367989
-66.33416 46.038612 14.05284
-66.295761 46.040295 13.660905
-66.276649 46.04113 13.470483
-65.304718 46.083733 2.982722
-65.277222 46.084938 2.6837177
-66.327515 46.038963 13.490245
-66.309402 46.039761 13.286689
-66.290787 46.040573 13.097304
-65.330185 46.082687 2.681608
-66.237541 46.04298 11.930889
-66.219986 46.043747 11.75456
-65.385002 46.080357 2.6775007
-66.286407 46.040901 11.950263
-66.269295 46.041649 11.769688
-66.201645 46.044613 11.06373
-66.351593 46.038105 12.147779
-66.318031 46.039577 11.777745
-65.495445 46.075661 2.6697187
-66.351257 46.038185 11.598386
-66.316719 46.039696 11.257561
-65.575218 46.072235 2.9658
-65.561394 46.072842 2.8145404
-66.352249 46.038208 11.06383
-66.334892 46.038967 10.899367
-66.301239 46.04044 10.563911
-65.598282 46.071293 2.6487856
-66.368477 46.037563 10.690513
-66.352524 46.038261 10.516835
-66.334526 46.039047 10.362725
-66.317719 46.039783 10.198886
-66.367363 46.037678 10.15346
-66.350746 46.038403 9.9901466
-66.334251 46.039124 9.8269062
-65.729034 46.065685 3.0484304
-66.383583 46.037029 9.7973394
-66.367203 46.037746 9.6342506
-66.35173 46.038425 9.465786
-66.336006 46.039112 9.3004265
-65.776962 46.063648 3.0222709
-66.41658 46.035652 9.6021633
-66.401108 46.036327 9.434042
-66.384148 46.037071 9.2769585
-66.367683 46.037788 9.1171074
-66.351738 46.038486 8.9547539
-65.82045 46.061802 2.9995601
-66.464622 46.033607 9.6015625
-66.449501 46.034271 9.4304619
-66.434547 46.034927 9.2599802
-66.418526 46.035629 9.0978174
-66.403473 46.036289 8.9308443
-66.385979 46.037052 8.7787256
-66.370728 46.03772 8.6145601
-66.481934 46.032913 9.2745743
-66.466354 46.033596 9.1094246
-66.45089 46.034271 8.9445868
-66.436417 46.034908 8.7752819
-66.420807 46.035591 8.6135912
-66.405769 46.036251 8.4498568
-66.389053 46.03698 8.295063
-66.482986 46.032925 8.794796
-66.468323 46.033569 8.6280394
-66.452499 46.03426 8.4685068
-66.43811 46.034893 8.3025513
-66.423424 46.035538 8.1392107
-66.407944 46.036217 7.9802241
-66.39209 46.036907 7.8231983
-66.472328 46.033459 8.1500549
-66.457405 46.034111 7.9888229
-66.443062 46.03474 7.8259268
-66.426491 46.035465 7.6725235
-66.412865 46.036064 7.5083218
-66.398399 46.036697 7.3480248
-66.223503 46.044384 5.2934041
-66.208382 46.045048 5.1402826
-66.195816 46.045601 4.985539
-66.004822 46.053982 2.8395138
-66.477493 46.033295 7.6716137
-66.461533 46.033993 7.5161481
-66.446609 46.034649 7.3571486
-66.232224 46.044071 4.8330483
-66.216782 46.044746 4.6797891
-66.202034 46.045391 4.5260677
-66.239555 46.043816 4.3722773
-66.224991 46.044453 4.2184577
-66.210495 46.04509 4.0644746
-66.195419 46.04575 3.9100869
-66.181061 46.046375 3.7557268
-66.1661 46.047031 3.600811
-66.233765 46.044136 3.7574
-66.219513 46.044762 3.6030855
-66.205345 46.045383 3.4486549
-66.189888 46.046059 3.2929232
-66.17585 46.046673 3.1381221
-66.770973 46.021416 2.7610221
-66.814339 46.019573 2.7439387
-68.523125 45.945606 13.481296
-68.506775 45.946331 13.257857
-68.495445 45.946884 12.664356
-68.484619 45.947414 12.079188
-68.61837 45.941578 13.310653
-68.494659 45.947037 11.673521
-68.660912 45.939766 13.324261
-68.522194 45.945889 11.484424
-68.507195 45.946552 11.295612
-68.492294 45.947208 11.107236
-68.47789 45.947842 10.909389
-68.463509 45.948479 10.715732
-68.449127 45.949112 10.526034
-68.702042 45.938019 13.327301
-68.57785 45.943497 11.689952
-68.562889 45.944157 11.493132
-68.547958 45.944817 11.300525
-68.533043 45.945473 11.111903
-68.518478 45.946117 10.917119
-68.50367 45.94677 10.732809
-68.48922 45.947407 10.542535
-68.474754 45.948044 10.355989
-68.460411 45.948677 10.169965
-68.446335 45.949299 9.9815845
-68.43206 45.949928 9.7995472
-68.417885 45.950554 9.6179142
-68.403992 45.951164 9.4340582
-68.390022 45.951782 9.2533655
-68.376556 45.952377 9.0681744
-68.745415 45.936172 13.338323
-68.62104 45.941662 11.694786
-68.591003 45.942986 11.308341
-68.576172 45.943638 11.116005
-68.561577 45.944283 10.920975
-68.546623 45.944942 10.739642
-68.532013 45.945587 10.552181
-68.517944 45.946209 10.356042
-68.503281 45.946854 10.175806
-68.488853 45.947487 9.9928818
-68.404648 45.951202 8.9016314
-68.363876 45.953003 8.3637505
-68.350731 45.953583 8.1834421
-68.66568 45.939762 11.702198
-68.650742 45.940422 11.50126
-68.635551 45.94109 11.315105
-68.620995 45.941734 11.112276
-68.606148 45.942387 10.923779
-68.591408 45.943039 10.735752
-68.576515 45.943691 10.554494
-68.562256 45.944324 10.361169
-68.547997 45.944954 10.171672
-68.533401 45.945595 9.991559
-68.710617 45.937851 11.697858
-68.695328 45.938526 11.507416
-68.680344 45.939186 11.310452
-68.665489 45.939842 11.114246
-68.650444 45.940502 10.92873
-68.635849 45.941147 10.733851
-68.62088 45.941807 10.552346
-68.606537 45.94244 10.358785
-68.591904 45.943085 10.174994
-68.57737 45.943726 9.9915752
-68.886566 45.930168 13.350346
-68.759796 45.93576 11.692758
-68.744354 45.93644 11.502077
-68.729286 45.937107 11.301423
-68.71418 45.937771 11.108453
-68.699303 45.938427 10.912798
-68.684219 45.939091 10.72759
-68.669228 45.939751 10.542703
-68.654465 45.940403 10.355101
-68.639954 45.941044 10.16505
-68.625572 45.941677 9.9757013
-68.939766 45.927906 13.350824
-68.923141 45.928638 13.142427
-68.906631 45.929367 12.938867
-68.890305 45.930084 12.727859
-68.811066 45.933582 11.690925
-68.795486 45.934269 11.496398
-68.780113 45.934944 11.298991
-68.764961 45.935616 11.098967
-68.749474 45.936295 10.916354
-68.734268 45.936966 10.727457
-68.719177 45.93763 10.539045
-68.704193 45.93829 10.351135
-68.689583 45.938934 10.157817
-68.674843 45.939583 9.9711294
-68.937569 45.928074 12.739393
-68.921082 45.928802 12.533118
-68.841064 45.932327 11.503542
-68.825417 45.933018 11.306065
-68.809906 45.933701 11.109347
-68.794342 45.934387 10.919983
-68.779091 45.935059 10.724677
-68.763443 45.935745 10.545801
-68.74855 45.936401 10.34869
-68.733192 45.937077 10.167384
-68.718185 45.93774 9.9805346
-68.878654 45.930695 11.786117
-68.86274 45.931396 11.587684
-68.846817 45.932098 11.396878
-68.831154 45.932789 11.199783
-68.815369 45.933479 11.013307
-68.799965 45.934158 10.817541
-68.784386 45.934845 10.631937
-68.769135 45.935516 10.440608
-68.753769 45.936192 10.255863
-68.738617 45.936859 10.068624
-68.940399 45.928047 11.963847
-68.924057 45.928764 11.779101
-68.908096 45.92947 11.576838
-68.892082 45.930172 11.38579
-68.87632 45.930866 11.188466
-68.860619 45.931561 10.995195
-68.844749 45.932255 10.812127
-68.829376 45.932934 10.616788
-68.813812 45.933617 10.431356
-68.798462 45.934292 10.24334
-68.783348 45.934959 10.053003
-69.099091 45.921124 13.430734
-68.965988 45.926983 11.772827
-68.949966 45.927689 11.573923
-68.933868 45.928398 11.386059
-68.918159 45.929089 11.185062
-68.902435 45.929783 10.991548
-68.886749 45.930473 10.801852
-68.871178 45.931156 10.612644
-68.855499 45.931847 10.429983
-68.840355 45.932514 10.23576
-68.82486 45.933193 10.053825
-68.34948 45.954132 4.0973425
-69.007843 45.925205 11.777878
-68.991768 45.925911 11.585834
-68.975861 45.926609 11.390771
-68.960144 45.927303 11.192954
-68.944405 45.927998 11.002455
-68.92894 45.928677 10.806049
-68.913246 45.929367 10.622878
-68.897827 45.930046 10.433838
-68.882401 45.930725 10.248255
-68.867317 45.931389 10.057334
-68.351196 45.954121 3.5920179
-68.338516 45.954681 3.4254322
-69.179642 45.917694 13.467955
-69.047897 45.923496 11.804715
-69.032082 45.924194 11.601619
-69.016296 45.924889 11.406299
-69.000626 45.925579 11.211574
-68.984993 45.926266 11.020737
-68.969559 45.926949 10.827173
-68.954147 45.927628 10.637369
-68.938843 45.928299 10.448068
-68.923653 45.92897 10.259285
-68.908684 45.929626 10.068177
-68.369087 45.9534 3.2598395
-69.084625 45.921932 11.81825
-69.068901 45.922626 11.622012
-69.053276 45.923313 11.426349
-69.03772 45.924 11.234639
-69.022331 45.924679 11.040098
-69.007065 45.92535 10.846187
-68.991997 45.926014 10.649808
-68.976791 45.926685 10.463355
-68.961868 45.927341 10.271357
-68.946739 45.928009 10.088656
-68.376846 45.953133 2.7647874
-69.120583 45.920403 11.834042
-69.105156 45.921085 11.630407
-69.089706 45.921764 11.438007
-69.074356 45.92244 11.246036
-69.059097 45.923111 11.05451
-69.044113 45.923775 10.857049
-69.029251 45.924431 10.660398
-69.014435 45.925083 10.467614
-68.999329 45.925747 10.287316
-68.984825 45.926388 10.092713
-68.422401 45.951195 2.7629263
-69.156349 45.91888 11.843003
-69.141022 45.919556 11.64616
-69.125816 45.920227 11.449889
-69.11071 45.920895 11.25421
-69.095795 45.921551 11.055856
-69.080864 45.922211 10.864696
-69.066017 45.922863 10.674014
-69.051277 45.923515 10.483831
-69.036644 45.92416 10.294165
-69.022118 45.924801 10.105031
-69.176682 45.918037 11.66735
-69.16188 45.918694 11.453334
-69.146706 45.919361 11.271024
-69.132004 45.92001 11.068957
-69.117203 45.920662 10.877454
-69.1026 45.921307 10.68331
-69.088104 45.921947 10.489829
-69.073524 45.922592 10.302936
-69.059036 45.923229 10.116408
-69.214706 45.91642 11.674371
-69.199661 45.917084 11.484406
-69.185013 45.917732 11.277852
-69.170242 45.918385 11.085547
-69.15564 45.919029 10.890498
-69.140991 45.919674 10.702339
-69.12661 45.920307 10.508428
-69.112335 45.92094 10.315195
-69.09787 45.921577 10.131284
-69.376015 45.909355 13.37108
-69.253288 45.91478 11.687522
-69.238503 45.915432 11.486944
-69.223793 45.91608 11.290489
-69.209122 45.916729 11.097933
-69.194695 45.917366 10.899415
-69.180061 45.918011 10.714211
-69.165863 45.918636 10.516995
-69.151497 45.919273 10.329506
-69.137329 45.919899 10.139502
-69.414581 45.907715 13.385356
-69.292091 45.913128 11.695648
-69.277245 45.913784 11.501735
-69.262543 45.914433 11.304868
-69.247955 45.915077 11.108603
-69.233261 45.915722 10.922594
-69.218948 45.916355 10.724217
-69.204765 45.916985 10.526664
-69.190521 45.91761 10.335878
-69.176476 45.918232 10.142741
-69.456955 45.90591 13.389042
-69.334076 45.911343 11.700987
-69.319183 45.911999 11.506746
-69.304543 45.912647 11.302809
-69.289925 45.913292 11.106384
-69.275276 45.913937 10.916998
-69.260933 45.91457 10.718545
-69.246552 45.915207 10.527
-69.232094 45.915844 10.341887
-69.217903 45.91647 10.151216
-69.501129 45.904034 13.390084
-69.377312 45.909504 11.700204
-69.362358 45.910164 11.502273
-69.347458 45.91082 11.308292
-69.332771 45.911469 11.108178
-69.318207 45.912113 10.90885
-69.303482 45.912762 10.722816
-69.289063 45.913399 10.527826
-69.27475 45.914032 10.33351
-69.260376 45.914665 10.145638
-68.714058 45.938797 2.7257154
-69.544304 45.902195 13.399498
-69.419312 45.907715 11.706518
-69.404228 45.908382 11.508185
-69.389336 45.909039 11.303706
-69.374367 45.909698 11.113293
-69.359665 45.910351 10.913565
-69.345085 45.910992 10.714643
-69.330482 45.911636 10.522618
-69.316055 45.912273 10.32815
-69.301392 45.912922 10.145855
-69.586212 45.900414 13.409693
-69.47596 45.905285 11.906181
-69.460724 45.905956 11.707125
-69.44558 45.906624 11.508633
-69.430588 45.907284 11.307359
-69.415512 45.907948 11.119982
-69.400742 45.908604 10.919931
-69.386024 45.909252 10.723803
-69.371353 45.909901 10.531365
-69.356773 45.910542 10.339437
-69.3423 45.911182 10.148037
-69.003456 45.92614 5.6154799
-69.624443 45.898785 13.420584
-69.484039 45.904987 11.517296
-69.468994 45.905651 11.322504
-69.45414 45.906307 11.12158
-69.439346 45.90696 10.924643
-69.424599 45.907612 10.731462
-69.40995 45.908257 10.538772
-69.395393 45.908897 10.346592
-69.381027 45.909534 10.152066
-69.042625 45.924477 5.6158528
-69.72316 45.894482 14.30199
-69.65773 45.897369 13.438395
-69.53318 45.90287 11.731169
-69.518181 45.903534 11.528642
-69.503273 45.904194 11.330229
-69.488419 45.904846 11.135701
-69.473656 45.905499 10.941628
-69.459045 45.906143 10.744905
-69.444618 45.90678 10.545797
-69.430168 45.907421 10.353442
-69.415726 45.908058 10.164483
-69.079491 45.922909 5.6187315
-69.77433 45.892273 14.552624
-69.757629 45.893013 14.32662
-69.741119 45.893742 14.105963
-69.724792 45.894463 13.890441
-69.708549 45.89518 13.671333
-69.692413 45.895893 13.448895
-69.568573 45.901367 11.743809
-69.553589 45.902027 11.547934
-69.538788 45.902679 11.34573
-69.524147 45.903328 11.141
-69.509308 45.90398 10.956459
-69.494843 45.904621 10.756271
-69.480423 45.905258 10.559944
-69.451675 45.906525 10.177949
-69.116791 45.921322 5.6241469
-69.794136 45.891457 14.344851
-69.777695 45.892181 14.128291
-69.76133 45.892906 13.908041
-69.745018 45.893627 13.680099
-69.728996 45.894333 13.470034
-69.665985 45.897114 12.631661
-69.650528 45.897797 12.424655
-69.635262 45.898476 12.19241
-69.605164 45.899807 11.761679
-69.590256 45.900467 11.558484
-69.575378 45.901123 11.362778
-69.560699 45.901772 11.160919
-69.546135 45.902416 10.959842
-69.531502 45.903061 10.768946
-69.51709 45.903698 10.572281
-69.502716 45.904331 10.37925
-69.488434 45.904961 10.186739
-69.15358 45.919758 5.6271544
-69.830635 45.889904 14.3585
-69.797768 45.891354 13.921064
-69.765373 45.892784 13.482428
-69.749382 45.893494 13.264402
-69.733521 45.894192 13.047265
-69.717834 45.894886 12.842866
-69.686768 45.896255 12.427895
-69.671417 45.896935 12.213984
-69.626373 45.89893 11.564528
-69.611557 45.899586 11.361828
-69.596771 45.900238 11.166472
-69.582123 45.900883 10.968358
-69.567535 45.901527 10.774005
-69.553169 45.902164 10.574047
-69.538696 45.902802 10.383811
-69.524399 45.903431 10.191051
-69.509827 45.904076 10.010011
-69.188965 45.918251 5.6250606
-69.012497 45.926052 3.1991107
-69.819771 45.890446 13.711543
-69.803528 45.891163 13.483977
-69.787552 45.891869 13.273993
-69.771683 45.892567 13.06458
-69.755913 45.893265 12.851823
-69.740273 45.893955 12.6437
-69.724747 45.894642 12.432432
-69.709335 45.895321 12.229381
-69.679138 45.89666 11.775328
-69.664124 45.897324 11.575019
-69.649223 45.89798 11.375286
-69.634506 45.898632 11.169566
-69.619827 45.899281 10.971207
-69.605194 45.899925 10.776608
-69.590652 45.900566 10.582492
-69.576202 45.901207 10.38888
-69.561775 45.901844 10.198667
-69.547256 45.902481 10.014414
-69.226074 45.916676 5.6190758
-69.048607 45.924515 3.1909881
-69.841454 45.889549 13.493135
-69.747025 45.893719 12.237106
-69.701653 45.895725 11.585464
-69.686737 45.896385 11.38203
-69.671936 45.897038 11.179356
-69.657257 45.897686 10.977458
-69.642647 45.898335 10.779484
-69.627945 45.898983 10.591293
-69.613457 45.89962 10.397351
-69.599136 45.900253 10.201049
-69.584496 45.900898 10.019426
-69.084763 45.922977 3.186671
-69.959259 45.884399 14.636331
-69.876717 45.888046 13.508004
-69.797897 45.891525 12.469597
-69.737152 45.894215 11.60226
-69.722221 45.894875 11.401951
-69.707474 45.895527 11.19564
-69.692665 45.896179 11.003129
-69.678169 45.89682 10.798388
-69.663544 45.897465 10.606824
-69.649078 45.898106 10.412628
-69.634697 45.898739 10.21895
-69.620255 45.899376 10.031408
-69.909988 45.886631 13.541626
-69.894188 45.887325 13.343186
-69.771408 45.892754 11.625151
-69.756546 45.89341 11.427976
-69.741829 45.894062 11.227918
-69.72731 45.894703 11.022023
-69.712761 45.895348 10.826506
-69.698357 45.895981 10.628412
-69.683998 45.896618 10.433957
-69.669731 45.897247 10.240017
-69.655388 45.897881 10.052227
-69.940804 45.885315 13.568699
-69.925156 45.886005 13.365836
-69.803757 45.891376 11.649123
-69.789131 45.892025 11.444823
-69.774536 45.89267 11.247898
-69.76004 45.893307 11.051414
-69.745743 45.89394 10.849095
-69.73143 45.894573 10.653715
-69.703178 45.895821 10.261561
-69.689156 45.896442 10.067804
-69.956284 45.884682 13.377861
-69.836029 45.890003 11.666671
-69.821541 45.890644 11.462028
-69.807121 45.891281 11.261451
-69.792801 45.891914 11.061477
-69.778534 45.892544 10.865279
-69.76442 45.893169 10.666489
-69.750336 45.893791 10.471343
-69.722466 45.895023 10.082607
-69.708305 45.895649 9.8999929
-69.993408 45.883102 13.387851
-69.858925 45.889053 11.469792
-69.84449 45.88969 11.272284
-69.830147 45.890324 11.075211
-69.801857 45.891575 10.676318
-69.787865 45.892197 10.477852
-69.759964 45.893429 10.091428
-69.745827 45.894051 9.9084797
-69.732018 45.894661 9.7174654
-69.274933 45.91489 3.2062814
-70.032913 45.88142 13.392941
-69.883461 45.888031 11.279091
-69.869064 45.888668 11.081775
-69.854805 45.889297 10.881763
-69.840538 45.889931 10.688531
-69.770561 45.893024 9.7222996
-70.136597 45.8769 14.315634
-69.951477 45.88509 11.696204
-69.922379 45.886375 11.285867
-69.907875 45.887016 11.091545
-69.893593 45.88765 10.888052
-69.879318 45.888279 10.691506
-69.865196 45.888905 10.492462
-69.823036 45.89077 9.9131479
-70.1605 45.875912 14.091701
-70.144608 45.87661 13.881856
-70.128716 45.877316 13.663956
-70.112732 45.878021 13.421993
-69.976547 45.884048 11.502805
-69.933167 45.885967 10.895811
-69.9189 45.886597 10.695864
-69.890549 45.887852 10.303765
-69.862328 45.889095 9.9219866
-69.78009 45.892735 8.7734213
-69.385841 45.910175 3.191287
-70.150238 45.876427 13.42298
-70.134781 45.87711 13.227028
-70.119217 45.8778 13.003257
-70.014206 45.882446 11.498934
-69.999619 45.883091 11.300282
-69.942329 45.885624 10.501245
-69.928207 45.88625 10.3052
-69.899765 45.887505 9.9311247
-69.817802 45.891129 8.7728252
-69.42366 45.908569 3.1826417
-70.170441 45.875595 13.222821
-70.155052 45.876274 13.01879
-70.139641 45.876957 12.791733
-70.124443 45.877625 12.588758
-70.109322 45.878296 12.374931
-69.936195 45.885956 9.9283037
-69.461517 45.90696 3.1733954
-70.177544 45.875343 12.796607
-70.162399 45.876011 12.593469
-70.147331 45.876678 12.386923
-70.132393 45.877342 12.140804
-70.059517 45.880569 11.10703
-70.016876 45.882454 10.51092
-70.002823 45.883076 10.314285
-69.501587 45.905258 3.1693623
-70.187538 45.874969 12.370972
-70.029182 45.881977 10.132069
-70.015022 45.882599 9.9471169
-69.542313 45.903526 3.1704116
-69.580978 45.901882 3.1726258
-70.095116 45.879192 9.976965
-69.621193 45.900169 3.1752946
-70.135292 45.877483 9.9864626
-69.660706 45.898491 3.1777871
-69.736519 45.895267 3.1808438
-69.771889 45.893764 3.1792426
-69.80616 45.892307 3.177279
-70.235191 45.873398 8.6478329
-69.843552 45.890717 3.1757259
-69.883217 45.88903 3.1789756
-69.92337 45.887321 3.1916931
-69.965981 45.885506 3.2065737
-71.428429 45.822636 8.835412
-71.390686 45.824314 8.2410927
-71.378174 45.824871 8.045908
-71.365585 45.825428 7.8547211
-71.353333 45.825974 7.6566534
-71.340675 45.826534 7.4691939
-71.280434 45.829216 6.4965258
-71.031601 45.840275 2.5749638
-71.020172 45.840782 2.3906538
-71.008072 45.84132 2.2042742
-70.99575 45.841866 2.0168023
-71.427925 45.822731 8.2527313
-71.415405 45.823284 8.059104
-71.402931 45.823841 7.8656712
-71.390717 45.824383 7.6672463
-71.378426 45.824928 7.472858
-71.07016 45.838634 2.5759666
-71.059006 45.83913 2.3919916
-71.046967 45.839664 2.2053487
-71.035179 45.840187 2.0193546
-71.47686 45.820625 8.4549809
-71.464424 45.821178 8.2567635
-71.451996 45.821728 8.0609713
-71.43956 45.822281 7.8673639
-71.427238 45.82283 7.6722317
-71.414978 45.823376 7.4774961
-71.107574 45.837044 2.5720749
-71.096436 45.83754 2.3878331
-71.084663 45.838062 2.2017081
-71.526642 45.818485 8.6517658
-71.514175 45.819038 8.450716
-71.501747 45.819592 8.2523289
-71.489265 45.820145 8.0582685
-71.476891 45.820694 7.8625836
-71.464508 45.821243 7.6690125
-71.452309 45.821789 7.4723716
-71.144974 45.835453 2.5624521
-71.133827 45.835949 2.3780413
-71.121834 45.836483 2.1909587
-71.562248 45.816971 8.6376467
-71.537262 45.818081 8.2418499
-71.524879 45.818634 8.0436468
-71.512444 45.819183 7.8496046
-71.499992 45.819736 7.6574988
-71.487793 45.820282 7.4605246
-71.180183 45.833958 2.5417159
-71.168808 45.834465 2.3562741
-71.156799 45.834999 2.1687524
-71.583931 45.816074 8.4216356
-71.571503 45.816628 8.2227468
-71.55899 45.817184 8.0300493
-71.546745 45.81773 7.8301587
-71.534256 45.818283 7.639586
-71.521919 45.818832 7.445631
-71.462082 45.821495 6.4665794
-71.215546 45.832458 2.5188205
-71.203987 45.832973 2.3326845
-71.19178 45.833515 2.1442714
-71.632568 45.813984 8.6120901
-71.620102 45.814537 8.4124432
-71.607613 45.815094 8.2172432
-71.595261 45.815643 8.0184507
-71.582863 45.816193 7.8237967
-71.570702 45.816734 7.6242118
-71.558472 45.81728 7.4286256
-71.252022 45.83091 2.5010138
-71.240471 45.831425 2.3145337
-71.656967 45.812973 8.4105186
-71.64463 45.813522 8.2091494
-71.632156 45.814075 8.0160093
-71.619713 45.814629 7.8228941
-71.607559 45.815166 7.6229677
-71.595276 45.815716 7.4286633
-71.289474 45.829319 2.4916403
-71.277939 45.82983 2.3049862
-72.596779 45.771236 22.984159
-71.705276 45.810894 8.6021109
-71.692833 45.811447 8.4020386
-71.680405 45.812 8.2044373
-71.668045 45.81255 8.0071869
-71.655724 45.813099 7.8103032
-71.643402 45.813644 7.6155119
-71.631058 45.814194 7.4225717
-71.325447 45.827789 2.4772255
-71.313698 45.828312 2.2895935
-71.743118 45.809288 8.5862665
-71.730667 45.809841 8.3838205
-71.718193 45.810394 8.1859655
-71.705818 45.810947 7.9865909
-71.693359 45.811501 7.7931142
-71.681107 45.812046 7.5945768
-71.668854 45.812588 7.3982263
-71.361824 45.826248 2.4512777
-71.350037 45.826771 2.2633896
-72.688156 45.767349 22.981083
-71.781677 45.807652 8.5541611
-71.756454 45.808773 8.1537323
-71.743904 45.80933 7.9561558
-71.731339 45.809887 7.7607231
-71.71888 45.81044 7.5638175
-71.706612 45.810989 7.36411
-71.657715 45.813164 6.5818672
-71.407066 45.824306 2.60273
-71.395508 45.824818 2.4157958
-71.383781 45.82534 2.2284014
-71.832916 45.80545 8.7229328
-71.819931 45.806026 8.5239296
-71.80706 45.806599 8.3212175
-71.794189 45.807171 8.1230478
-71.781334 45.807743 7.9270792
-71.768616 45.808308 7.7277923
-71.755798 45.808876 7.5340872
-71.743446 45.809425 7.3293262
-71.693329 45.811653 6.5506144
-71.437599 45.823009 2.5653365
-71.425804 45.823536 2.3781867
-72.506157 45.775642 18.43198
-71.871986 45.803795 8.6943274
-71.858803 45.804379 8.4930754
-71.84565 45.804962 8.2943239
-71.832588 45.805542 8.0939941
-71.819504 45.806122 7.8978601
-71.806511 45.806698 7.7001815
-71.793526 45.807274 7.5045547
-71.742661 45.809536 6.7140079
-71.469727 45.821648 2.5320017
-71.457512 45.822189 2.3440378
-71.908684 45.802235 8.6759224
-71.895378 45.802826 8.4744291
-71.882141 45.803413 8.2734327
-71.868965 45.803997 8.0729485
-71.855728 45.804585 7.878468
-71.842567 45.805168 7.682282
-71.82962 45.805744 7.4813571
-71.765442 45.80859 6.4981046
-71.502968 45.82024 2.5063741
-71.490433 45.820793 2.3175638
-71.943398 45.800762 8.6697044
-71.916885 45.801937 8.2667055
-71.903702 45.802521 8.067874
-71.890602 45.803104 7.8675809
-71.877426 45.803688 7.6730404
-71.864395 45.804264 7.4752498
-71.813156 45.806541 6.6831026
-71.538231 45.818741 2.4919002
-71.525917 45.819286 2.3035214
-72.04718 45.796223 9.6967764
-72.033607 45.796825 9.4871244
-71.993347 45.798611 8.8694649
-71.966812 45.799789 8.4649715
-71.953621 45.800377 8.2654514
-71.940514 45.800957 8.0643711
-71.927391 45.80154 7.8674569
-71.914307 45.80212 7.6707473
-71.901367 45.802692 7.470963
-71.576721 45.817104 2.4814031
-71.564262 45.817657 2.2921536
-72.375938 45.781696 14.174177
-72.097221 45.794071 9.9037743
-72.083542 45.794678 9.6931486
-72.069954 45.79528 9.4857464
-72.056427 45.795879 9.278923
-72.042969 45.796478 9.0750227
-72.029579 45.797073 8.8693256
-72.016235 45.797665 8.6685743
-72.003006 45.798252 8.461916
-71.989784 45.79884 8.2620564
-71.976646 45.799419 8.0606365
-71.963615 45.799999 7.8579316
-71.950424 45.800583 7.6645961
-71.937569 45.801155 7.4612708
-71.886398 45.803429 6.6690741
-71.612198 45.815598 2.4683456
-71.599495 45.816162 2.2781384
-72.718292 45.766582 18.747002
-72.355606 45.782677 13.233069
-72.339905 45.783375 12.988732
-72.294777 45.785378 12.310579
-72.067978 45.795441 8.8673229
-72.054497 45.796036 8.6640005
-72.041031 45.796635 8.4652939
-72.027687 45.797226 8.2607946
-72.014351 45.797817 8.0607738
-72.001076 45.798405 7.8611112
-71.988029 45.798985 7.6549187
-71.974777 45.799572 7.4596477
-71.646263 45.814152 2.4543364
-71.633446 45.81472 2.2639608
-72.767059 45.764511 18.755293
-72.338364 45.783524 12.318743
-72.067627 45.795528 8.2557564
-72.027313 45.797318 7.6540709
-72.013931 45.797909 7.4565663
-71.948898 45.800797 6.4548135
-71.680969 45.812679 2.4387167
-71.667976 45.813255 2.2479134
-72.332008 45.783875 11.640283
-72.317169 45.784531 11.41966
-72.05088 45.796337 7.4508944
-71.985474 45.799244 6.4462919
-71.716331 45.811176 2.4261141
-71.70327 45.811756 2.2352252
-72.429451 45.779675 12.093349
-71.803162 45.807465 2.5923233
-71.87532 45.804398 2.5739207
-72.961678 45.756271 18.459757
-72.94342 45.75708 18.19112
-72.53968 45.77499 12.083946
-71.910561 45.802902 2.5553687
-71.897957 45.803459 2.3644087
-73.019974 45.753761 18.715492
-72.577446 45.773388 12.066623
-71.944717 45.801453 2.5295644
-71.932228 45.802006 2.3389153
-73.05854 45.752113 18.777763
-72.612907 45.771881 12.057381
-71.979889 45.799957 2.5091767
-71.9674 45.800514 2.3183682
-72.017967 45.79834 2.5010803
-72.004959 45.798916 2.3081365
-73.042885 45.752914 17.648865
-72.257133 45.787796 5.5949016
-72.244217 45.788368 5.4003186
-72.231628 45.788925 5.2038178
-72.055786 45.796734 2.5001054
-72.043282 45.797287 2.3081069
-72.40847 45.781139 7.3916788
-72.22998 45.78907 4.6181054
-72.094543 45.795086 2.4926224
-72.08181 45.79565 2.299051
-72.444695 45.779602 7.3650589
-72.20475 45.79026 3.6252973
-72.119865 45.794037 2.2766976
-72.477852 45.778198 7.3353577
-72.164177 45.792133 2.4356213
-72.151474 45.792694 2.2415962
-72.407722 45.78138 5.7060137
-72.439232 45.780041 5.6923752
-73.227501 45.745075 17.576551
-72.47068 45.778706 5.6784797
-72.273148 45.787483 2.5514209
-72.502022 45.777374 5.6711717
-72.309044 45.785961 2.5396965
-72.533699 45.776028 5.6683822
-72.344749 45.784443 2.5316277
-72.565605 45.77467 5.6681123
-72.379555 45.782963 2.5266626
-73.377403 45.738552 18.809143
-72.647095 45.771107 6.4605093
-72.599022 45.773247 5.6702547
-72.634521 45.771736 5.6794038
-72.450699 45.779938 2.5299139
-72.762993 45.766079 7.2970877
-72.668755 45.770279 5.6926379
-72.486992 45.778393 2.5378122
-72.703163 45.768818 5.7024999
-72.523857 45.776825 2.5446033
-72.738396 45.767315 5.7123642
-72.560699 45.775257 2.5512958
-72.774269 45.765789 5.7236285
-72.596848 45.77372 2.5603752
-72.621025 45.772713 2.3733132
-72.668877 45.770657 2.5753345
-72.707352 45.76902 2.5800762
-72.685738 45.769985 2.185832
-72.748711 45.767258 2.5862951
-72.738113 45.767735 2.3888447
-72.727226 45.768219 2.1901925
-72.788948 45.765549 2.5915675
-72.826378 45.763954 2.5897229
-72.863319 45.762386 2.5775833
-72.842628 45.763313 2.1816535
-72.944992 45.758919 2.5511246
-72.997795 45.756744 1.9405946
-73.046509 45.754654 2.1266103
-73.036217 45.755116 1.9249326
-73.134834 45.750778 3.10728
-73.076447 45.753407 1.9088403
-73.149246 45.750237 2.5007892
-73.129715 45.751118 2.1003423
-73.119987 45.751556 1.9002852
-73.172989 45.749275 2.1032474
-73.225273 45.747028 2.3145204
-73.215904 45.747452 2.1137912
-73.267258 45.745243 2.3178561
-73.504959 45.734722 5.726305
-73.344643 45.741959 2.2745626
-73.325737 45.742809 1.8700023
-73.545349 45.733006 5.7060428
-73.373718 45.740749 2.0446904
-73.665146 45.727711 7.3603239
-73.585533 45.7313 5.6921945
-73.411766 45.739136 2.0237129
-73.626488 45.729561 5.6762424
-73.480881 45.736122 2.6096799
-73.461563 45.736996 2.2047112
-73.491425 45.735752 1.9699845
-73.481812 45.736187 1.7674392
-73.587234 45.731537 3.1458693
-73.539719 45.733681 2.132642
-73.529968 45.734119 1.9291109
-73.58873 45.731575 2.2950699
-73.559494 45.732895 1.685093
-73.629562 45.729843 2.2597334
-73.619728 45.730286 2.0563178
-73.609619 45.730743 1.8508111
-73.599808 45.731186 1.6473811
-74.119003 45.707916 11.418719
-73.661461 45.728516 2.0261188
-73.651474 45.728966 1.8218297
-74.152206 45.706535 11.164222
-74.141037 45.707039 10.937953
-74.129822 45.707542 10.709258
-73.885048 45.718563 5.6973619
-73.704666 45.726685 1.9961779
-73.694733 45.727131 1.7923013
-74.175415 45.705608 10.673039
-74.164543 45.7061 10.453451
-74.153603 45.706593 10.231322
-74.142609 45.707085 10.006921
-74.013763 45.712887 7.3568673
-73.931465 45.716591 5.6679802
-73.810364 45.722042 3.1889746
-73.761284 45.724255 2.1689436
-73.751266 45.724705 1.964107
-74.205437 45.704365 10.407366
-74.194305 45.704868 10.179919
-74.18338 45.705357 9.9583254
-74.172638 45.705841 9.7420998
-74.161751 45.706329 9.5210619
-74.054276 45.71117 7.3163676
-73.971611 45.71489 5.6259098
-73.961365 45.715351 5.4209924
-73.951157 45.715809 5.2127705
-73.940971 45.71627 5.0047693
-73.849976 45.720364 3.1444707
-73.800438 45.722595 2.12238
-73.790451 45.723045 1.9178548
-73.780396 45.723499 1.712676
-74.209038 45.704201 10.502501
-74.197662 45.704712 10.27181
-74.186707 45.705204 10.052598
-74.175758 45.705696 9.8335562
-74.045052 45.711578 7.1827102
-74.023949 45.712528 6.7545877
-74.013557 45.712994 6.5466342
-74.003113 45.713463 6.3349762
-73.971939 45.714867 5.7028995
-73.961617 45.715332 5.4940958
-73.951317 45.715794 5.2887754
-73.941025 45.716259 5.0817552
-73.930717 45.716721 4.8759952
-74.219124 45.703682 11.234762
-74.010399 45.713074 7.0142746
-73.999641 45.713554 6.7928438
-73.989395 45.714016 6.5894036
-73.958061 45.715427 5.9532003
-73.947762 45.715889 5.7461047
-73.937424 45.716354 5.5361605
-74.263962 45.701805 10.981919
-74.241226 45.702827 10.5299
-74.229439 45.703358 10.293284
-74.218269 45.703861 10.071477
-74.207123 45.704361 9.8499899
-74.064064 45.710793 6.9914603
-74.053177 45.711281 6.771543
-74.021721 45.712696 6.1471286
-74.011139 45.713173 5.9349217
-74.000694 45.713642 5.7274766
-73.990204 45.714111 5.5172062
-74.333878 45.698807 11.196815
-74.322067 45.699337 10.963647
-74.310303 45.699867 10.73122
-74.298965 45.700375 10.508234
-74.275742 45.70142 10.049507
-74.264374 45.701931 9.8252096
-74.253143 45.702435 9.6039782
-74.230537 45.703449 9.1578436
-74.119667 45.708431 6.964263
-74.108955 45.708912 6.7530894
-74.066261 45.710831 5.9099932
-74.055717 45.711304 5.7023683
-74.034561 45.712254 5.2845788
-74.382477 45.696774 10.933421
-74.371017 45.697289 10.709823
-74.359299 45.697815 10.480727
-74.34761 45.698338 10.252252
-74.335953 45.698864 10.024417
-74.324341 45.699383 9.7972422
-74.30146 45.700413 9.3498774
-74.290054 45.700924 9.1270123
-74.177971 45.705956 6.9328322
-74.167221 45.70644 6.723012
-74.134972 45.707886 6.0929365
-74.124176 45.70837 5.8814516
-74.113441 45.708855 5.6714644
-74.102753 45.709335 5.4627328
-74.468384 45.693066 11.376943
-74.444099 45.694157 10.909284
-74.43248 45.694679 10.685423
-74.420418 45.695217 10.453221
-74.396866 45.696278 9.9993105
-74.373413 45.697327 9.5477152
-74.315887 45.699909 8.4393768
-74.236176 45.703484 6.9029908
-74.225494 45.703964 6.6972661
-74.192604 45.705441 6.0635738
-74.181564 45.705936 5.8507781
-74.170715 45.706421 5.6416278
-74.159866 45.706909 5.4326434
-74.148987 45.707397 5.2230239
-74.523972 45.690735 11.127107
-74.511391 45.691299 10.890385
-74.499496 45.69183 10.666357
-74.487144 45.692383 10.434013
-74.45092 45.694008 9.7522488
-74.439148 45.694534 9.5304337
-74.287506 45.701332 6.6769652
-74.253738 45.702843 6.0413861
-74.242477 45.703346 5.8295221
-74.231308 45.70385 5.6191397
-74.220253 45.704346 5.410893
-74.209106 45.704845 5.201036
-74.581825 45.688301 10.886814
-74.569275 45.688866 10.656498
-74.544113 45.689991 10.194922
-74.531815 45.69054 9.9692488
-74.362495 45.69812 6.8661857
-74.351799 45.698597 6.667141
-74.316925 45.700157 6.027761
-74.30542 45.700672 5.8166394
-74.293854 45.701191 5.6048665
-74.282455 45.701702 5.3953905
-74.271057 45.702209 5.1861
-74.66066 45.684925 11.110785
-74.647873 45.685493 10.879648
-74.635124 45.686066 10.649094
-74.622223 45.686642 10.416292
-74.609528 45.68721 10.187048
-74.424751 45.695473 6.8547425
-74.413857 45.695961 6.6540003
-74.378479 45.697544 6.0152955
-74.366783 45.698067 5.8039279
-74.354935 45.698597 5.59094
-74.343422 45.699112 5.3821874
-74.331764 45.699631 5.1718473
-74.70874 45.682907 10.873742
-74.696022 45.683475 10.642937
-74.670105 45.684635 10.174866
-74.485962 45.692871 6.8443203
-74.47541 45.693344 6.6460843
-74.439667 45.694942 6.0015211
-74.428093 45.695461 5.7911229
-74.416527 45.695976 5.5808783
-74.782639 45.679737 11.103992
-74.769783 45.680313 10.869254
-74.756958 45.680885 10.635265
-74.744568 45.681442 10.407735
-74.731987 45.682003 10.177901
-74.719444 45.682564 9.9487133
-74.68232 45.684227 9.2700663
-74.561508 45.689632 7.0652633
-74.548576 45.690208 6.8367205
-74.537712 45.690697 6.6325054
-74.502655 45.692265 5.9925041
-74.491058 45.692783 5.7807007
-74.479683 45.693295 5.5711546
-74.845222 45.677078 11.09736
-74.832359 45.677654 10.862459
-74.819748 45.678219 10.631231
-74.807365 45.678772 10.403448
-74.782234 45.679897 9.9439268
-74.769707 45.680458 9.7151556
-74.624191 45.686966 7.0571918
-74.61116 45.68755 6.8284254
-74.600906 45.688011 6.6295047
-74.565269 45.689606 5.9831586
-74.553566 45.690128 5.7700491
-74.54187 45.690651 5.5574412
-74.519135 45.691669 5.1385217
-74.863373 45.676418 10.162944
-74.690079 45.684166 7.0477281
-74.666084 45.685242 6.6165934
-74.630043 45.686852 5.9720526
-74.61824 45.687378 5.7596593
-74.606308 45.687912 5.5466371
-74.594749 45.688431 5.3367424
-74.583061 45.688953 5.1260796
-74.987572 45.671028 11.07787
-74.947571 45.672813 10.376897
-74.921791 45.673965 9.9221029
-74.756584 45.681343 7.0292363
-74.742821 45.681953 6.8000965
-74.732269 45.682426 6.6005654
-74.694946 45.684093 5.9528275
-74.682686 45.684643 5.7392454
-74.670845 45.685169 5.5290151
-74.658981 45.685699 5.3187833
-74.646858 45.686241 5.1070147
-75.042816 45.668709 10.832276
-75.029106 45.669319 10.597361
-75.015671 45.669918 10.366037
-75.002243 45.670517 10.135341
-74.819649 45.678661 7.007401
-74.795166 45.679756 6.5815063
-74.770164 45.68087 6.1523671
-74.757301 45.681446 5.9355745
-74.744751 45.682003 5.721673
-74.732361 45.682556 5.5092177
-74.720245 45.683098 5.29882
-74.707993 45.683643 5.0876703
-74.695602 45.684196 4.8760452
-75.10923 45.665886 10.823721
-75.081833 45.667107 10.357001
-74.883804 45.675938 6.9931731
-74.870567 45.676525 6.772738
-74.820915 45.678741 5.920526
-74.808411 45.679298 5.70749
-74.796204 45.679844 5.4966583
-75.158508 45.663818 10.579516
-74.94606 45.67329 6.9786267
-74.896088 45.675522 6.1222305
-74.883194 45.676094 5.9062424
-74.870644 45.676655 5.6929512
-74.858582 45.677193 5.4827852
-75.179443 45.663017 9.8617506
-75.006432 45.670727 6.9508801
-74.994446 45.671265 6.7403283
-74.969788 45.672363 6.3146372
-74.956764 45.672943 6.0976877
-74.943031 45.673553 5.8770084
-74.931305 45.67408 5.6687655
-74.918839 45.674633 5.4563074
-74.906197 45.675198 5.2431922
-74.893707 45.675755 5.0311904
-75.070396 45.668011 6.9188185
-75.058289 45.668552 6.7079744
-75.046341 45.669086 6.4982042
-75.020134 45.670254 6.0645766
-75.006752 45.670849 5.8469758
-74.994331 45.671402 5.6351833
-74.981522 45.671974 5.4215655
-74.968887 45.672535 5.2091217
-75.135002 45.665268 6.8879557
-75.123238 45.665794 6.6798239
-75.071312 45.668106 5.818924
-75.058762 45.668667 5.6067777
-75.045418 45.669262 5.3910418
-75.032646 45.66983 5.1784329
-75.007065 45.670967 4.7538247
-75.34832 45.655903 9.3216
-75.186127 45.663124 6.6523867
-75.173843 45.66367 6.4406114
-75.14695 45.664867 6.0049086
-75.133949 45.665447 5.7901397
-75.120735 45.666035 5.5747252
-75.107719 45.666615 5.3607068
-75.0951 45.667175 5.1486378
-75.438889 45.652 9.7457523
-75.276192 45.659245 7.0533719
-75.250389 45.660397 6.6202989
-75.224518 45.661549 6.1882567
-75.210403 45.662174 5.9670215
-75.197464 45.66275 5.752171
-75.185165 45.6633 5.540513
-75.17218 45.663879 5.3260708
-75.34095 45.656494 7.0217772
-75.326088 45.657154 6.7931623
-75.28952 45.658787 6.1543889
-75.275475 45.659412 5.9330444
-75.262886 45.659973 5.7190495
-75.250275 45.660534 5.5052099
-75.23764 45.661098 5.2915421
-75.224983 45.661663 5.0780616
-75.579216 45.646011 9.9207668
-75.404419 45.653801 6.98487
-75.391541 45.654373 6.7668247
-75.381088 45.654846 6.561471
-75.355194 45.655998 6.1259847
-75.341217 45.65662 5.9045191
-75.329018 45.657166 5.6913567
-75.317017 45.6577 5.4791093
-75.30426 45.658268 5.2641554
-75.291489 45.65884 5.0495648
-75.278709 45.659409 4.8353548
-75.460556 45.651443 6.7268672
-75.450272 45.651909 6.5212102
-75.437653 45.65247 6.3043437
-75.423927 45.65308 6.0830579
-75.411018 45.653656 5.8660297
-75.398361 45.654221 5.6504922
-75.386452 45.654755 5.4380341
-75.373489 45.655331 5.2220917
-75.535812 45.648251 6.6707611
-75.524651 45.648754 6.4603343
-75.511658 45.64933 6.2418928
-75.497787 45.649948 6.0204606
-75.484489 45.650539 5.8021517
-75.472031 45.651096 5.5874405
-75.459534 45.651653 5.3728938
-75.447006 45.652214 5.1585283
-75.637878 45.643867 7.0334554
-75.611931 45.645023 6.5960512
-75.59938 45.645584 6.3797941
-75.585571 45.646198 6.1588197
-75.571754 45.646812 5.9386568
-75.558823 45.647388 5.7224178
-75.545883 45.647964 5.5065064
-75.533485 45.648518 5.2926545
-75.520485 45.649097 5.0772729
-75.929672 45.63105 10.395806
-75.715538 45.640575 6.9491644
-75.702202 45.641171 6.7299461
-75.691498 45.641651 6.5219307
-75.663643 45.642887 6.0807528
-75.649857 45.643501 5.8617949
-75.637321 45.644062 5.6475072
-75.624123 45.64465 5.4313745
-75.611504 45.64521 5.217248
-75.784027 45.637699 6.6726007
-75.743576 45.639496 6.0177569
-75.730942 45.64006 5.8031282
-75.717911 45.64064 5.5874949
-75.704842 45.641224 5.372025
-75.678261 45.642406 4.9409227
-75.865479 45.634239 6.6307335
-75.824615 45.636059 5.9735012
-75.811295 45.63665 5.7564058
-75.798286 45.63723 5.5405941
-75.785225 45.63781 5.3249483
-75.758644 45.638992 4.8935232
-75.923729 45.631821 6.1516228
-75.908249 45.632507 5.9269195
-75.89576 45.633064 5.7118006
-75.883224 45.633621 5.4966612
-75.869522 45.634232 5.2789497
-76.065063 45.62571 6.9750438
-76.048203 45.626457 6.7425809
-76.038383 45.6269 6.5349255
-76.011124 45.628113 6.0950165
-75.996246 45.628773 5.8724728
-75.983322 45.629349 5.6559739
-75.970734 45.62991 5.4405527
-75.95771 45.630489 5.224297
-76.14991 45.622112 6.8985572
-76.136963 45.622688 6.6805611
-76.095642 45.624527 6.021338
-76.081223 45.625168 5.8009853
-76.067604 45.625774 5.5832558
-76.235954 45.618465 6.8133664
-76.181091 45.620903 5.9392152
-76.167122 45.621525 5.7210355
-76.154396 45.622093 5.5060244
-76.339241 45.614052 6.971807
-76.321457 45.614838 6.7400694
-76.310349 45.615337 6.5288882
-76.282181 45.616589 6.0900602
-76.266174 45.617294 5.8667078
-76.252876 45.617886 5.6503992
-77.175873 45.577076 18.489748
-76.421692 45.610554 6.9226928
-76.40641 45.611229 6.6980176
-76.365189 45.613064 6.0402517
-76.350204 45.613728 5.8189507
-76.337059 45.614311 5.6022592
-77.23774 45.574448 18.479372
-76.506386 45.606956 6.9018836
-76.491493 45.607616 6.6768603
-76.450592 45.609436 6.0156651
-76.436996 45.610039 5.7963138
-76.423332 45.610649 5.5772805
-76.577988 45.603939 6.6710601
-76.537277 45.605751 6.0061989
-76.523071 45.60638 5.7844429
-76.511894 45.606884 5.5691943
-77.376648 45.568542 18.467173
-76.977402 45.586327 11.818016
-76.623642 45.602081 5.9781289
-76.610123 45.602684 5.7571778
-76.598145 45.603218 5.539608
-76.402847 45.611919 2.2879927
-76.781364 45.595249 7.0241652
-76.730209 45.59753 6.1392894
-76.715523 45.598183 5.9154158
-76.702454 45.598766 5.6954446
-76.480743 45.608643 2.008527
-76.860443 45.591923 6.7176418
-76.808121 45.594254 5.8335381
-76.794235 45.594872 5.6122599
-76.954254 45.587944 6.6391792
-76.913986 45.589737 5.9732809
-76.899979 45.590359 5.7513142
-77.006149 45.585827 5.9039836
-76.7631 45.596638 1.9787424
-77.099228 45.581875 5.8538098
-77.085701 45.582478 5.6324883
-77.239967 45.575787 6.6990676
-77.202179 45.577477 6.034502
-77.175522 45.578663 5.5910244
-77.293564 45.573593 5.9986758
-77.28051 45.574177 5.7765999
-77.267357 45.57476 5.554841
-77.36232 45.570728 5.5247636
-77.538445 45.563076 6.84903
-77.487015 45.565372 5.9521346
-77.94458 45.545166 12.107988
-77.932823 45.545696 11.865441
-77.917488 45.546379 11.610592
-77.633919 45.559017 6.840384
-77.583076 45.561291 5.9424214
-77.367714 45.570904 2.1980357
-78.030922 45.541496 12.117699
-78.003761 45.542709 11.616442
-77.98954 45.543346 11.3654
-77.978661 45.543839 11.127183
-77.964149 45.544487 10.877559
-77.952972 45.544991 10.640136
-77.939056 45.545612 10.394755
-78.052917 45.54068 11.120713
-78.028564 45.541775 10.633931
-78.003624 45.542896 10.149534
-77.990936 45.543465 9.9082842
-77.981598 45.543888 9.6776457
-77.759163 45.553829 5.7222462
-77.570503 45.562283 2.1889582
-78.074966 45.53989 9.9105291
-78.061867 45.540478 9.6671696
-78.0513 45.540955 9.4318657
-78.040573 45.541439 9.1969261
-78.028816 45.541969 8.9601374
-78.017784 45.542465 8.7260685
-77.865685 45.549274 5.9445381
-77.843262 45.550282 5.4965286
-77.675652 45.557812 2.1806948
-78.097374 45.539112 8.4777145
-78.063927 45.540619 7.7794647
-77.962982 45.545135 5.9342146
-77.777794 45.553471 2.1642537
-78.220299 45.533833 8.9284401
-78.208679 45.534355 8.6917095
-78.185898 45.535381 8.2220173
-78.174721 45.535885 7.9889231
-78.163391 45.536392 7.7563124
-78.061012 45.540974 5.9074035
-77.87616 45.549294 2.1327591
-78.376785 45.527035 10.086765
-78.340919 45.528648 9.3619213
-78.320015 45.529594 8.8910027
-78.307388 45.530163 8.6519136
-78.299377 45.530529 8.423749
-78.28643 45.531109 8.185791
-77.975967 45.545052 2.0873122
-78.480957 45.522583 10.297489
-78.435356 45.524639 9.3310566
-78.424248 45.525139 9.0927706
-78.412003 45.525688 8.8528595
-78.402512 45.526119 8.6200056
-78.391869 45.526604 8.385396
-78.35891 45.528088 7.6843457
-78.247391 45.533085 5.6067324
-78.075752 45.540817 2.0459139
-78.520355 45.521027 9.3161449
-78.511772 45.52142 9.0821142
-78.489052 45.522442 8.6042662
-78.480904 45.52282 8.3733969
-78.447449 45.524326 7.6674995
-78.186745 45.536072 2.2433927
-78.166222 45.536999 1.8003484
-78.603928 45.517471 9.3168974
